ply
format ascii 1.0
element vertex 1266
property float x
property float y
property float z
property uchar red
property uchar green
property uchar blue
end_header
0.314067 0.402578 -0.475008 204 51 127
-0.665818 0.204008 0.398330 0 127 127
0.571830 0.080888 0.008231 76 0 153
-0.121280 0.739813 -0.379060 153 0 76
0.145638 -0.476810 -0.370862 0 0 255
0.323053 0.138600 -0.475008 204 51 127
0.444798 -0.118470 -0.252599 0 255 0
0.384834 -0.290654 0.284001 0 255 0
-0.165477 -0.290654 0.330182 0 255 0
-0.122183 -0.089906 0.140206 0 255 0
-0.448661 0.490062 -0.379060 153 0 76
-0.666449 0.192184 -0.393842 0 127 127
0.337311 -0.290654 0.404486 0 255 0
0.490448 0.311008 0.293958 76 0 153
-0.515066 -0.081194 0.556438 127 0 127
-0.008724 -0.089906 0.022514 0 255 0
-0.002174 0.085244 -0.464398 204 51 127
-0.624708 0.105676 -0.192975 0 127 127
0.423603 -0.232525 0.444035 0 255 0
-0.086274 -0.241742 0.676373 0 255 0
0.484848 -0.537951 0.585735 153 76 0
0.136636 0.183529 -0.355073 204 51 127
0.446715 0.298739 0.501481 76 0 153
0.563052 0.156371 0.676373 153 0 76
0.081646 -0.443729 -0.475008 0 0 255
0.546604 0.237623 0.327521 76 0 153
-0.361344 0.628869 -0.439027 153 0 76
-0.171752 -0.290654 0.621282 255 0 0
0.029594 -0.501668 0.605948 255 0 0
0.177417 -0.156739 -0.355073 204 51 127
0.021646 -0.290654 0.141338 0 255 0
0.364842 0.080010 0.384115 76 0 153
-0.002174 -0.218258 -0.196794 0 255 0
-0.608135 0.207872 0.118542 0 127 127
0.633469 0.272894 -0.269490 76 0 153
-0.141218 -0.220042 -0.355073 204 51 127
0.205388 -0.290654 -0.114615 0 255 0
0.256782 0.539941 -0.355073 204 51 127
0.443350 -0.135086 -0.409341 0 255 0
-0.536520 0.315212 0.282741 0 127 127
0.354676 -0.089906 0.194067 0 255 0
-0.140998 -0.290654 -0.192723 0 255 0
0.497185 -0.154747 -0.355073 76 153 0
0.113615 -0.090117 0.676373 0 255 0
-0.025257 0.812790 -0.439027 153 0 76
-0.139426 0.332784 -0.475008 204 51 127
0.562989 0.079145 0.524462 76 0 153
0.003632 -0.502838 -0.403027 0 0 255
0.099086 -0.089906 -0.061189 0 255 0
0.510859 0.698855 -0.379060 153 0 76
0.439097 -0.165605 -0.126272 0 255 0
-0.236638 -0.290654 0.283915 0 255 0
-0.450957 0.083553 0.123720 0 127 127
0.374016 -0.076171 -0.324187 0 255 0
0.127718 -0.089906 0.093565 0 255 0
0.392976 0.346211 -0.400859 204 51 127
-0.406263 0.265851 0.503022 0 127 127
0.658401 0.216052 -0.475008 76 0 153
-0.206656 0.582249 -0.419661 153 0 76
0.030799 0.629083 -0.469992 204 51 127
0.567864 -0.206378 0.629695 153 0 76
0.149956 -0.391955 0.600724 255 0 0
0.501388 -0.329582 0.658891 153 0 76
-0.371023 0.120800 -0.400535 0 127 127
0.257374 -0.290654 0.309025 0 255 0
-0.002174 -0.065874 -0.447444 204 51 127
-0.070072 -0.089906 0.213691 0 255 0
-0.101836 -0.290654 0.233346 0 255 0
0.184358 -0.353471 -0.357809 0 0 255
0.006172 0.520050 -0.475008 204 51 127
0.556993 0.203109 -0.475008 76 153 0
-0.564760 -0.130473 -0.412340 127 127 0
0.319597 0.311758 -0.475008 204 51 127
0.105702 -0.089906 -0.213860 0 255 0
0.000236 -0.346467 0.621105 255 0 0
0.476940 0.088005 0.676373 153 0 76
-0.082018 -0.290654 0.538565 0 255 0
0.340762 -0.323694 -0.475008 0 0 255
-0.002174 -0.228368 -0.344506 204 51 127
-0.132530 0.118614 -0.475008 204 51 127
0.565732 0.628292 -0.439027 153 0 76
-0.510772 -0.167378 -0.355073 127 127 0
-0.292932 -0.290654 0.541725 0 255 0
-0.216866 0.216372 -0.475008 204 51 127
0.660250 0.176438 -0.004527 76 0 153
0.213333 0.509526 -0.475008 204 51 127
-0.045343 -0.466111 -0.475008 0 0 255
-0.589526 0.084774 0.437982 0 127 127
-0.486109 -0.592978 -0.314985 153 0 76
0.226376 -0.290654 0.013020 0 255 0
0.121587 0.524076 -0.475008 204 51 127
-0.369481 0.089503 0.558284 0 127 127
-0.406962 -0.290640 0.146458 0 255 0
-0.243079 0.423036 -0.475008 204 51 127
0.580692 0.150800 -0.355073 76 153 0
-0.332025 -0.341479 -0.355073 0 0 255
-0.496023 -0.275583 0.614646 76 0 153
-0.002174 0.404543 -0.464012 204 51 127
0.404681 0.545429 -0.392840 204 51 127
-0.656594 0.242024 0.259629 0 127 127
0.555695 0.088147 -0.332765 76 0 153
0.078402 -0.290654 -0.159202 0 255 0
-0.369290 0.084526 0.182383 0 127 127
0.575234 0.231718 0.217258 76 0 153
0.445988 -0.097136 -0.160676 0 255 0
-0.360954 -0.220174 -0.355073 204 51 127
0.243619 -0.290654 0.219513 0 255 0
-0.616432 0.193969 -0.000577 0 127 127
0.272539 -0.432073 -0.404414 0 0 255
0.476239 -0.630163 0.667434 153 76 0
-0.147397 -0.290654 0.468622 0 255 0
-0.490797 -0.236256 -0.355073 127 127 0
0.452070 -0.348258 -0.328704 76 0 153
0.443374 -0.019061 0.537850 153 0 76
-0.438344 -0.450265 -0.347771 153 0 76
-0.573144 0.080005 -0.065145 0 127 127
0.476453 0.182969 0.556116 153 0 76
-0.017857 -0.089906 0.664589 0 255 0
-0.274705 -0.024757 -0.475008 204 51 127
0.069534 0.753237 -0.379060 153 0 76
-0.083490 0.710002 -0.439027 153 0 76
-0.519858 0.001496 -0.407474 127 127 0
-0.446508 0.042104 0.339792 0 127 127
0.486321 0.235617 0.676373 76 0 153
0.182660 -0.290654 -0.047545 0 255 0
0.603622 0.123887 -0.192849 76 0 153
-0.413965 -0.309194 -0.355073 0 0 255
0.154931 -0.089906 0.462090 0 255 0
-0.216022 -0.089906 -0.297109 0 255 0
-0.059904 -0.089906 -0.046017 0 255 0
-0.069382 0.061487 -0.475008 204 51 127
-0.406957 0.538649 -0.407394 153 0 76
-0.593306 0.108770 0.311432 0 127 127
0.348141 -0.290654 0.553437 255 0 0
-0.108440 -0.290654 0.399442 0 255 0
-0.621155 0.177913 0.615389 0 127 127
0.314201 -0.290654 -0.183628 0 255 0
0.421552 -0.239174 -0.224341 0 255 0
-0.074914 0.816883 -0.382697 153 0 76
0.369245 -0.392345 -0.403866 0 0 255
-0.375461 -0.089906 -0.086954 0 255 0
0.290491 -0.089906 0.085311 0 255 0
-0.240602 -0.132936 -0.355073 204 51 127
-0.100586 -0.354048 -0.413497 0 0 255
0.476887 -0.617377 -0.321090 76 0 153
-0.002174 -0.134033 0.108801 0 255 0
0.263322 -0.357978 -0.355073 0 0 255
0.359411 -0.095203 0.676373 0 255 0
0.257933 0.635228 -0.438963 153 0 76
0.048276 -0.089906 0.279939 0 255 0
-0.464512 0.140385 -0.196370 0 127 127
0.071596 -0.496461 -0.428884 0 0 255
0.651649 0.147166 0.206337 76 0 153
-0.218022 -0.352819 0.556438 255 0 0
0.061321 -0.050246 -0.355073 204 51 127
0.558515 0.095596 0.254460 76 0 153
-0.283041 0.341748 -0.355073 204 51 127
0.600445 0.092089 -0.460031 76 0 153
0.092958 -0.290654 0.067654 0 255 0
-0.370851 0.307893 -0.355073 204 51 127
-0.198246 -0.418351 0.664103 255 0 0
-0.383327 0.217173 0.208967 0 127 127
0.181902 -0.290654 -0.233576 0 255 0
-0.399637 0.077169 0.676373 0 127 127
-0.421034 -0.304368 -0.475008 127 127 0
-0.073680 -0.089906 -0.380599 0 255 0
-0.409553 -0.284231 -0.226891 0 255 0
0.636935 0.268213 -0.003900 76 0 153
-0.333008 0.325528 -0.475008 204 51 127
-0.370426 0.004748 -0.201963 0 127 127
-0.002174 -0.149227 0.188870 0 255 0
0.251340 -0.364373 -0.475008 0 0 255
0.365392 0.096231 0.259691 76 0 153
-0.490555 0.062799 -0.475008 127 127 0
0.587760 0.108019 0.389190 76 0 153
0.609015 0.293853 -0.409342 76 0 153
0.008250 0.212700 -0.355073 204 51 127
0.535122 0.237487 -0.416360 76 153 0
0.237229 0.102577 -0.355073 204 51 127
0.661820 0.201026 0.463944 76 0 153
0.128230 -0.089906 -0.463718 204 51 127
0.110851 -0.089906 0.233095 0 255 0
-0.511970 -0.534378 0.607275 76 0 153
0.139131 -0.290654 0.208459 0 255 0
0.298226 -0.348129 0.620900 255 0 0
0.646135 0.254329 0.121592 76 0 153
-0.415948 -0.268284 0.068290 0 255 0
0.249254 -0.131007 -0.355073 204 51 127
0.367270 -0.013833 0.070375 76 0 153
0.209908 0.409156 -0.475008 204 51 127
0.404963 0.636008 -0.439027 153 0 76
-0.151884 -0.089906 0.026956 0 255 0
-0.002174 -0.233122 0.068733 0 255 0
-0.442405 0.294253 -0.142489 0 127 127
0.123916 0.673146 -0.389983 153 0 76
0.364874 0.033681 -0.064229 76 0 153
0.535055 -0.299672 -0.475008 76 153 0
0.088529 0.544955 -0.355073 204 51 127
0.381304 -0.210071 0.676373 0 255 0
0.429572 0.409396 -0.379060 153 0 76
-0.450466 -0.061061 -0.428186 0 127 127
0.108746 0.206443 -0.475008 204 51 127
0.411678 -0.116495 -0.475008 0 255 0
-0.083088 -0.006777 -0.475008 204 51 127
-0.472710 0.163672 -0.400030 127 127 0
0.477842 -0.618710 0.581706 153 76 0
-0.372415 -0.023346 0.284204 0 127 127
-0.012095 -0.221102 -0.475008 204 51 127
-0.465967 0.303837 0.587001 0 127 127
-0.619262 0.184346 0.182862 0 127 127
0.287190 0.570648 -0.408473 153 0 76
-0.237952 -0.446687 -0.379997 0 0 255
-0.002174 -0.242432 0.190492 0 255 0
-0.479295 -0.332230 0.676373 76 0 153
0.087890 0.431676 -0.355073 204 51 127
-0.066694 -0.350911 0.676373 255 0 0
-0.446790 0.047692 -0.302284 0 127 127
-0.599924 0.218184 -0.459616 0 127 127
0.327746 -0.089906 -0.442898 0 255 0
0.500528 -0.196715 -0.475008 76 153 0
0.473827 -0.537858 -0.311321 76 0 153
-0.390485 0.237591 0.632395 0 127 127
-0.481761 0.185113 0.522939 0 127 127
-0.601385 0.217104 -0.175907 0 127 127
0.282605 -0.360530 0.556438 255 0 0
-0.385105 0.402716 -0.475008 204 51 127
0.599323 0.214256 -0.342124 76 153 0
-0.254685 0.630738 -0.379060 153 0 76
0.553969 0.282699 -0.475008 76 0 153
-0.378047 -0.089906 0.065182 0 255 0
0.376569 -0.229549 -0.355073 204 51 127
0.554110 0.090102 0.146555 76 0 153
0.208191 -0.136459 0.676373 0 255 0
0.042132 -0.089906 0.146766 0 255 0
0.069133 0.386706 -0.475008 204 51 127
0.548455 -0.276957 0.595316 153 0 76
0.500353 -0.083242 -0.355073 76 153 0
0.269439 -0.290654 0.648104 0 255 0
-0.193307 0.283975 -0.355073 204 51 127
-0.014207 0.135212 -0.355073 204 51 127
-0.315733 -0.290654 -0.126463 0 255 0
0.433868 0.292083 0.324627 76 0 153
-0.566650 -0.238306 -0.421842 127 127 0
-0.371937 -0.290654 0.010852 0 255 0
0.439399 -0.163868 0.130915 0 255 0
0.329051 0.458490 -0.355073 204 51 127
-0.131069 0.071115 -0.355073 204 51 127
-0.198420 0.076421 -0.475008 204 51 127
0.613712 0.099639 -0.097066 76 0 153
-0.002174 -0.237297 0.355014 0 255 0
-0.160930 -0.290654 0.050328 0 255 0
0.475012 -0.275583 -0.381374 76 0 153
-0.371141 -0.006398 0.582699 0 127 127
0.185638 0.309486 -0.475008 204 51 127
-0.323174 -0.089906 0.383404 0 255 0
-0.002174 -0.226652 -0.119458 0 255 0
0.368062 -0.023286 -0.169502 76 0 153
0.615519 0.289666 -0.075938 76 0 153
-0.583146 0.307903 -0.408104 0 127 127
0.059054 -0.127460 -0.355073 204 51 127
-0.071510 -0.239824 -0.355073 204 51 127
-0.423634 -0.051162 0.676373 0 127 127
0.082637 0.300060 -0.355073 204 51 127
-0.454650 0.103609 0.230212 0 127 127
0.474491 0.308064 0.441819 76 0 153
0.094486 -0.290654 -0.405804 204 51 127
0.056265 -0.290654 0.381778 0 255 0
0.441528 0.029548 -0.345964 76 153 0
0.445245 -0.041812 -0.062614 76 0 153
0.439308 -0.164389 0.268539 0 255 0
-0.373476 0.151387 0.429888 0 127 127
0.389910 0.246076 0.010631 76 0 153
-0.108222 -0.089906 0.280071 0 255 0
-0.608780 0.625706 -0.439027 153 0 76
0.364636 0.052298 0.451212 76 0 153
0.409382 -0.273901 0.532499 0 255 0
0.467496 0.305880 -0.403623 153 0 76
0.190168 0.459012 -0.355073 204 51 127
0.337157 -0.290654 0.618716 255 0 0
0.113262 -0.486718 0.615984 255 0 0
-0.449795 -0.109275 0.508831 0 255 0
0.375847 -0.089075 -0.112103 0 255 0
0.617148 0.161886 0.638677 153 0 76
0.364965 0.031097 0.665037 76 0 153
0.110769 0.751750 -0.439027 153 0 76
-0.042918 0.322243 -0.475008 204 51 127
-0.239227 0.005449 -0.355073 204 51 127
-0.489870 0.201832 0.419824 0 127 127
-0.043587 -0.089906 0.544653 0 255 0
0.478696 0.187979 0.110906 76 0 153
-0.385296 -0.127449 -0.355923 204 51 127
0.372461 -0.089906 0.057819 76 0 153
0.473729 0.176886 0.020293 76 0 153
0.452335 0.112079 -0.278397 76 0 153
-0.205047 -0.253362 0.676373 0 255 0
-0.520607 -0.456426 0.617678 76 0 153
-0.186187 -0.089906 0.157166 0 255 0
-0.448162 -0.633208 0.624298 76 0 153
0.541662 0.314442 -0.178076 76 0 153
-0.548920 0.709005 -0.382392 153 0 76
0.590680 0.221802 0.280385 76 0 153
0.261851 -0.089906 0.351723 0 255 0
-0.621465 0.176856 0.474682 0 127 127
0.613365 0.291377 0.546478 76 0 153
0.189052 0.688044 -0.379060 153 0 76
-0.058652 -0.397173 0.613574 255 0 0
0.636578 0.268751 0.609080 76 0 153
0.366564 0.119069 0.621086 76 0 153
-0.369074 0.045262 0.048248 0 127 127
-0.280412 -0.290654 0.103483 0 255 0
-0.002174 -0.203961 0.499342 0 255 0
0.372195 0.179125 0.296766 76 0 153
-0.377606 0.187076 -0.141777 0 127 127
-0.366393 0.256765 -0.475008 204 51 127
0.445527 0.077391 0.217017 76 0 153
0.651250 0.244744 -0.374240 76 0 153
0.030097 0.149005 -0.475008 204 51 127
-0.514518 -0.203948 -0.475008 127 127 0
-0.293332 -0.290654 0.415560 0 255 0
0.375843 -0.089906 0.302516 76 0 153
0.442589 0.050617 0.037518 76 0 153
-0.002174 -0.141248 -0.087533 0 255 0
0.365577 0.101053 -0.188851 76 0 153
0.233339 0.011770 -0.475008 204 51 127
-0.334466 0.488563 -0.475008 204 51 127
-0.484936 -0.625975 -0.407453 153 0 76
0.504776 0.596566 -0.439027 153 0 76
-0.018216 -0.290654 -0.334561 0 255 0
-0.002174 -0.272845 0.543364 0 255 0
0.656242 0.231115 0.201127 76 0 153
-0.267931 -0.322833 -0.355073 0 0 255
-0.203968 0.005575 -0.475008 204 51 127
-0.596502 0.220713 0.055087 0 127 127
0.437067 0.008380 -0.475008 76 0 153
0.223471 -0.037365 -0.355073 204 51 127
0.474948 -0.619569 -0.406551 76 0 153
0.652771 0.240591 0.318768 76 0 153
0.448784 -0.348613 -0.475008 76 153 0
-0.449195 -0.037024 -0.296692 0 127 127
-0.447920 -0.021681 0.350759 0 127 127
0.085348 -0.290654 0.279057 0 255 0
-0.354591 -0.285145 -0.475008 204 51 127
-0.168545 -0.089906 0.311190 0 255 0
-0.310130 -0.089906 0.509161 0 255 0
-0.478433 0.591022 -0.439027 153 0 76
0.160740 -0.290654 -0.170951 0 255 0
-0.273659 -0.210969 -0.355073 204 51 127
0.388634 0.243207 0.573269 76 0 153
-0.200469 -0.089906 -0.408673 0 255 0
0.097171 -0.352849 -0.433316 0 0 255
0.127155 -0.232500 -0.475008 0 255 0
-0.085430 -0.494543 -0.409418 0 0 255
0.069000 -0.235421 -0.355073 204 51 127
-0.181238 -0.089906 0.523541 0 255 0
0.029904 -0.427628 0.676373 255 0 0
-0.539501 0.237488 0.543372 127 0 127
0.387527 -0.177019 -0.433403 204 51 127
0.067692 0.237416 -0.355073 204 51 127
0.321084 -0.290654 -0.038411 0 255 0
-0.381378 -0.290654 -0.135856 0 255 0
-0.480626 -0.252547 0.676373 127 0 127
0.590996 0.221569 -0.049200 76 0 153
-0.148402 -0.150773 -0.355073 204 51 127
-0.351472 -0.089906 0.675680 0 255 0
-0.370651 0.115009 -0.278790 0 127 127
-0.133881 -0.290654 -0.058822 0 255 0
-0.555029 -0.106265 -0.475008 127 127 0
-0.522675 -0.441261 -0.359030 153 0 76
0.550196 0.313625 0.344496 76 0 153
-0.441728 -0.175496 -0.280064 0 255 0
-0.509277 -0.536292 -0.356212 153 0 76
-0.326161 -0.382856 -0.475008 0 0 255
-0.608076 0.093957 0.055468 0 127 127
0.246536 -0.290654 0.442297 0 255 0
0.514602 0.230972 0.474855 76 0 153
0.388828 -0.290654 0.208491 0 255 0
0.502442 -0.242707 0.556438 153 0 76
-0.513346 -0.035094 -0.355073 127 127 0
0.395762 -0.380592 0.612419 255 0 0
0.443587 -0.132363 -0.032198 0 255 0
0.374741 0.197529 -0.194256 76 0 153
-0.002174 -0.235691 0.630888 0 255 0
0.655983 0.158995 -0.068394 76 0 153
0.065396 -0.089906 -0.002156 0 255 0
-0.592888 0.223384 -0.297388 0 127 127
0.618730 0.104154 0.444660 76 0 153
0.343611 -0.290654 -0.420712 0 0 255
0.107302 -0.386729 0.676373 255 0 0
0.053607 -0.415551 -0.413858 0 0 255
0.518005 -0.033459 0.621310 153 0 76
-0.002174 -0.145906 0.396594 0 255 0
-0.526584 -0.318807 -0.435407 127 127 0
-0.040428 -0.290654 -0.143089 0 255 0
0.624186 0.281568 0.404850 76 0 153
-0.516729 0.004585 -0.475008 127 127 0
0.036718 0.694592 -0.379060 153 0 76
0.374811 -0.081773 -0.245004 76 0 153
0.471611 0.307221 0.089123 76 0 153
-0.034062 -0.423145 -0.355073 0 0 255
0.652269 0.148858 -0.300983 76 0 153
-0.046346 0.293558 -0.355073 204 51 127
-0.215502 -0.290654 -0.214575 0 255 0
0.217841 -0.055998 -0.475008 204 51 127
0.516246 -0.455399 0.627166 153 76 0
0.476920 -0.554906 -0.392858 76 0 153
0.516417 -0.024442 -0.420336 76 153 0
0.602368 0.209901 -0.195390 76 0 153
-0.279728 -0.200803 -0.475008 204 51 127
0.616928 0.156109 0.259898 76 0 153
0.040648 0.354143 -0.355073 204 51 127
0.479216 -0.457200 -0.317813 76 0 153
-0.024085 0.629499 -0.403543 204 51 127
-0.134492 0.678354 -0.384163 153 0 76
0.516565 0.314339 -0.238506 76 0 153
-0.531407 -0.063952 0.623560 127 0 127
-0.579542 0.564874 -0.437244 153 0 76
-0.047085 0.514171 -0.355073 204 51 127
0.030498 -0.356146 0.556438 255 0 0
0.376048 0.206459 -0.389754 76 0 153
-0.002174 -0.451062 0.626580 255 0 0
-0.242050 0.402227 -0.355073 204 51 127
-0.047885 -0.089906 0.474116 0 255 0
-0.354835 -0.336812 0.556438 255 0 0
0.463238 -0.172400 0.676373 153 0 76
0.401899 0.265826 0.102977 76 0 153
0.646609 0.137206 -0.394466 76 0 153
0.441957 0.000249 0.402849 76 0 153
-0.391115 0.623966 -0.379060 153 0 76
0.331636 -0.408421 -0.458978 0 0 255
-0.421057 0.054839 -0.475008 0 127 127
-0.164628 -0.089906 -0.111220 0 255 0
-0.199463 -0.278859 -0.475008 204 51 127
-0.570290 0.605887 -0.379060 153 0 76
-0.437053 0.285221 -0.475008 0 127 127
-0.414071 0.275553 0.082415 0 127 127
0.658010 0.226290 -0.235922 76 0 153
-0.002174 -0.256878 -0.406721 204 51 127
-0.235537 -0.089906 -0.073639 0 255 0
-0.323193 -0.089906 0.026902 0 255 0
0.017065 -0.432996 -0.462502 0 0 255
-0.052622 0.061113 -0.355073 204 51 127
-0.648925 0.256679 0.546616 0 127 127
-0.598314 0.219374 0.658479 127 0 127
-0.094578 -0.427875 -0.475008 0 0 255
0.511600 0.540013 -0.382373 153 0 76
-0.316356 -0.089906 -0.389508 0 255 0
0.434054 0.661069 -0.384861 153 0 76
-0.221453 0.639540 -0.439027 153 0 76
-0.626245 0.283707 0.052343 0 127 127
-0.002174 -0.157217 -0.024934 0 255 0
0.370395 0.270797 -0.475008 204 51 127
-0.110459 -0.462947 0.676373 255 0 0
0.565838 0.311676 -0.365628 76 0 153
0.555668 0.313101 0.671001 76 0 153
0.043766 -0.160532 -0.475008 204 51 127
-0.616413 0.194033 -0.115249 0 127 127
-0.328080 0.183487 -0.355073 204 51 127
-0.370771 0.116881 0.613941 0 127 127
-0.632128 0.112609 0.675054 0 127 127
0.044444 0.817076 -0.379060 153 0 76
-0.235555 0.689742 -0.379060 153 0 76
-0.612804 0.201195 0.356899 0 127 127
-0.130723 -0.366097 -0.475008 0 0 255
-0.038186 -0.089906 0.083919 0 255 0
-0.002174 -0.138609 0.260452 0 255 0
-0.500194 0.291878 0.676373 0 127 127
-0.437152 -0.448683 0.611037 76 0 153
-0.123499 0.172854 -0.355073 204 51 127
0.561651 -0.241064 -0.407482 76 153 0
-0.447006 -0.140615 -0.216588 0 255 0
-0.485391 -0.676237 0.661098 76 0 153
0.042760 -0.350640 -0.355073 0 0 255
-0.438544 -0.362764 -0.414992 0 0 255
-0.447892 -0.021338 0.157189 0 127 127
-0.120170 0.420251 -0.475008 204 51 127
0.225184 -0.449796 0.605731 255 0 0
0.557343 0.312940 0.152781 76 0 153
-0.444122 0.375018 -0.439027 153 0 76
-0.495625 0.557689 -0.379060 153 0 76
-0.523167 -0.354247 0.620762 76 0 153
0.427909 -0.494923 0.609902 153 76 0
-0.385444 0.703892 -0.431788 153 0 76
-0.189155 -0.159939 0.676373 0 255 0
0.442775 0.296698 0.633889 76 0 153
-0.182718 -0.047617 -0.355073 204 51 127
-0.450673 -0.066181 0.263754 0 127 127
-0.125390 -0.373200 -0.355073 0 0 255
-0.236029 -0.389317 0.625086 255 0 0
0.660593 0.211464 -0.298838 76 0 153
-0.446009 0.009208 -0.186460 0 127 127
0.308908 -0.089906 0.287528 0 255 0
0.449159 0.442155 -0.439027 153 0 76
0.062654 0.625357 -0.409166 204 51 127
0.662021 0.191505 -0.418754 76 0 153
-0.624591 0.105568 0.255929 0 127 127
0.261898 -0.290654 0.160877 0 255 0
0.208771 -0.314270 -0.475008 0 0 255
-0.256720 0.109657 -0.475008 204 51 127
-0.450575 -0.091751 -0.117529 0 127 127
0.232823 -0.393884 0.639261 255 0 0
0.181495 0.587879 -0.415824 204 51 127
0.369772 -0.041964 0.647734 76 0 153
-0.002174 -0.241448 0.285887 0 255 0
0.096171 -0.290654 0.603214 0 255 0
0.171539 -0.290654 0.454417 0 255 0
0.448718 0.095559 -0.407711 76 153 0
-0.456152 0.109865 -0.002040 0 127 127
0.365419 0.019293 0.265383 76 0 153
0.443833 0.141263 -0.475008 76 0 153
-0.311928 0.506489 -0.355073 204 51 127
-0.447828 -0.020505 0.529438 0 127 127
0.167198 -0.089906 0.340147 0 255 0
-0.618944 0.100290 0.376719 0 127 127
0.441504 0.022805 0.491892 76 0 153
-0.157711 -0.474357 -0.424111 0 0 255
-0.498569 -0.234641 0.556438 127 0 127
-0.557378 -0.267007 0.612904 127 0 127
0.369842 -0.042562 -0.425159 204 51 127
-0.329873 -0.410551 0.556438 255 0 0
0.369551 0.156095 -0.075015 76 0 153
-0.573746 0.098216 -0.474426 127 127 0
0.262489 -0.089906 -0.081735 0 255 0
-0.592795 0.085726 0.561095 0 127 127
0.449620 0.100697 0.104344 76 0 153
-0.411978 -0.278234 0.452794 0 255 0
0.600950 0.175051 0.556438 76 0 153
-0.219410 -0.290654 0.529631 0 255 0
0.360039 0.568998 -0.426916 204 51 127
0.121166 -0.392492 -0.475008 0 0 255
-0.230269 0.564413 -0.475008 204 51 127
-0.645802 0.261393 0.401122 0 127 127
0.025181 0.026905 -0.355073 204 51 127
0.271288 -0.290654 -0.331875 0 255 0
-0.182561 -0.336899 -0.407925 0 0 255
-0.276538 0.571938 -0.390458 204 51 127
-0.476990 0.174459 0.634263 0 127 127
-0.445919 0.030386 0.015491 0 127 127
-0.403057 -0.379237 0.621279 255 0 0
-0.379503 -0.084194 0.405291 0 255 0
-0.446806 -0.006584 0.622344 0 127 127
0.044145 0.744918 -0.439027 153 0 76
-0.060362 0.742499 -0.379060 153 0 76
0.052529 -0.290654 -0.461656 0 0 255
0.423279 -0.233577 0.595644 0 255 0
0.371912 -0.060438 -0.049903 76 0 153
0.660050 0.216078 0.574282 76 0 153
-0.376276 -0.060568 0.210445 0 127 127
-0.529615 0.049524 -0.372007 127 127 0
-0.448611 0.066489 -0.223155 0 127 127
-0.450507 -0.062095 -0.238188 0 127 127
-0.442325 -0.172057 0.017704 0 255 0
0.446320 -0.084394 0.057446 76 0 153
0.457474 0.131609 0.434256 76 0 153
-0.316879 0.049194 -0.475008 204 51 127
-0.654336 0.248190 0.116085 0 127 127
0.198716 0.750951 -0.379803 153 0 76
-0.019140 -0.290654 -0.259004 0 255 0
0.371957 -0.060823 0.380784 0 255 0
-0.240307 -0.089906 0.085092 0 255 0
-0.143519 -0.212618 -0.475008 204 51 127
-0.449652 -0.321164 0.556438 127 0 127
-0.426421 -0.191447 0.676373 0 255 0
-0.240037 -0.290654 0.005160 0 255 0
-0.126207 -0.089906 -0.048381 0 255 0
0.275448 -0.089906 -0.316754 0 255 0
-0.332413 0.576099 -0.439027 153 0 76
-0.621670 0.166450 -0.430165 0 127 127
-0.160305 0.651374 -0.439027 153 0 76
-0.368945 0.060903 0.503253 0 127 127
-0.430193 -0.225170 0.232669 0 255 0
0.550994 -0.116107 -0.355073 76 153 0
-0.114317 -0.089906 0.078017 0 255 0
-0.451098 -0.361302 -0.337182 153 0 76
0.396307 0.516189 -0.449291 204 51 127
-0.394974 0.359251 -0.405962 153 0 76
0.532103 0.065021 0.578093 153 0 76
0.358088 -0.290654 0.022945 0 255 0
0.446088 -0.094870 0.462237 0 255 0
-0.516844 0.314111 0.041332 0 127 127
0.487189 0.205014 -0.091437 76 0 153
-0.370647 0.001302 0.388800 0 127 127
0.591330 0.149437 -0.475008 76 153 0
-0.269590 -0.089906 -0.190766 0 255 0
-0.445806 -0.149837 0.631854 127 0 127
-0.219692 -0.089906 0.206865 0 255 0
-0.599080 0.088837 -0.415216 0 127 127
-0.405025 -0.290654 0.392576 0 255 0
-0.426763 -0.236377 -0.069801 0 255 0
0.099418 -0.441317 -0.355073 0 0 255
-0.199257 0.750187 -0.438254 153 0 76
-0.148360 -0.089906 -0.310997 0 255 0
-0.131432 -0.089906 -0.433729 0 255 0
-0.038392 -0.089906 0.345622 0 255 0
-0.501868 0.219202 0.066158 0 127 127
0.079736 -0.370567 0.610929 255 0 0
-0.396618 -0.212757 -0.450159 204 51 127
-0.151218 -0.433947 0.596797 255 0 0
-0.067993 -0.286799 -0.475008 204 51 127
-0.075358 -0.166476 -0.475008 0 255 0
-0.618208 0.099724 -0.340238 0 127 127
0.501086 -0.107478 0.556438 153 0 76
0.279593 -0.089906 -0.207420 0 255 0
0.660984 0.182680 0.524887 76 0 153
-0.225985 -0.290654 -0.070148 0 255 0
0.443143 -0.015919 0.602792 76 0 153
-0.002174 -0.238242 0.005198 0 255 0
-0.404560 0.142106 -0.475008 0 127 127
0.263412 0.698771 -0.438275 153 0 76
-0.443499 0.657717 -0.379060 153 0 76
-0.435405 -0.175035 -0.475008 127 127 0
-0.341065 -0.398349 0.676373 255 0 0
-0.493324 -0.279917 -0.475008 127 127 0
-0.461919 0.131925 0.077486 0 127 127
-0.247225 -0.367716 -0.475008 0 0 255
0.006757 -0.320347 0.676373 255 0 0
0.386388 -0.290654 0.140163 0 255 0
-0.419320 0.280821 -0.009644 0 127 127
-0.372902 -0.028760 -0.350670 0 127 127
0.569129 0.233689 0.158329 76 0 153
0.368271 -0.025619 0.459335 76 0 153
0.083556 -0.179776 0.676373 0 255 0
0.381466 0.226267 0.377245 76 0 153
-0.105141 -0.173533 0.676373 0 255 0
0.563993 0.672714 -0.379060 153 0 76
-0.395522 0.567615 -0.355073 204 51 127
-0.561603 0.086221 -0.279024 0 127 127
0.123530 -0.290654 -0.045353 0 255 0
0.121122 0.417009 -0.475008 204 51 127
-0.529297 0.141755 0.556438 127 0 127
-0.435827 -0.203714 0.545355 0 255 0
0.320008 -0.341212 -0.355073 0 0 255
-0.655409 0.245261 -0.356140 0 127 127
-0.217309 -0.290654 0.215568 0 255 0
0.635034 0.119738 0.541859 76 0 153
0.434174 -0.336230 0.618578 153 76 0
-0.036023 -0.290654 0.033436 0 255 0
-0.322193 -0.290654 0.483464 0 255 0
0.364693 0.047800 -0.341427 76 0 153
-0.335387 0.203623 -0.475008 204 51 127
0.487756 0.206096 -0.187405 76 0 153
0.399669 -0.316054 -0.475008 0 0 255
-0.485283 0.309205 -0.374229 0 127 127
-0.311313 -0.160548 0.676373 0 255 0
0.024721 -0.470193 0.556438 255 0 0
0.561374 0.312554 -0.079068 76 0 153
-0.605080 0.298567 -0.217619 0 127 127
-0.530432 0.234981 0.622304 127 0 127
-0.294769 0.054718 -0.355073 204 51 127
-0.455966 0.109093 0.496349 0 127 127
0.426003 -0.300934 -0.355073 76 0 153
-0.659104 0.155647 -0.288565 0 127 127
-0.287581 -0.290654 -0.200750 0 255 0
-0.029739 -0.042917 -0.355073 204 51 127
0.417569 0.282713 -0.217768 76 0 153
-0.372102 0.136113 -0.030242 0 127 127
0.076581 -0.290654 -0.095012 0 255 0
-0.112673 -0.290654 -0.244088 0 255 0
0.224916 -0.305749 0.556438 255 0 0
0.660723 0.180460 0.136542 76 0 153
-0.193252 -0.123246 -0.475008 204 51 127
-0.477361 -0.685189 -0.398329 153 0 76
-0.449527 0.074625 -0.090639 0 127 127
0.294159 -0.234133 -0.355073 204 51 127
0.068634 -0.290654 0.530519 0 255 0
0.583650 0.576000 -0.380415 153 0 76
0.614904 0.184379 0.421559 76 0 153
0.373189 0.186590 -0.277614 76 0 153
-0.103601 0.617906 -0.463311 204 51 127
-0.614398 0.133971 -0.142929 0 127 127
0.457990 0.133292 -0.100379 76 0 153
0.472045 -0.031504 0.676373 153 0 76
-0.184498 -0.290654 0.109630 0 255 0
0.648809 0.250293 -0.115071 76 0 153
0.369124 0.151349 -0.013748 76 0 153
-0.649782 0.135432 0.581094 0 127 127
0.497233 -0.220167 0.676373 153 0 76
-0.481992 -0.684972 -0.328454 153 0 76
-0.368983 0.052334 -0.165156 0 127 127
-0.572055 -0.169288 0.582265 127 0 127
0.442047 0.296321 -0.121431 76 0 153
-0.002174 -0.135650 -0.419918 204 51 127
0.020167 0.849111 -0.439027 153 0 76
0.274000 -0.290654 -0.137584 0 255 0
0.062689 -0.497806 0.653611 255 0 0
0.162777 -0.327957 0.676373 255 0 0
-0.293555 -0.290654 -0.408888 204 51 127
-0.103733 -0.290654 0.634350 0 255 0
-0.148286 0.246478 -0.475008 204 51 127
-0.045243 -0.290654 0.589907 255 0 0
0.442647 0.051778 0.289707 76 0 153
-0.152658 -0.290654 -0.314404 0 255 0
-0.420502 0.595287 -0.439027 153 0 76
0.193655 -0.242023 0.676373 0 255 0
-0.507661 0.120096 -0.355073 127 127 0
0.146417 0.420872 -0.355073 204 51 127
-0.628163 0.108905 0.114008 0 127 127
0.487543 0.205689 -0.395685 76 0 153
0.418207 -0.249711 -0.060248 0 255 0
-0.506610 0.222883 0.315449 0 127 127
0.019144 -0.089906 0.420387 0 255 0
0.460234 -0.291940 0.556438 153 0 76
-0.062816 -0.089906 -0.155441 0 255 0
-0.122990 0.576437 -0.355073 204 51 127
-0.346567 -0.089906 0.316589 0 255 0
-0.329593 -0.290654 0.370433 0 255 0
0.321712 0.606614 -0.379060 153 0 76
0.481815 -0.680493 -0.321254 76 0 153
-0.450684 -0.076553 0.116822 0 127 127
0.496297 -0.332213 -0.439101 76 153 0
-0.235501 -0.290654 0.415395 0 255 0
-0.459318 0.123052 -0.127014 0 127 127
-0.317255 -0.290654 -0.296962 0 255 0
0.468293 0.163490 0.620463 153 0 76
-0.402922 -0.290654 0.592482 127 0 127
0.202569 -0.281687 -0.355073 204 51 127
0.510997 0.150776 -0.355073 76 153 0
-0.180715 0.503265 -0.355073 204 51 127
0.339412 -0.029421 -0.475008 204 51 127
0.149764 0.710590 -0.428574 153 0 76
0.659891 0.173383 0.314534 76 0 153
0.484589 0.200052 0.436077 76 0 153
-0.438767 -0.190239 -0.102076 0 255 0
0.264120 0.098159 -0.475008 204 51 127
0.560942 0.312595 0.032870 76 0 153
-0.352221 0.435875 -0.355073 204 51 127
0.365982 0.110001 0.203831 76 0 153
0.329808 0.457844 -0.475008 204 51 127
0.441597 0.014728 -0.088940 76 0 153
0.367411 0.132279 -0.295449 76 0 153
-0.217017 -0.454200 0.623343 255 0 0
0.492068 0.642571 -0.379060 153 0 76
-0.558443 0.313251 -0.036908 0 127 127
0.378640 -0.290654 -0.153254 0 255 0
0.164954 0.634615 -0.379060 153 0 76
-0.031946 -0.290654 0.497721 0 255 0
-0.448545 -0.029195 -0.044275 0 127 127
-0.153333 -0.371930 0.561651 255 0 0
-0.447163 -0.011449 0.229836 0 127 127
-0.333236 -0.409583 -0.360112 0 0 255
-0.610429 0.204592 0.237081 0 127 127
-0.014575 -0.351597 -0.462914 0 0 255
0.299821 -0.089906 0.621075 0 255 0
0.217702 -0.410652 -0.475008 0 0 255
0.213379 -0.443436 0.676373 255 0 0
0.146985 -0.290654 0.113044 0 255 0
-0.022032 -0.290654 0.343630 0 255 0
-0.389947 0.236382 -0.095879 0 127 127
0.558922 0.312789 0.544698 76 0 153
-0.369985 0.102620 0.063178 0 127 127
-0.100168 -0.321958 -0.355073 0 0 255
0.200008 -0.290654 0.316556 0 255 0
0.602828 0.209243 0.478279 76 0 153
-0.378864 0.195939 -0.384533 204 51 127
-0.486752 0.175922 -0.475008 0 127 127
-0.097379 -0.290654 -0.145477 0 255 0
-0.501769 0.138031 0.676373 127 0 127
0.377403 -0.290654 -0.087390 0 255 0
-0.371400 -0.010428 -0.422898 204 51 127
0.094751 -0.089906 -0.329751 0 255 0
0.626743 0.111641 -0.342525 76 0 153
-0.017534 -0.089906 -0.268296 0 255 0
0.498209 0.175411 -0.475008 76 153 0
-0.451958 0.089248 0.426734 0 127 127
-0.438798 0.292385 -0.277080 0 127 127
-0.504271 -0.337685 -0.336862 153 0 76
0.507365 -0.325288 -0.351718 76 0 153
0.476309 -0.106685 0.676373 153 0 76
0.113005 -0.089906 0.595161 0 255 0
-0.486214 0.647189 -0.439027 153 0 76
-0.450666 -0.085452 0.640070 0 127 127
-0.302507 -0.327703 0.596508 255 0 0
-0.232239 -0.123134 0.676373 0 255 0
0.467536 0.360191 -0.385417 153 0 76
-0.502751 0.219888 -0.290358 0 127 127
0.410487 -0.271168 0.031617 0 255 0
0.409763 0.395750 -0.439027 153 0 76
-0.096699 -0.089906 0.563920 0 255 0
-0.377408 -0.069431 0.483168 0 127 127
0.163474 -0.089906 0.137284 0 255 0
0.400965 0.264368 -0.090994 76 0 153
0.242517 -0.290654 -0.250093 0 255 0
0.366927 0.124726 -0.133498 76 0 153
0.035177 0.476709 -0.355073 204 51 127
0.169208 -0.369732 -0.419189 0 0 255
0.400864 0.315309 -0.447812 153 0 76
-0.321060 -0.290654 0.312975 0 255 0
0.152916 -0.089906 -0.037249 0 255 0
-0.033100 -0.121781 -0.355073 204 51 127
0.370798 0.167069 0.097307 76 0 153
0.563986 -0.143764 0.629203 153 0 76
0.567651 -0.168448 -0.425413 76 153 0
-0.338374 -0.165733 -0.475008 204 51 127
-0.446925 0.050383 0.246654 0 127 127
-0.381725 -0.388758 -0.418740 0 0 255
-0.566200 -0.157916 -0.355073 127 127 0
-0.525172 -0.586634 0.623176 76 0 153
-0.423921 -0.245589 -0.266936 0 255 0
0.475218 -0.688792 0.661873 153 76 0
0.132006 -0.333852 -0.363282 0 0 255
0.062159 -0.089906 -0.103687 0 255 0
0.628745 0.277308 -0.213733 76 0 153
-0.486312 -0.103134 -0.355073 127 127 0
0.093828 0.141458 -0.475008 204 51 127
-0.621653 0.166028 0.399645 0 127 127
-0.405941 0.217042 -0.475008 0 127 127
-0.447230 -0.012352 -0.394186 0 127 127
0.650891 0.245725 0.047300 76 0 153
0.183230 -0.102466 -0.475008 0 255 0
-0.665196 0.209297 -0.023424 0 127 127
-0.449402 -0.115542 -0.009038 0 255 0
0.473043 -0.398945 -0.311292 76 0 153
0.608754 0.096818 0.063566 76 0 153
-0.484003 0.067605 0.676373 127 0 127
-0.150784 -0.267098 0.676373 0 255 0
-0.253661 0.294473 -0.475008 204 51 127
0.373464 0.188528 0.183200 76 0 153
0.501428 0.106374 0.556438 153 0 76
-0.414865 -0.271094 0.297383 0 255 0
0.136517 -0.472023 0.556438 255 0 0
0.446070 -0.095281 0.177305 0 255 0
-0.216103 0.233018 -0.355073 204 51 127
-0.151627 0.338153 -0.355073 204 51 127
0.457669 0.034965 0.676373 153 0 76
0.369508 0.155620 0.663117 76 0 153
-0.456323 0.110577 -0.404615 0 127 127
0.446347 -0.071360 0.308571 76 0 153
0.429525 -0.211156 0.221504 0 255 0
0.662159 0.198145 -0.135388 76 0 153
-0.412358 0.273605 -0.209077 0 127 127
0.175907 -0.089906 0.672866 0 255 0
0.368080 0.139734 0.522345 76 0 153
-0.448337 -0.026701 0.422464 0 127 127
0.336177 -0.201684 -0.475008 204 51 127
0.115011 -0.290654 0.674023 255 0 0
-0.558127 0.313282 0.228451 0 127 127
-0.514637 0.229113 -0.171915 0 127 127
-0.156941 0.543651 -0.475008 204 51 127
0.339684 -0.089906 -0.002419 0 255 0
-0.099399 -0.045525 -0.355073 204 51 127
0.024939 -0.022575 -0.475008 204 51 127
-0.449315 -0.116540 -0.426369 127 127 0
-0.368402 -0.089906 -0.160391 0 127 127
-0.495713 0.050539 0.556438 127 0 127
0.442180 0.042488 0.094802 76 0 153
-0.369431 0.088199 0.319945 0 127 127
0.013174 -0.475429 -0.355073 0 0 255
0.604272 0.669063 -0.418970 153 0 76
-0.319134 0.281097 -0.355073 204 51 127
-0.066489 -0.378884 0.559412 255 0 0
-0.442963 -0.168384 0.283662 0 255 0
-0.002174 -0.248688 0.466548 0 255 0
0.440508 -0.157136 0.557680 153 0 76
0.052738 -0.089906 -0.420070 0 255 0
0.442926 -0.012953 0.020978 76 0 153
-0.391815 -0.176571 -0.380449 204 51 127
-0.380442 0.206626 0.419499 0 127 127
-0.633866 0.276586 0.452883 0 127 127
0.364614 0.062285 0.149386 76 0 153
0.428602 -0.214672 -0.163714 0 255 0
0.391320 0.249248 0.265850 76 0 153
0.204839 0.517793 -0.355073 204 51 127
0.532484 0.237216 0.102231 76 0 153
0.284577 0.522686 -0.475008 204 51 127
0.367390 0.131944 0.413698 76 0 153
-0.368911 0.058242 0.387529 0 127 127
0.231280 -0.407136 0.556438 255 0 0
0.031428 0.282587 -0.475008 204 51 127
0.032545 -0.089906 0.532923 0 255 0
0.503450 0.313605 -0.472780 76 0 153
-0.213174 0.340010 -0.475008 204 51 127
0.319869 -0.089906 -0.123521 0 255 0
-0.446029 0.007462 0.467784 0 127 127
0.368588 -0.029133 -0.228690 76 0 153
0.220245 -0.213052 -0.475008 0 255 0
-0.477416 0.175410 -0.088318 0 127 127
0.478166 -0.573897 0.662723 153 76 0
0.446337 -0.076271 -0.452000 76 153 0
0.189176 0.189609 -0.475008 204 51 127
0.386122 -0.166436 -0.379481 204 51 127
0.364765 0.074010 0.501705 76 0 153
0.060753 0.507308 -0.475008 204 51 127
-0.166021 -0.469801 0.556438 255 0 0
0.407443 0.294918 -0.369479 204 51 127
-0.501185 0.312352 -0.166681 0 127 127
-0.524638 -0.219688 0.676373 127 0 127
0.040471 -0.188489 -0.355073 204 51 127
0.187100 -0.346934 0.627068 255 0 0
-0.002174 -0.137133 0.451206 0 255 0
0.444947 -0.116763 0.617498 153 0 76
0.461547 -0.501421 -0.390410 76 0 153
-0.097020 -0.089906 -0.203574 0 255 0
-0.621782 0.169406 -0.049348 0 127 127
0.510163 0.046054 -0.355073 76 153 0
-0.566968 0.312434 -0.131530 0 127 127
-0.046631 0.757094 -0.439027 153 0 76
0.523921 0.314750 0.626330 76 0 153
-0.418662 0.280342 0.150023 0 127 127
-0.226062 -0.290654 0.642031 255 0 0
-0.589597 0.225816 0.467940 0 127 127
0.472774 -0.400998 0.572655 153 76 0
0.057498 0.590006 -0.355073 204 51 127
0.594939 0.301864 0.114690 76 0 153
-0.653289 0.140725 -0.223649 0 127 127
-0.311972 -0.290654 0.641097 0 255 0
0.399861 -0.290654 0.415438 0 255 0
0.484517 -0.275056 0.676373 153 0 76
-0.483699 0.239821 0.676373 0 127 127
-0.002174 -0.180839 0.630073 0 255 0
0.366008 0.110413 0.088439 76 0 153
-0.302160 -0.354754 -0.405764 0 0 255
0.365925 0.109112 -0.363792 204 51 127
0.402213 0.266316 0.523399 76 0 153
0.316714 0.568335 -0.475008 204 51 127
-0.510453 -0.638007 -0.344309 153 0 76
-0.479737 -0.560519 -0.401191 153 0 76
-0.666030 0.202204 0.161349 0 127 127
0.558481 -0.169238 0.556438 153 0 76
-0.402495 -0.257035 -0.365742 204 51 127
0.161208 0.092674 -0.475008 204 51 127
0.379544 0.703958 -0.380911 153 0 76
0.072002 -0.089906 0.641333 0 255 0
-0.122877 -0.485262 -0.368272 0 0 255
0.617588 0.175256 0.101643 76 0 153
-0.378423 0.192831 0.313013 0 127 127
-0.605167 0.092302 -0.022430 0 127 127
-0.034631 -0.413028 -0.470609 0 0 255
0.141969 0.034422 -0.355073 204 51 127
0.459966 0.523584 -0.379060 153 0 76
-0.664042 0.171712 0.029495 0 127 127
-0.665634 0.185251 0.316938 0 127 127
-0.002174 -0.123528 -0.189577 0 255 0
0.324388 -0.290654 0.072366 0 255 0
-0.377423 0.185785 0.622806 0 127 127
-0.386052 0.227137 -0.219927 0 127 127
0.296455 -0.199302 0.676373 0 255 0
-0.377060 -0.290654 0.649370 0 255 0
0.503017 0.313580 -0.363414 76 0 153
-0.436046 -0.202740 -0.168882 0 255 0
-0.365111 -0.338733 -0.475008 0 0 255
0.423084 -0.234209 -0.435175 76 153 0
-0.447647 -0.135670 -0.321189 0 255 0
-0.572997 -0.183414 -0.404693 127 127 0
-0.369310 0.031193 -0.047319 0 127 127
-0.353835 -0.089906 -0.262498 0 255 0
0.390356 -0.324513 0.556438 255 0 0
0.533521 0.067480 -0.463731 76 153 0
-0.471385 0.305672 -0.079202 0 127 127
0.440206 -0.159218 -0.352653 76 153 0
0.442548 -0.007806 -0.252296 76 0 153
0.293344 -0.384512 0.676373 255 0 0
-0.313364 0.103085 -0.475008 204 51 127
-0.362716 -0.290654 0.275965 0 255 0
0.393812 0.596464 -0.379060 153 0 76
0.416496 -0.254522 0.321092 0 255 0
-0.226007 -0.451037 -0.432441 0 0 255
0.411957 0.056586 -0.475008 76 0 153
-0.666425 0.191975 0.093098 0 127 127
0.509049 -0.251793 -0.475008 76 153 0
0.462931 0.149209 -0.195430 76 0 153
0.146971 -0.089906 -0.093693 0 255 0
0.606057 0.198854 0.676373 76 0 153
0.503865 0.313628 0.133794 76 0 153
-0.562474 0.085147 0.161307 0 127 127
0.459680 0.138808 0.530484 76 0 153
-0.006150 0.579049 -0.355073 204 51 127
-0.266467 -0.078445 -0.475008 204 51 127
-0.120062 -0.290654 0.283894 0 255 0
-0.424912 0.284893 0.625410 0 127 127
-0.002174 0.215151 -0.439204 204 51 127
0.000348 -0.264169 0.676373 0 255 0
0.576901 0.308455 0.210807 76 0 153
-0.201656 -0.396163 -0.475008 0 0 255
-0.490695 -0.653046 0.583012 76 0 153
-0.120010 -0.089906 0.623593 0 255 0
-0.529235 0.546207 -0.439027 153 0 76
-0.371098 -0.005717 0.224579 0 127 127
-0.369913 0.100746 -0.070533 0 127 127
0.275594 -0.133382 0.676373 0 255 0
-0.519363 0.311409 -0.475008 0 127 127
0.410826 -0.063147 0.676373 76 0 153
0.006707 -0.089906 -0.316154 0 255 0
-0.378595 0.194049 0.087155 0 127 127
0.076973 -0.290654 0.466924 0 255 0
-0.044329 -0.480830 0.676373 255 0 0
-0.385508 0.225149 -0.308624 0 127 127
-0.475153 -0.052903 -0.475008 127 127 0
-0.301173 0.230659 -0.355073 204 51 127
0.482857 -0.206335 -0.355073 76 153 0
-0.021597 0.696524 -0.379060 153 0 76
-0.369891 0.100171 0.234446 0 127 127
-0.531557 0.235374 0.420347 0 127 127
-0.359879 -0.289894 -0.355073 0 0 255
0.379105 -0.387996 0.675208 255 0 0
0.527040 0.200249 0.556438 153 0 76
-0.602667 0.299940 0.556261 0 127 127
-0.244616 -0.310626 -0.475008 0 0 255
-0.416901 -0.122338 -0.475008 0 255 0
0.380735 0.223595 0.072647 76 0 153
-0.477155 0.174828 -0.034662 0 127 127
0.444421 0.067887 0.566064 153 0 76
0.635331 0.120186 -0.243651 76 0 153
0.581516 0.228575 0.366804 76 0 153
0.138332 -0.118391 -0.355073 204 51 127
0.366740 -0.005572 -0.028202 76 0 153
0.516955 0.017225 0.596196 153 0 76
-0.192305 -0.421307 -0.390413 0 0 255
0.611686 0.098487 0.254381 76 0 153
-0.629988 0.280209 0.289571 0 127 127
0.361051 -0.089906 0.495163 0 255 0
-0.463641 0.137542 -0.307421 0 127 127
0.443860 -0.129234 0.379126 0 255 0
-0.432799 -0.306399 0.676373 127 0 127
-0.530579 0.314880 -0.403982 0 127 127
0.179981 -0.379290 0.556438 255 0 0
-0.369268 0.032289 -0.339054 0 127 127
0.490986 0.212257 -0.320018 76 0 153
0.646854 0.139137 0.676373 76 0 153
-0.002174 -0.124851 0.314588 0 255 0
-0.521615 0.108257 -0.475008 127 127 0
-0.076402 -0.456598 0.556438 255 0 0
-0.059291 -0.386954 -0.403297 0 0 255
0.650962 0.245529 -0.431534 76 0 153
-0.327916 -0.089906 -0.201918 0 255 0
0.364752 0.043220 0.554889 76 0 153
-0.378186 0.191163 0.254821 0 127 127
0.157876 -0.290654 -0.287511 0 255 0
-0.185863 0.695303 -0.396418 153 0 76
0.284820 0.043866 -0.355073 204 51 127
-0.505294 0.221861 0.252985 0 127 127
0.231092 -0.089906 0.239304 0 255 0
-0.101699 -0.290654 0.170423 0 255 0
0.147437 -0.395104 -0.357595 0 0 255
0.477436 -0.671777 -0.398892 76 0 153
0.333915 -0.407458 0.574609 255 0 0
-0.013957 0.335447 -0.355073 204 51 127
0.475543 -0.677806 0.587769 153 76 0
-0.330024 -0.290654 -0.035411 0 255 0
-0.019627 0.166674 -0.475008 204 51 127
0.082263 -0.290654 0.013980 0 255 0
-0.372426 -0.023465 -0.246474 0 127 127
-0.002174 -0.260216 -0.164859 0 255 0
0.251625 -0.089906 -0.406502 0 255 0
0.101284 0.473587 -0.475008 204 51 127
-0.002623 0.586822 -0.475008 204 51 127
0.369169 -0.035592 0.592527 76 0 153
0.456086 0.127081 0.323209 76 0 153
0.264842 0.214911 -0.475008 204 51 127
0.117341 0.127651 -0.355073 204 51 127
-0.459405 0.301614 0.184383 0 127 127
-0.113743 0.452646 -0.355073 204 51 127
0.550554 0.237669 0.048505 76 0 153
0.371591 -0.057663 -0.374788 0 255 0
0.452388 0.112301 0.636701 153 0 76
-0.378017 -0.073721 0.116754 0 255 0
0.616719 0.178209 -0.155324 76 0 153
-0.319161 0.618588 -0.403403 153 0 76
0.460795 0.142442 -0.368290 76 153 0
0.564734 0.235108 -0.250193 76 0 153
-0.448071 -0.130813 -0.082486 0 255 0
-0.001535 -0.290654 0.211292 0 255 0
-0.431286 0.288492 -0.386451 153 0 76
0.612470 0.192655 0.222511 76 0 153
0.208029 -0.290654 -0.421491 204 51 127
-0.568945 0.097060 0.632495 127 0 127
-0.449653 -0.112482 0.233798 0 127 127
0.423117 -0.234101 -0.329004 0 255 0
-0.169803 -0.290654 -0.429013 204 51 127
0.520009 0.117843 0.676373 153 0 76
-0.442462 -0.171271 0.171463 0 255 0
0.371737 0.175170 0.483146 76 0 153
0.131135 -0.481415 -0.426137 0 0 255
0.234273 0.576659 -0.422893 153 0 76
0.441243 0.247574 -0.475008 76 0 153
-0.665542 0.206352 -0.253501 0 127 127
-0.037878 -0.039549 -0.475008 204 51 127
-0.663466 0.223266 -0.158448 0 127 127
-0.379343 0.199317 0.159628 0 127 127
-0.247192 -0.089906 0.467922 0 255 0
-0.346056 -0.065407 -0.475008 204 51 127
0.502866 -0.337928 0.607438 153 0 76
0.261632 -0.247564 0.676373 0 255 0
-0.417364 -0.264304 0.193767 0 255 0
-0.476228 -0.541744 -0.316319 153 0 76
-0.194104 0.455817 -0.475008 204 51 127
0.661637 0.188239 0.624307 76 0 153
0.142916 -0.433758 0.671897 255 0 0
0.021780 0.798088 -0.421869 153 0 76
-0.190263 0.180724 -0.355073 204 51 127
0.091992 -0.089906 0.350414 0 255 0
0.336685 -0.089906 0.242874 0 255 0
-0.256577 -0.089906 -0.025688 0 255 0
-0.293552 0.395151 -0.355073 204 51 127
-0.510332 0.225772 -0.106394 0 127 127
-0.042082 0.545684 -0.475008 204 51 127
-0.550016 0.314059 0.400635 0 127 127
0.554159 0.090042 0.198448 76 0 153
-0.470950 0.158983 0.397490 0 127 127
-0.229052 0.578095 -0.370485 204 51 127
0.446323 -0.082959 0.513037 0 255 0
0.314899 -0.089906 0.571439 0 255 0
0.661288 0.185270 0.365229 76 0 153
0.446271 0.081626 -0.329106 76 0 153
-0.525414 0.036368 0.675883 127 0 127
0.084176 0.329151 -0.475008 204 51 127
0.197138 0.130305 -0.475008 204 51 127
0.002862 -0.089906 0.576957 0 255 0
0.343730 -0.106570 -0.355073 204 51 127
-0.056829 0.431209 -0.475008 204 51 127
-0.132125 -0.365587 0.642169 255 0 0
-0.274751 -0.290654 0.221428 0 255 0
0.288797 -0.290654 -0.421348 0 0 255
-0.636587 0.274043 -0.252776 0 127 127
-0.322680 -0.051749 -0.355073 204 51 127
-0.665831 0.203897 0.225828 0 127 127
0.317741 -0.268349 -0.475008 0 255 0
-0.543199 -0.086992 0.670138 127 0 127
0.609890 0.097464 0.495195 76 0 153
0.369155 0.151686 0.572654 76 0 153
-0.550974 0.658041 -0.397922 153 0 76
0.175150 -0.089906 -0.378299 0 255 0
-0.548479 0.314206 0.674437 0 127 127
-0.591792 0.305385 0.461512 0 127 127
-0.103392 -0.123663 -0.355073 204 51 127
0.608635 0.200938 -0.474322 76 0 153
0.148430 -0.290654 0.627618 0 255 0
-0.002174 -0.328024 -0.366909 0 0 255
-0.450365 -0.096480 0.454319 0 127 127
-0.369204 0.035135 -0.465292 0 127 127
0.257886 -0.428202 -0.355073 0 0 255
-0.664740 0.177647 0.446574 0 127 127
-0.059981 -0.290654 0.381711 0 255 0
-0.469551 0.155259 0.222587 0 127 127
0.235180 -0.290654 0.609602 0 255 0
-0.124153 -0.290654 0.587044 0 255 0
-0.347702 0.141506 -0.475008 204 51 127
-0.188243 -0.102777 -0.355073 204 51 127
-0.339247 -0.290654 -0.243056 0 255 0
-0.539753 -0.081017 -0.405266 127 127 0
0.223626 -0.089906 0.532183 0 255 0
0.018185 -0.089906 0.627899 0 255 0
0.508686 -0.546424 -0.353309 76 0 153
-0.064733 -0.290654 -0.037472 0 255 0
0.419020 -0.247380 0.395043 0 255 0
0.182148 0.363646 -0.475008 204 51 127
0.433625 -0.193887 0.484267 0 255 0
-0.500447 -0.021944 0.676373 127 0 127
-0.586989 0.227744 0.317851 0 127 127
0.087931 -0.089906 0.047245 0 255 0
-0.483210 0.188349 0.160152 0 127 127
-0.417804 -0.263068 0.351212 0 255 0
-0.217927 -0.290654 0.347062 0 255 0
-0.444511 -0.159468 0.518092 0 255 0
-0.163317 0.598320 -0.387128 153 0 76
-0.024874 0.805749 -0.381191 153 0 76
-0.417462 0.279410 0.301467 0 127 127
0.441618 0.012955 0.180746 76 0 153
0.031882 -0.290654 0.437330 0 255 0
-0.501704 -0.126125 0.676373 127 0 127
-0.045961 0.268943 -0.475008 204 51 127
-0.378571 0.193873 0.004128 0 127 127
-0.233643 -0.242942 -0.355073 204 51 127
0.396998 0.258177 0.162117 76 0 153
-0.022622 -0.089906 0.232933 0 255 0
0.366741 0.121834 0.309567 76 0 153
0.372048 0.422487 -0.475008 204 51 127
0.420468 -0.268060 -0.475008 76 153 0
-0.656563 0.148708 -0.117957 0 127 127
0.524770 0.314798 0.435184 76 0 153
-0.002174 -0.249146 0.123264 0 255 0
-0.440203 -0.501047 -0.353572 153 0 76
-0.429808 0.502030 -0.439027 153 0 76
0.579611 0.307666 -0.283921 76 0 153
-0.295515 -0.089906 0.169562 0 255 0
-0.361806 -0.089906 -0.330449 0 255 0
-0.031072 -0.221287 0.676373 0 255 0
0.617321 0.166435 -0.035961 76 0 153
-0.565464 -0.227272 -0.475008 127 127 0
-0.666196 0.200788 -0.332541 0 127 127
-0.002174 -0.141921 0.663038 0 255 0
-0.440953 0.293501 0.477932 0 127 127
0.557787 0.237351 0.572979 153 0 76
0.377851 0.213051 0.656139 76 0 153
-0.317948 -0.089906 0.274461 0 255 0
-0.440883 -0.180368 0.114772 0 255 0
-0.026243 -0.175823 -0.355073 204 51 127
-0.615989 0.195474 0.567948 127 0 127
0.220459 -0.089906 0.611724 0 255 0
0.226995 -0.089906 -0.188351 0 255 0
-0.356525 -0.290654 0.222789 0 255 0
-0.543293 -0.284094 0.556438 127 0 127
-0.425394 0.151734 0.676373 0 127 127
-0.662662 0.225459 0.668224 0 127 127
0.526233 0.661101 -0.412724 153 0 76
0.245501 -0.252258 -0.355073 204 51 127
0.416544 -0.254385 -0.276425 0 255 0
0.037361 0.052509 -0.475008 204 51 127
0.617210 0.176540 -0.381564 76 0 153
-0.312948 -0.211270 0.676373 0 255 0
0.060446 -0.290654 0.108629 0 255 0
0.445975 -0.057534 -0.122904 76 0 153
0.385423 0.440981 -0.383510 153 0 76
-0.369216 0.034207 0.188815 0 127 127
-0.655228 0.145064 0.287794 0 127 127
0.231612 -0.089906 -0.018655 0 255 0
-0.002174 0.413852 -0.414192 204 51 127
0.184112 -0.423480 0.624478 255 0 0
-0.280995 -0.430484 -0.403687 0 0 255
-0.369174 0.037454 0.557496 0 127 127
0.133679 -0.061957 -0.355073 204 51 127
-0.160785 -0.089906 0.376211 0 255 0
0.300429 -0.318926 0.676373 255 0 0
0.364874 0.033694 0.363810 76 0 153
-0.413792 -0.273748 -0.319012 0 255 0
0.322773 0.358734 -0.355073 204 51 127
-0.105216 0.664354 -0.439027 153 0 76
0.454147 0.119626 -0.019367 76 0 153
-0.248713 0.166224 -0.475008 204 51 127
-0.543682 -0.126817 0.556438 127 0 127
-0.606113 0.297979 -0.030057 0 127 127
0.142779 -0.333418 0.588753 255 0 0
0.179192 -0.190724 0.676373 0 255 0
-0.560887 0.237740 -0.198494 0 127 127
-0.183690 -0.290654 -0.161300 0 255 0
-0.392502 0.473969 -0.397374 153 0 76
0.443094 0.141980 0.676373 76 0 153
0.242940 -0.089906 0.061799 0 255 0
-0.450273 -0.056294 0.070682 0 127 127
0.119878 -0.253456 -0.355073 204 51 127
-0.621921 0.175306 -0.196871 0 127 127
0.616057 0.149827 -0.100489 76 0 153
-0.630028 0.280172 0.356832 0 127 127
-0.417888 -0.262830 -0.175165 0 255 0
-0.011756 0.460313 -0.475008 204 51 127
-0.171384 -0.373947 0.676373 255 0 0
0.199380 0.069524 -0.355073 204 51 127
-0.371196 0.123496 -0.223049 0 127 127
0.119745 0.580961 -0.475008 204 51 127
-0.176561 -0.089906 0.626820 0 255 0
-0.037720 0.624189 -0.355073 204 51 127
-0.459548 -0.275583 -0.354367 127 127 0
0.178372 -0.089906 -0.274324 0 255 0
-0.663291 0.167077 0.500700 0 127 127
-0.197494 -0.290654 0.471991 0 255 0
-0.411994 -0.278195 -0.095315 0 255 0
0.365068 0.087813 -0.237275 76 0 153
-0.044071 -0.500754 -0.438705 0 0 255
0.457083 0.130333 0.211013 76 0 153
0.443162 -0.016178 -0.372342 76 153 0
0.465890 0.157090 0.068514 76 0 153
-0.389814 0.405994 -0.424315 153 0 76
0.384010 -0.156957 0.676373 0 255 0
0.347180 0.189090 -0.475008 204 51 127
0.213718 0.648618 -0.397805 153 0 76
-0.348972 -0.089906 0.577432 0 255 0
-0.420096 -0.256625 -0.435905 0 255 0
0.293339 -0.156957 -0.475008 204 51 127
-0.263083 -0.089906 -0.115459 0 255 0
-0.086607 -0.089906 0.439938 0 255 0
-0.439973 -0.362081 0.668076 127 0 127
0.105290 -0.046871 -0.475008 204 51 127
-0.401065 -0.009671 -0.475008 0 127 127
-0.658052 0.152774 0.182037 0 127 127
0.568733 0.079986 -0.282319 76 0 153
-0.403014 0.261708 -0.355073 204 51 127
-0.546909 0.314356 -0.266379 0 127 127
-0.204288 -0.089906 0.034585 0 255 0
