ply
format ascii 1.0
element vertex 1241
property float x
property float y
property float z
property uchar red
property uchar green
property uchar blue
end_header
0.237955 -0.027360 -0.185530 204 51 127
0.151485 0.212749 -0.305372 153 76 0
0.378196 0.177938 -0.173394 127 127 0
0.255798 -0.156892 -0.180810 204 51 127
0.447669 -0.077726 0.336882 0 255 0
0.129247 -0.074127 0.535692 204 51 127
0.358312 -0.296663 -0.223545 76 0 153
0.113582 -0.156892 0.138396 204 51 127
-0.379656 -0.606166 0.517888 76 0 153
-0.206388 0.051718 -0.271840 153 76 0
0.239564 -0.156892 0.265505 204 51 127
0.027253 0.423382 -0.238295 153 76 0
0.240409 -0.156892 0.334028 204 51 127
-0.376019 -0.486062 0.509573 76 0 153
0.196442 -0.119013 0.533865 204 51 127
-0.453802 0.206416 0.285125 255 0 0
0.038981 0.551934 -0.289897 153 76 0
-0.404582 0.176850 -0.134027 255 0 0
-0.189158 -0.136752 -0.250518 204 51 127
0.030571 -0.018088 0.158364 204 51 127
-0.375012 -0.203593 -0.174553 153 0 76
0.116959 -0.019341 0.397080 204 51 127
-0.138941 -0.156892 0.306994 204 51 127
-0.080846 0.540115 -0.367298 153 76 0
0.412340 0.223706 -0.191447 127 127 0
-0.373396 -0.333430 -0.218311 153 0 76
0.013067 0.551735 -0.338211 153 76 0
-0.349890 -0.332127 -0.263837 153 0 76
0.402903 0.073126 0.322088 0 255 0
-0.440296 -0.095994 0.478497 204 51 127
0.422439 -0.067242 0.466290 204 51 127
-0.370589 -0.115070 -0.159130 204 51 127
-0.021788 -0.156892 0.019854 204 51 127
0.362892 -0.005809 -0.178361 153 0 76
0.349265 0.266570 -0.273122 153 0 76
-0.349347 -0.056451 -0.251221 204 51 127
-0.041006 -0.156892 0.409727 204 51 127
0.164583 -0.156892 -0.022737 204 51 127
0.300619 0.164236 -0.264150 153 76 0
-0.337402 -0.029542 0.149019 204 51 127
0.321383 -0.156892 0.072701 204 51 127
0.338846 -0.430008 -0.202317 76 0 153
-0.095907 -0.156892 0.014389 204 51 127
0.430691 -0.136765 0.332977 0 255 0
-0.110872 -0.156892 -0.015630 204 51 127
-0.326816 -0.579660 -0.290126 153 0 76
-0.341094 0.268856 -0.241522 153 76 0
-0.368960 0.287729 -0.224116 76 153 0
-0.391126 -0.034854 0.304649 204 51 127
-0.375512 -0.463588 0.463537 76 0 153
-0.408859 -0.064868 0.203014 204 51 127
0.157432 -0.114979 0.534551 204 51 127
-0.437765 -0.073520 0.462381 204 51 127
-0.235307 -0.021400 0.089095 204 51 127
0.098271 0.554428 -0.327660 153 76 0
-0.401882 -0.147450 0.129538 204 51 127
-0.038301 -0.017945 0.232782 204 51 127
-0.341745 0.450735 -0.295305 153 76 0
-0.370485 -0.566123 -0.277407 153 0 76
0.334074 -0.027264 0.413919 204 51 127
0.157492 -0.156892 0.335935 204 51 127
0.201681 -0.020445 0.481300 204 51 127
0.131286 -0.019934 0.179298 204 51 127
0.352823 -0.734602 -0.305491 76 0 153
-0.028225 -0.022814 -0.054017 204 51 127
-0.039625 -0.156892 0.291709 204 51 127
0.124963 -0.028601 -0.204320 204 51 127
-0.307498 -0.156892 -0.006089 204 51 127
-0.339630 -0.025078 0.469946 204 51 127
0.030848 -0.156892 0.180561 204 51 127
-0.371300 -0.500704 -0.242298 153 0 76
0.099547 -0.025582 0.513016 204 51 127
-0.111809 0.398513 -0.231749 153 76 0
-0.356449 -0.479666 -0.280868 153 0 76
0.203304 -0.156892 -0.196546 204 51 127
0.170489 0.387116 -0.228756 153 76 0
0.125603 0.074040 -0.215667 153 76 0
-0.252701 -0.156892 -0.078265 204 51 127
0.145502 -0.020085 0.213047 204 51 127
0.448320 0.203303 0.219750 127 127 0
-0.327903 -0.602959 -0.250425 153 0 76
0.303680 -0.029003 0.019232 204 51 127
0.284916 -0.028998 0.521232 204 51 127
-0.224640 -0.056078 -0.249631 204 51 127
-0.076173 0.420876 -0.342552 153 76 0
0.366444 0.120860 -0.215637 153 0 76
0.312129 0.109724 -0.256031 153 76 0
0.383990 -0.156892 0.242315 204 51 127
0.221256 -0.024049 0.507933 204 51 127
0.360587 -0.114562 -0.202643 76 0 153
0.358201 0.232498 -0.269188 153 0 76
0.291018 -0.156892 0.284925 204 51 127
0.317532 -0.156892 0.103676 204 51 127
-0.242513 -0.022080 -0.046904 204 51 127
0.413400 0.177909 -0.122225 127 127 0
0.407265 -0.309260 0.497102 153 76 0
0.379632 -0.632623 0.475115 153 76 0
0.292060 -0.026391 0.093429 204 51 127
-0.224324 0.343696 -0.315181 153 76 0
-0.126983 -0.019426 0.301763 204 51 127
-0.042678 -0.150278 -0.247719 204 51 127
0.163784 0.257946 -0.201474 153 76 0
-0.048547 0.480812 -0.256029 153 76 0
-0.242234 0.390013 -0.232726 153 76 0
0.028937 -0.018058 0.336423 204 51 127
-0.443698 -0.099877 0.349166 0 0 255
-0.011696 -0.017458 0.442462 204 51 127
-0.451775 0.223636 0.130114 255 0 0
-0.420017 -0.688092 0.499006 76 0 153
-0.013339 -0.020882 0.033567 204 51 127
0.243263 0.272853 -0.211397 153 76 0
-0.283251 0.340070 -0.227450 153 76 0
-0.372220 -0.427642 -0.247914 153 0 76
-0.251965 -0.024358 -0.123817 204 51 127
-0.272759 -0.156892 0.247302 204 51 127
0.307127 -0.032473 -0.180370 204 51 127
0.258753 0.342901 -0.226908 153 76 0
-0.423332 -0.379731 0.475669 76 0 153
-0.193830 0.276042 -0.206077 153 76 0
-0.181652 -0.020034 0.416164 204 51 127
-0.397271 0.168752 -0.202746 255 0 0
-0.355848 -0.487702 -0.216835 153 0 76
-0.341970 0.012263 -0.185575 76 153 0
-0.196266 -0.020188 0.451703 204 51 127
0.097934 0.256368 -0.197964 153 76 0
-0.375491 -0.165534 -0.184138 153 0 76
0.061548 -0.018583 0.362121 204 51 127
0.401956 -0.086681 0.274724 204 51 127
0.309101 -0.219631 -0.178442 76 0 153
0.404814 0.179417 0.163811 127 127 0
-0.082609 -0.055339 0.536148 204 51 127
0.079288 -0.156892 0.090717 204 51 127
-0.227859 -0.156892 0.450286 204 51 127
0.267640 -0.123917 -0.250289 204 51 127
0.303718 0.528858 -0.271034 153 76 0
-0.377911 -0.548530 0.497843 76 0 153
0.415619 -0.153280 0.442285 204 51 127
-0.296376 -0.156892 0.082353 204 51 127
-0.168636 -0.156892 0.445349 204 51 127
0.424556 0.224999 -0.176101 127 127 0
0.044786 -0.156892 0.161049 204 51 127
-0.120535 -0.156892 0.084059 204 51 127
-0.030930 0.249982 -0.316838 153 76 0
0.273875 -0.021604 0.429088 204 51 127
0.245800 -0.156892 -0.118863 204 51 127
-0.378844 -0.133178 -0.089814 204 51 127
0.339366 0.418660 -0.295830 153 76 0
0.345595 -0.471021 -0.279530 76 0 153
-0.053125 0.099742 -0.301684 153 76 0
-0.217965 -0.021035 0.151046 204 51 127
0.106832 0.112873 -0.299789 153 76 0
0.013882 -0.018935 0.118172 204 51 127
-0.203936 -0.020696 0.226031 204 51 127
0.118047 0.231003 -0.311344 153 76 0
0.363602 -0.071008 -0.068155 204 51 127
-0.148086 -0.067838 0.535684 204 51 127
-0.207459 0.576923 -0.370629 76 0 153
0.304449 -0.156892 0.191554 204 51 127
0.113831 -0.019525 0.265448 204 51 127
-0.384113 -0.342610 0.513567 76 0 153
0.442752 -0.123808 0.306139 0 255 0
0.371211 0.291901 -0.236659 153 0 76
0.118923 -0.103868 -0.250652 204 51 127
0.281104 -0.156892 -0.111160 204 51 127
-0.276617 -0.148247 -0.248660 204 51 127
-0.164752 0.551934 -0.285136 153 76 0
-0.058978 0.227871 -0.192368 153 76 0
-0.388403 0.350813 -0.251560 76 153 0
-0.062865 0.365099 -0.222974 153 76 0
-0.035030 0.382190 -0.227462 153 76 0
0.304457 0.568059 -0.304545 153 76 0
0.274210 -0.026916 -0.091700 204 51 127
-0.352473 0.398119 -0.254749 76 153 0
-0.266980 -0.022197 0.027222 204 51 127
-0.126732 -0.156892 0.370222 204 51 127
-0.031111 0.051718 -0.278635 153 76 0
0.325861 0.231612 -0.269085 153 76 0
-0.374653 -0.134874 -0.128313 204 51 127
-0.353021 -0.156816 -0.191511 204 51 127
0.401187 -0.083173 0.344101 0 255 0
0.350490 -0.045591 -0.095913 204 51 127
0.246559 -0.139768 -0.250341 204 51 127
0.300511 -0.240761 -0.212578 76 0 153
-0.145546 -0.156892 0.411795 204 51 127
-0.150027 0.595547 -0.370547 76 0 153
0.172923 0.232873 -0.197196 153 76 0
-0.002596 0.505606 -0.263633 153 76 0
0.114283 0.586823 -0.333276 76 0 153
0.321985 0.064857 -0.192664 153 0 76
-0.336127 -0.156892 0.066930 204 51 127
0.065721 0.163294 -0.305469 153 76 0
0.078579 0.057234 -0.245039 153 76 0
-0.183080 0.552045 -0.320475 153 76 0
0.187399 0.421962 -0.237908 153 76 0
-0.129095 0.559248 -0.355713 76 0 153
-0.375394 -0.465430 0.502657 76 0 153
0.391158 -0.342673 0.456026 153 76 0
-0.054155 0.551934 -0.298941 153 76 0
0.211383 -0.020768 0.379179 204 51 127
-0.442202 0.178530 -0.114919 255 0 0
0.168444 -0.156892 0.093096 204 51 127
0.448601 0.103479 0.315573 0 255 0
0.215069 0.065710 -0.280772 153 76 0
0.429722 -0.132972 0.512319 204 51 127
0.061759 0.316821 -0.325547 153 76 0
-0.404833 -0.154277 0.226127 204 51 127
-0.164371 0.562498 -0.371094 76 0 153
-0.204756 -0.156892 0.122455 204 51 127
-0.466172 0.191659 0.268792 255 0 0
-0.340441 -0.109640 -0.178401 153 0 76
-0.357606 -0.034875 0.000258 204 51 127
-0.397529 -0.156892 0.487298 204 51 127
-0.430097 -0.153848 0.440496 204 51 127
0.249818 0.592442 -0.321651 76 0 153
-0.457181 -0.046223 0.288291 0 0 255
-0.130696 -0.024168 -0.121791 204 51 127
-0.233482 -0.156892 -0.167057 204 51 127
0.010981 -0.156892 -0.008283 204 51 127
0.319300 0.311235 -0.238701 153 76 0
-0.208725 -0.020866 0.169632 204 51 127
0.016583 0.303223 -0.323581 153 76 0
0.368980 -0.767017 0.523433 153 76 0
-0.037723 -0.156892 -0.019263 204 51 127
0.250726 -0.021282 0.417459 204 51 127
-0.238334 -0.061254 0.535193 204 51 127
-0.348850 0.569508 -0.296802 76 0 153
-0.338885 0.449998 -0.256790 153 76 0
-0.105275 0.367326 -0.333041 153 76 0
0.220627 -0.156892 0.015667 204 51 127
0.314583 -0.156892 -0.072867 204 51 127
0.337578 0.573368 -0.296284 76 0 153
0.212877 0.589472 -0.370664 76 0 153
-0.252897 0.293942 -0.214889 153 76 0
0.346085 0.162793 -0.246858 127 127 0
0.359568 -0.196501 -0.228346 76 0 153
-0.027745 0.350928 -0.331262 153 76 0
0.370175 0.254302 -0.251446 153 0 76
0.056950 -0.156892 0.489224 204 51 127
-0.267944 0.123767 -0.189775 153 76 0
-0.390162 -0.319779 0.513156 76 0 153
-0.388182 0.531119 -0.275077 76 153 0
-0.353991 -0.138514 -0.250073 204 51 127
-0.328325 -0.626187 -0.270913 153 0 76
-0.312372 -0.156892 0.242479 204 51 127
0.315575 -0.714231 -0.289422 76 0 153
-0.352571 -0.383051 -0.269300 153 0 76
0.352821 -0.033443 0.167190 204 51 127
0.347879 0.558943 -0.316306 153 0 76
0.353219 -0.703080 -0.298838 76 0 153
0.157926 -0.139107 0.531973 204 51 127
-0.399806 -0.156892 0.253908 204 51 127
-0.217256 0.153364 -0.184561 153 76 0
0.327397 -0.156892 -0.131410 204 51 127
-0.326877 -0.156892 0.471775 204 51 127
-0.357459 -0.380773 -0.191801 153 0 76
-0.410913 -0.110803 0.533405 204 51 127
0.198279 -0.156892 -0.088412 204 51 127
-0.193997 0.241129 -0.199218 153 76 0
0.193891 -0.156892 -0.151875 204 51 127
-0.358883 0.504828 -0.279249 76 153 0
0.272724 0.468560 -0.253365 153 76 0
0.182912 0.454509 -0.339682 153 76 0
0.136331 -0.156892 0.248376 204 51 127
0.135114 0.157147 -0.300040 153 76 0
0.198665 0.261758 -0.204893 153 76 0
-0.240291 0.254028 -0.297977 153 76 0
-0.227571 -0.022747 -0.070607 204 51 127
0.007893 -0.145219 0.529971 204 51 127
-0.121737 -0.019462 0.237489 204 51 127
-0.328930 -0.645977 -0.316408 153 0 76
0.058120 0.395615 -0.230988 153 76 0
-0.383897 0.189764 -0.199944 76 153 0
0.377005 0.214940 -0.244203 153 0 76
-0.108329 0.172065 -0.305540 153 76 0
0.159961 0.305452 -0.316773 153 76 0
0.336109 0.506986 -0.281027 153 76 0
0.409085 -0.108676 0.332653 204 51 127
-0.418449 0.018189 0.321037 0 0 255
0.063364 -0.018548 0.397859 204 51 127
0.300318 -0.235969 -0.245530 76 0 153
-0.105563 0.205524 -0.309942 153 76 0
0.443973 0.213817 0.126116 127 127 0
-0.327318 -0.156892 0.089993 204 51 127
-0.101751 -0.019108 0.182333 204 51 127
0.442437 0.203843 0.293896 127 127 0
-0.343276 -0.503183 -0.284509 153 0 76
0.279166 0.100564 -0.265565 153 76 0
-0.035397 -0.061936 -0.250893 204 51 127
-0.107808 -0.035226 0.529929 204 51 127
0.237680 -0.021422 0.227380 204 51 127
0.349817 -0.211805 -0.174371 76 0 153
-0.334584 -0.030557 0.054982 204 51 127
0.176087 -0.156892 0.261937 204 51 127
-0.377534 -0.039520 -0.234835 76 153 0
-0.445453 0.037950 0.284527 0 0 255
0.238690 -0.156892 -0.221589 204 51 127
-0.394415 -0.036319 0.530454 204 51 127
-0.415015 -0.138732 0.351079 0 0 255
0.294052 0.128298 -0.189181 153 76 0
-0.031194 -0.156892 0.120323 204 51 127
-0.124143 0.303376 -0.321609 153 76 0
-0.250308 -0.021275 0.287065 204 51 127
0.040865 0.394935 -0.338226 153 76 0
-0.164424 0.217753 -0.306385 153 76 0
0.108009 -0.156892 0.312261 204 51 127
0.264615 -0.026229 -0.128647 204 51 127
0.351508 0.233126 -0.211262 153 0 76
-0.305684 0.306695 -0.288083 153 76 0
0.421878 0.181520 -0.068644 127 127 0
0.387261 -0.311537 0.454092 153 76 0
0.406573 0.226580 -0.142105 127 127 0
0.060340 -0.156892 -0.114863 204 51 127
0.327423 -0.044130 -0.251232 204 51 127
-0.390771 -0.319281 0.454573 76 0 153
0.137293 -0.156892 0.178145 204 51 127
-0.374476 -0.246692 -0.187164 153 0 76
-0.361383 -0.086739 -0.233959 204 51 127
0.359004 -0.210082 -0.255784 76 0 153
0.216994 0.411350 -0.325140 153 76 0
-0.357462 -0.287155 -0.260563 153 0 76
-0.252582 0.153538 -0.187220 153 76 0
0.313442 -0.028947 0.109454 204 51 127
-0.358945 0.078271 -0.253861 76 153 0
-0.253042 0.335885 -0.223160 153 76 0
-0.193099 -0.020754 0.101552 204 51 127
0.248839 0.180861 -0.193912 153 76 0
-0.227264 -0.021065 0.212378 204 51 127
0.354750 0.383033 -0.245976 153 0 76
-0.064043 0.403114 -0.339512 153 76 0
0.355714 -0.504561 -0.282412 76 0 153
-0.409660 0.223603 -0.053174 255 0 0
0.190049 -0.156892 0.433475 204 51 127
-0.048760 -0.156892 0.215438 204 51 127
-0.421957 0.162240 -0.236033 255 0 0
-0.169593 -0.118532 0.534198 204 51 127
-0.244604 0.541481 -0.350940 153 76 0
-0.262346 0.125299 -0.276771 153 76 0
0.199293 -0.156892 0.202411 204 51 127
0.399038 0.212944 0.002718 127 127 0
-0.350872 -0.026245 0.493973 204 51 127
-0.373340 -0.131601 0.531415 204 51 127
0.238414 -0.021249 0.332693 204 51 127
0.024960 0.528537 -0.271145 153 76 0
-0.002034 0.431445 -0.344671 153 76 0
0.360946 -0.086863 -0.249553 76 0 153
-0.148388 0.551934 -0.315373 153 76 0
-0.322465 -0.120246 -0.203946 153 0 76
0.184147 -0.156892 0.243755 204 51 127
0.067959 -0.128422 0.533725 204 51 127
-0.342691 0.040343 -0.188837 76 153 0
-0.353185 0.537935 -0.292784 153 76 0
0.137083 0.479019 -0.255578 153 76 0
-0.074281 0.349056 -0.330788 153 76 0
-0.098016 -0.020173 0.055033 204 51 127
-0.458047 0.216041 0.218541 255 0 0
-0.222654 0.547426 -0.356091 153 76 0
-0.289577 -0.156892 0.366152 204 51 127
-0.372881 0.167425 -0.211175 255 0 0
-0.347884 -0.027403 0.388684 204 51 127
-0.181267 -0.033581 0.528265 204 51 127
-0.341331 -0.170581 -0.177561 153 0 76
-0.376794 -0.156892 0.457487 204 51 127
-0.271726 0.551932 -0.347866 153 76 0
-0.458911 0.182452 0.070664 255 0 0
0.063586 0.261210 -0.198580 153 76 0
-0.004652 0.085822 -0.301254 153 76 0
-0.047118 0.551666 -0.327080 153 76 0
0.118535 -0.019419 0.365972 204 51 127
-0.376762 -0.034279 0.189680 204 51 127
0.282921 -0.121886 0.532978 204 51 127
0.273788 -0.021711 0.367248 204 51 127
-0.281010 -0.026979 -0.173179 204 51 127
0.336640 0.462603 -0.303400 153 0 76
-0.156081 0.057234 -0.246905 153 76 0
0.127773 -0.156892 0.053167 204 51 127
-0.287132 0.236570 -0.283482 153 76 0
-0.017505 -0.040572 0.533778 204 51 127
-0.460230 0.195017 -0.043928 255 0 0
-0.216226 -0.021144 0.074434 204 51 127
0.354822 -0.299454 0.466155 153 76 0
0.115361 -0.029918 -0.220023 204 51 127
-0.116246 -0.138211 0.532462 204 51 127
-0.233068 0.184556 -0.290133 153 76 0
0.304994 -0.025004 0.293887 204 51 127
0.301519 -0.022558 0.425809 204 51 127
0.206108 0.229979 -0.298678 153 76 0
-0.308792 0.276398 -0.282419 153 76 0
-0.205225 0.169790 -0.293769 153 76 0
0.078636 -0.156892 -0.007564 204 51 127
-0.362690 0.191773 -0.217301 255 0 0
0.353111 -0.242926 0.497430 153 76 0
0.018373 0.595547 -0.350949 76 0 153
0.098431 -0.119091 0.534509 204 51 127
0.366505 -0.156892 0.480012 204 51 127
0.260449 -0.024222 -0.030250 204 51 127
-0.386489 0.282392 -0.229013 76 153 0
0.305077 -0.385347 -0.255940 76 0 153
0.149600 0.343192 -0.324426 153 76 0
-0.250254 0.235119 -0.203027 153 76 0
0.350540 -0.016736 -0.251258 153 0 76
0.011716 -0.156892 0.125727 204 51 127
0.041074 0.054123 -0.300424 153 76 0
-0.434163 0.228286 0.004399 255 0 0
0.268907 0.148920 -0.272317 153 76 0
-0.196628 -0.156892 0.007980 204 51 127
-0.093672 -0.023263 -0.081784 204 51 127
0.103544 -0.156892 0.371311 204 51 127
0.326323 0.286235 -0.239729 153 76 0
-0.461815 0.206482 0.249349 255 0 0
0.364731 0.059259 -0.218011 153 0 76
0.434633 0.227312 -0.069220 127 127 0
-0.115983 0.097495 -0.200404 153 76 0
-0.458183 0.213026 0.024365 255 0 0
0.046035 -0.018261 0.415277 204 51 127
-0.190482 0.125593 -0.189112 153 76 0
0.392639 -0.117504 0.180909 204 51 127
-0.238551 0.127683 -0.282844 153 76 0
-0.241470 -0.156892 0.186859 204 51 127
0.230121 0.477558 -0.335461 153 76 0
0.159693 -0.020454 0.055564 204 51 127
-0.134587 -0.156892 0.071485 204 51 127
-0.287296 0.051718 -0.264096 153 76 0
0.093264 0.051718 -0.297792 153 76 0
-0.106550 0.497401 -0.261197 153 76 0
0.235177 -0.021164 0.353584 204 51 127
0.407272 -0.157178 0.503187 153 76 0
0.208839 -0.023622 -0.100104 204 51 127
-0.020919 0.559246 -0.354216 76 0 153
0.375536 -0.607252 0.472728 153 76 0
0.202326 -0.021699 -0.027036 204 51 127
-0.355242 -0.625925 -0.256083 153 0 76
-0.370921 -0.531283 -0.267040 153 0 76
0.366458 0.120804 -0.239220 153 0 76
0.350651 -0.161681 0.459749 153 76 0
-0.009316 -0.019800 0.082133 204 51 127
0.194462 0.142474 -0.289930 153 76 0
0.355158 -0.310546 0.502630 153 76 0
-0.089629 0.559246 -0.337440 153 76 0
0.357253 -0.380815 -0.210812 76 0 153
-0.003152 -0.027080 -0.189344 204 51 127
0.177022 0.199551 -0.299875 153 76 0
0.371784 -0.038167 0.199194 204 51 127
0.359611 0.147940 -0.194675 153 0 76
0.319579 0.315636 -0.271922 153 76 0
0.149723 -0.129049 -0.250577 204 51 127
0.305447 -0.028369 0.075945 204 51 127
0.326924 -0.106997 -0.251902 204 51 127
0.114905 -0.156892 -0.176385 204 51 127
-0.087431 -0.156892 0.234557 204 51 127
-0.321198 -0.340848 -0.264773 153 0 76
0.074359 0.584605 -0.376700 76 0 153
-0.106214 0.566200 -0.372939 153 76 0
0.395881 0.200960 -0.035423 127 127 0
-0.368656 0.554434 -0.287567 76 153 0
0.192687 -0.020727 0.244958 204 51 127
-0.044037 -0.156892 0.152855 204 51 127
0.083750 0.519498 -0.362149 153 76 0
0.123184 0.591699 -0.377938 76 0 153
0.268017 0.303552 -0.220302 153 76 0
0.310616 -0.558943 -0.279543 76 0 153
-0.174278 0.480504 -0.256030 153 76 0
0.045462 -0.156892 0.008032 204 51 127
-0.278954 -0.156892 0.213416 204 51 127
-0.205031 0.066170 -0.221940 153 76 0
0.357589 -0.390814 0.470785 153 76 0
0.401778 -0.142905 0.306636 0 255 0
0.259509 0.558943 -0.354510 153 76 0
-0.384913 -0.144475 0.471662 76 0 153
0.252822 -0.156892 0.453583 204 51 127
0.368829 -0.368352 0.514031 153 76 0
0.040814 -0.156892 0.079465 204 51 127
0.344945 -0.053337 -0.213988 204 51 127
0.111287 -0.019160 0.452367 204 51 127
0.118373 -0.088114 0.535765 204 51 127
-0.171889 -0.132292 -0.250560 204 51 127
-0.386236 -0.087487 -0.008923 204 51 127
0.397669 0.187179 -0.015173 127 127 0
0.133562 -0.019975 0.072235 204 51 127
-0.308269 -0.029562 -0.110004 204 51 127
0.229775 0.152763 -0.186334 153 76 0
-0.326256 -0.156892 -0.041597 204 51 127
0.196204 0.439452 -0.334558 153 76 0
0.095817 -0.020713 0.029435 204 51 127
-0.369034 -0.255373 0.496866 76 0 153
0.295060 -0.022888 0.349586 204 51 127
0.370560 -0.102500 -0.014661 204 51 127
-0.432180 0.219733 0.199063 255 0 0
0.399441 -0.672571 0.515227 153 76 0
-0.087857 -0.156892 -0.198450 204 51 127
0.031201 -0.156892 -0.077712 204 51 127
-0.383043 -0.718024 0.504437 76 0 153
0.013137 0.558943 -0.354372 76 0 153
-0.019537 0.173733 -0.307329 153 76 0
0.161932 0.517780 -0.356255 153 76 0
-0.076669 -0.156892 -0.005107 204 51 127
-0.093096 -0.018941 0.293286 204 51 127
-0.160801 -0.156892 0.151608 204 51 127
-0.356269 -0.770433 -0.341181 153 0 76
0.399248 -0.137558 0.345618 0 255 0
-0.158414 -0.023431 -0.096041 204 51 127
-0.384162 -0.133715 -0.041778 204 51 127
0.364116 0.534644 -0.278982 153 0 76
0.311129 0.552091 -0.291610 153 76 0
-0.402022 -0.674526 0.521397 76 0 153
0.361391 -0.060673 -0.224454 76 0 153
-0.225923 -0.156892 -0.049835 204 51 127
-0.346939 -0.038935 -0.251237 76 153 0
-0.006185 -0.156892 0.065472 204 51 127
0.039603 0.299610 -0.205870 153 76 0
0.243008 0.295462 -0.299381 153 76 0
-0.095448 0.192634 -0.187927 153 76 0
0.142642 0.396398 -0.231194 153 76 0
0.401035 -0.042439 0.399441 204 51 127
0.231887 -0.021307 0.244071 204 51 127
-0.165482 -0.019859 0.379758 204 51 127
-0.362804 -0.709458 -0.282261 153 0 76
0.056926 -0.019292 0.474380 204 51 127
-0.227732 -0.156892 0.128356 204 51 127
-0.231494 -0.020779 0.411259 204 51 127
0.270249 -0.034241 -0.236168 204 51 127
0.051655 -0.156892 0.268882 204 51 127
-0.430003 -0.092502 0.386260 204 51 127
0.356334 0.065478 -0.186496 153 0 76
0.255505 0.575237 -0.360828 76 0 153
0.323084 0.213805 -0.245928 153 0 76
-0.142353 0.054051 -0.229064 153 76 0
0.051911 -0.142334 0.532351 204 51 127
-0.038860 -0.021414 0.006885 204 51 127
0.289861 0.177392 -0.269536 153 76 0
-0.377580 -0.116377 -0.096165 204 51 127
-0.307314 0.189578 -0.270643 153 76 0
-0.232053 -0.156892 -0.109016 204 51 127
-0.384027 -0.051724 0.011196 204 51 127
-0.166978 -0.020820 0.018071 204 51 127
0.288862 -0.114029 -0.250023 204 51 127
0.346371 0.080810 -0.190264 153 0 76
0.230824 0.218422 -0.291744 153 76 0
-0.398513 -0.613414 0.519649 76 0 153
0.421796 0.202421 -0.218949 127 127 0
0.319329 0.129660 -0.256097 153 0 76
0.295835 0.282638 -0.282466 153 76 0
0.023300 -0.156892 0.050546 204 51 127
-0.308894 -0.030987 -0.199703 204 51 127
-0.019734 0.573064 -0.374341 76 0 153
0.351597 -0.322596 -0.180588 76 0 153
0.324027 0.395942 -0.251231 153 76 0
0.142832 -0.075324 -0.250432 204 51 127
0.235894 0.480432 -0.255872 153 76 0
-0.293777 -0.156892 -0.177642 204 51 127
0.360830 -0.094592 -0.177058 76 0 153
-0.276292 -0.092174 -0.249861 204 51 127
-0.277258 -0.025345 -0.093601 204 51 127
-0.029352 0.213158 -0.312224 153 76 0
-0.376775 -0.193023 0.510871 76 0 153
0.397972 -0.070149 0.243641 204 51 127
-0.418449 0.209120 0.235518 255 0 0
-0.356599 0.147504 -0.259372 76 153 0
-0.320447 -0.153153 -0.216736 204 51 127
0.424913 0.183155 0.046220 127 127 0
-0.367570 -0.119337 -0.187790 204 51 127
-0.400604 -0.351436 0.513726 76 0 153
-0.039520 0.051718 -0.250943 153 76 0
0.021708 -0.017841 0.449657 204 51 127
-0.339192 -0.126179 0.532235 204 51 127
-0.180527 0.255010 -0.309124 153 76 0
-0.382339 -0.030729 0.478228 204 51 127
-0.374377 -0.151587 -0.173471 153 0 76
-0.268054 -0.156892 -0.059688 204 51 127
-0.383336 0.168702 -0.238523 255 0 0
0.330615 -0.032225 0.048245 204 51 127
-0.427661 -0.063500 0.373845 204 51 127
-0.108776 0.158212 -0.184561 153 76 0
-0.340532 -0.035141 -0.161545 204 51 127
0.181037 -0.156892 0.500751 204 51 127
-0.092346 -0.022105 0.494224 204 51 127
0.010576 -0.021256 0.015450 204 51 127
-0.254775 -0.021595 0.141633 204 51 127
-0.384154 -0.156892 0.201959 204 51 127
-0.166951 -0.156109 0.509643 204 51 127
0.410417 -0.169146 0.464690 153 76 0
-0.314764 -0.156892 0.300673 204 51 127
-0.122380 -0.156892 -0.049135 204 51 127
0.359054 -0.236969 -0.200522 76 0 153
0.036360 -0.156892 0.384142 204 51 127
0.149690 -0.156892 0.235543 204 51 127
0.245287 -0.021914 0.010970 204 51 127
0.429224 0.193904 -0.192149 127 127 0
-0.067523 0.506641 -0.264005 153 76 0
-0.404931 -0.760182 0.523847 76 0 153
0.173041 0.412267 -0.332933 153 76 0
-0.088460 -0.121517 0.534422 204 51 127
0.172770 -0.023248 -0.088822 204 51 127
0.362157 -0.032546 -0.195530 153 0 76
-0.339767 -0.349882 -0.187144 153 0 76
-0.067473 0.559246 -0.352534 153 76 0
-0.072777 -0.018577 0.289911 204 51 127
-0.387905 -0.149306 0.011521 204 51 127
-0.326692 0.144925 -0.217323 153 76 0
0.369108 -0.131374 -0.036597 204 51 127
-0.301603 0.051718 -0.242657 153 76 0
-0.369867 -0.034118 0.134756 204 51 127
-0.141962 0.169900 -0.185062 153 76 0
-0.086088 -0.018591 0.433934 204 51 127
0.321743 0.500306 -0.266498 153 76 0
-0.125903 -0.156892 0.225595 204 51 127
0.023557 0.274095 -0.201026 153 76 0
-0.435265 0.020127 0.285381 0 0 255
0.157992 -0.026635 -0.179246 204 51 127
-0.374023 -0.034215 0.528977 204 51 127
-0.132488 -0.156892 0.187700 204 51 127
-0.107528 -0.026991 -0.186104 204 51 127
-0.224137 -0.020740 0.371403 204 51 127
0.248383 0.333040 -0.304497 153 76 0
-0.324683 0.090070 -0.254846 153 76 0
-0.296637 0.595547 -0.324077 76 0 153
-0.246326 -0.021168 0.314324 204 51 127
-0.362690 0.210725 -0.217487 255 0 0
0.092754 0.492771 -0.355479 153 76 0
0.352609 -0.751734 -0.301859 76 0 153
0.352430 -0.045161 -0.073797 204 51 127
0.140420 0.542412 -0.364308 153 76 0
-0.424662 -0.205168 0.463888 76 0 153
0.182515 0.551931 -0.347166 153 76 0
0.307044 0.459706 -0.256369 153 76 0
0.246873 0.191184 -0.283999 153 76 0
-0.293722 -0.144866 -0.250226 204 51 127
-0.068617 -0.156892 0.325283 204 51 127
-0.351167 0.186441 -0.263869 76 153 0
0.356379 -0.451115 -0.251351 76 0 153
0.113459 0.445387 -0.345481 153 76 0
-0.379084 -0.587275 0.503773 76 0 153
0.328370 0.331601 -0.245548 153 0 76
-0.214161 0.337026 -0.219703 153 76 0
0.367802 0.168763 -0.256181 153 0 76
-0.457340 -0.068008 0.346716 0 0 255
0.134741 0.279031 -0.203918 153 76 0
0.354414 -0.285983 0.488402 153 76 0
-0.411041 -0.041184 0.532785 204 51 127
0.123712 0.097107 -0.200573 153 76 0
0.321475 -0.553504 -0.235861 76 0 153
0.066726 -0.156892 0.468973 204 51 127
-0.138556 0.353369 -0.219893 153 76 0
-0.160967 -0.019627 0.473735 204 51 127
-0.316963 -0.208934 -0.215532 153 0 76
0.149563 0.173823 -0.300494 153 76 0
0.090250 -0.019172 0.268481 204 51 127
0.317450 -0.680512 -0.273849 76 0 153
-0.200846 -0.156892 -0.091162 204 51 127
0.197589 0.475499 -0.341362 153 76 0
-0.145038 -0.156892 -0.003748 204 51 127
0.256648 -0.156892 -0.222888 204 51 127
0.096284 -0.156892 -0.021528 204 51 127
0.067126 0.314242 -0.209618 153 76 0
-0.293655 -0.025820 0.013383 204 51 127
-0.193121 -0.023800 -0.107184 204 51 127
-0.326201 -0.156892 0.209597 204 51 127
0.358423 -0.288065 -0.238732 76 0 153
-0.121044 -0.019177 0.394256 204 51 127
-0.374192 -0.269855 -0.215574 153 0 76
-0.106560 -0.156892 -0.169446 204 51 127
0.232199 -0.120396 -0.250376 204 51 127
-0.385105 0.232673 -0.223859 255 0 0
-0.200183 -0.156892 0.483838 204 51 127
0.443579 0.213580 0.236267 127 127 0
-0.133575 -0.021554 -0.010574 204 51 127
-0.413412 0.225679 -0.012805 255 0 0
0.404445 -0.031472 0.343482 0 255 0
0.229890 -0.021368 0.192950 204 51 127
0.401894 0.224240 0.056777 127 127 0
-0.332065 -0.119695 -0.249917 204 51 127
-0.418449 0.197844 0.209725 255 0 0
-0.275218 -0.021636 0.290884 204 51 127
-0.338629 0.517145 -0.318431 153 76 0
-0.074882 0.172924 -0.306799 153 76 0
-0.158448 -0.019845 0.328452 204 51 127
-0.099482 0.436524 -0.345149 153 76 0
-0.397196 -0.572753 0.470318 76 0 153
-0.338917 0.220664 -0.235184 153 76 0
-0.150385 -0.019779 0.298041 204 51 127
0.153880 -0.019925 0.478841 204 51 127
0.071814 0.483305 -0.256835 153 76 0
-0.426373 -0.290797 0.487783 76 0 153
0.214167 -0.021442 0.017903 204 51 127
0.334870 -0.622702 -0.313183 76 0 153
-0.005035 0.292572 -0.204534 153 76 0
-0.193899 -0.020121 0.469957 204 51 127
-0.330496 -0.694525 -0.284183 153 0 76
0.344455 -0.441421 -0.275561 76 0 153
-0.360924 0.123306 -0.195049 76 153 0
-0.156289 0.551930 -0.356128 153 76 0
0.427810 0.183437 -0.003648 127 127 0
0.344040 0.326037 -0.281648 153 0 76
0.194173 -0.156892 0.402280 204 51 127
0.335510 0.363017 -0.246517 153 0 76
-0.392516 -0.153125 0.094733 204 51 127
-0.142113 0.441627 -0.243916 153 76 0
-0.417270 -0.323645 0.512969 76 0 153
0.319918 0.545346 -0.326685 153 76 0
-0.141569 -0.039812 0.533047 204 51 127
-0.380163 -0.622906 0.493049 76 0 153
-0.369183 -0.669635 -0.279778 153 0 76
0.401821 -0.143531 0.473294 153 76 0
0.213104 0.087503 -0.282224 153 76 0
-0.389638 0.395428 -0.243911 76 153 0
-0.407517 -0.126647 0.172069 204 51 127
-0.445756 0.212453 0.254919 255 0 0
-0.125968 -0.019460 0.273780 204 51 127
-0.374654 0.475984 -0.267171 76 153 0
0.393899 -0.145466 0.192403 204 51 127
-0.431776 -0.080814 0.405886 204 51 127
-0.237587 0.483782 -0.338393 153 76 0
-0.237002 -0.156892 0.102789 204 51 127
-0.085754 0.057234 -0.287957 153 76 0
0.209785 -0.156892 0.034706 204 51 127
-0.366250 -0.095738 0.534222 204 51 127
-0.310933 -0.089163 -0.249560 204 51 127
-0.339983 -0.048326 0.534700 204 51 127
0.246748 0.551930 -0.324675 153 76 0
-0.341221 -0.156892 0.227494 204 51 127
0.290882 0.392725 -0.303009 153 76 0
0.318925 -0.156892 0.417765 204 51 127
-0.002851 0.419393 -0.237233 153 76 0
0.402405 -0.048812 0.342851 0 255 0
-0.135788 -0.020367 0.041894 204 51 127
-0.339141 -0.293393 -0.178880 153 0 76
-0.348945 -0.545608 -0.232876 153 0 76
-0.173957 0.415730 -0.335569 153 76 0
0.149732 -0.156892 0.077522 204 51 127
-0.083703 -0.033900 -0.237731 204 51 127
-0.346406 -0.156892 -0.061344 204 51 127
0.244158 0.161872 -0.189653 153 76 0
-0.114288 0.551934 -0.311666 153 76 0
-0.463278 0.188551 0.196920 255 0 0
0.076870 -0.156892 0.068060 204 51 127
0.045959 0.265096 -0.318561 153 76 0
-0.328077 -0.032409 -0.130577 204 51 127
-0.257125 0.303941 -0.301211 153 76 0
0.021999 -0.156892 0.248221 204 51 127
-0.245224 0.429258 -0.325994 153 76 0
-0.074084 -0.156892 0.159008 204 51 127
-0.290589 0.337244 -0.297992 153 76 0
0.316154 -0.501551 -0.284256 76 0 153
0.222629 -0.156892 -0.055799 204 51 127
0.402903 0.186572 0.273721 127 127 0
0.030165 0.210864 -0.311840 153 76 0
-0.325018 -0.121087 -0.180101 153 0 76
-0.139085 -0.022927 -0.072223 204 51 127
-0.158562 -0.020106 0.180255 204 51 127
-0.270417 -0.030533 -0.222002 204 51 127
0.374174 0.575576 -0.328199 76 0 153
-0.370467 -0.158000 0.510272 76 0 153
-0.338420 -0.032981 -0.073220 204 51 127
-0.337879 -0.099241 -0.249533 153 0 76
-0.266510 0.571798 -0.317210 76 0 153
0.051473 -0.156892 0.320338 204 51 127
-0.379709 0.039253 -0.201250 76 153 0
0.329458 -0.030315 0.166369 204 51 127
-0.048025 -0.156892 -0.081198 204 51 127
-0.371229 -0.327857 0.490164 76 0 153
0.172378 0.323371 -0.214968 153 76 0
0.403945 -0.324428 0.506340 153 76 0
0.151478 -0.094067 -0.250572 204 51 127
-0.024849 0.444153 -0.347024 153 76 0
0.394089 -0.770449 0.501727 153 76 0
-0.384884 0.224358 -0.241790 76 153 0
0.420873 -0.119139 0.532330 204 51 127
-0.390724 0.434303 -0.253536 76 153 0
-0.187539 0.501646 -0.262584 153 76 0
0.036465 -0.023953 -0.107454 204 51 127
0.202164 -0.021208 0.050262 204 51 127
0.325034 -0.032428 -0.016319 204 51 127
-0.241081 -0.020862 0.444487 204 51 127
0.200933 0.574172 -0.369129 76 0 153
-0.370920 -0.530956 -0.242516 153 0 76
-0.384100 -0.752950 0.507200 76 0 153
0.244797 -0.028750 -0.202816 204 51 127
0.154101 -0.156892 0.308550 204 51 127
0.034770 0.071548 -0.217653 153 76 0
0.330911 -0.727388 -0.288283 76 0 153
0.000661 -0.156892 0.379921 204 51 127
-0.422980 -0.307802 0.496659 76 0 153
0.346669 -0.123625 -0.175261 76 0 153
-0.218443 -0.035733 0.530283 204 51 127
0.268304 0.157537 -0.191599 153 76 0
0.359812 -0.177243 -0.240829 76 0 153
0.353685 -0.665970 -0.296854 76 0 153
-0.368294 -0.740597 -0.305156 153 0 76
0.356170 -0.055008 -0.123380 204 51 127
0.085757 0.350744 -0.330525 153 76 0
-0.099068 -0.021906 -0.022121 204 51 127
-0.075079 0.127441 -0.303039 153 76 0
0.271234 0.554922 -0.325847 153 76 0
-0.104580 0.402972 -0.338875 153 76 0
0.281194 -0.021664 0.456283 204 51 127
-0.056779 0.108220 -0.195739 153 76 0
-0.308004 0.205573 -0.204229 153 76 0
-0.298066 -0.029118 -0.167591 204 51 127
-0.347587 0.424217 -0.262988 153 76 0
0.273186 0.252225 -0.285203 153 76 0
0.371138 -0.272985 0.451697 153 76 0
0.129786 0.052778 -0.295180 153 76 0
-0.414165 -0.115574 0.235690 204 51 127
0.447709 0.170295 0.305576 0 255 0
0.186292 -0.135400 -0.250488 204 51 127
-0.075341 -0.023687 -0.098409 204 51 127
0.374958 -0.153133 0.076444 204 51 127
-0.381965 -0.182041 0.446048 76 0 153
-0.318461 -0.156892 -0.180576 204 51 127
-0.358561 -0.187526 -0.175494 153 0 76
0.446148 0.186327 0.106493 127 127 0
-0.391424 -0.432143 0.461584 76 0 153
0.112102 -0.156892 0.225023 204 51 127
0.038593 -0.018082 0.454977 204 51 127
0.288716 -0.156892 -0.209750 204 51 127
0.289597 -0.156892 0.167649 204 51 127
-0.384437 -0.560100 0.469532 76 0 153
0.328116 -0.660651 -0.323546 76 0 153
-0.383565 -0.043760 0.083756 204 51 127
-0.032227 -0.022396 -0.035944 204 51 127
0.203885 -0.034930 -0.238514 204 51 127
0.404286 0.220206 -0.216808 127 127 0
0.138396 -0.019604 0.427821 204 51 127
0.261878 0.194049 -0.197985 153 76 0
0.251629 -0.156892 0.179005 204 51 127
0.441615 0.218041 0.202459 127 127 0
-0.397507 -0.096963 0.534030 204 51 127
0.072130 -0.018605 0.438883 204 51 127
-0.139232 0.565858 -0.328854 153 76 0
-0.084865 0.489296 -0.258678 153 76 0
0.043555 0.558943 -0.334495 153 76 0
0.309362 -0.082576 -0.238551 76 0 153
-0.214611 -0.156892 -0.191781 204 51 127
-0.170985 0.187336 -0.301483 153 76 0
-0.399248 -0.733235 0.489981 76 0 153
0.336677 -0.031781 0.133385 204 51 127
-0.228097 -0.092772 0.535138 204 51 127
-0.411246 0.194246 -0.037276 255 0 0
-0.375962 -0.129007 -0.238742 153 0 76
-0.063097 0.425503 -0.238948 153 76 0
0.388497 0.187577 -0.099306 127 127 0
0.323716 -0.036386 -0.182569 153 0 76
0.081706 -0.082543 -0.250742 204 51 127
0.314856 0.032798 -0.204676 153 0 76
0.193056 0.263168 -0.305709 153 76 0
-0.402152 -0.511165 0.516725 76 0 153
-0.256116 -0.156892 -0.231169 204 51 127
-0.362855 0.101865 -0.192331 76 153 0
-0.373311 -0.396625 0.500279 76 0 153
0.308717 0.094924 -0.224732 153 76 0
-0.311816 0.102445 -0.260170 153 76 0
0.273264 -0.022040 0.221664 204 51 127
0.368102 -0.110637 -0.039415 204 51 127
-0.044262 -0.156892 -0.113504 204 51 127
0.339397 -0.620961 -0.254570 76 0 153
0.173089 -0.156892 0.121580 204 51 127
0.072672 -0.156892 0.403357 204 51 127
-0.361946 -0.003744 -0.251270 76 153 0
0.402903 0.175315 0.297950 0 255 0
-0.455612 0.193731 -0.108816 255 0 0
0.350766 -0.165476 0.483443 153 76 0
0.038385 0.051718 -0.270085 153 76 0
0.363384 -0.582210 0.496572 153 76 0
-0.331702 0.100955 -0.202753 153 76 0
0.402903 0.154893 0.285678 0 255 0
-0.434488 -0.050263 0.480386 204 51 127
0.330436 -0.027035 0.396125 204 51 127
0.380396 -0.156892 0.211459 204 51 127
0.265743 0.427460 -0.244406 153 76 0
0.354924 -0.042134 -0.014438 204 51 127
-0.213407 0.211099 -0.297743 153 76 0
-0.100309 0.272925 -0.200829 153 76 0
-0.300974 0.069641 -0.261400 153 76 0
-0.356155 -0.156892 -0.093973 204 51 127
-0.332114 -0.030204 0.523589 204 51 127
0.402903 0.030167 0.334803 0 255 0
0.206131 -0.051003 0.535428 204 51 127
-0.137791 0.364855 -0.330674 153 76 0
0.301943 -0.031269 -0.144770 204 51 127
-0.148479 -0.019566 0.403684 204 51 127
0.354502 -0.601017 -0.299481 76 0 153
0.255058 0.127445 -0.188438 153 76 0
0.399576 -0.128355 0.296784 0 255 0
0.029813 0.488821 -0.355335 153 76 0
0.324414 -0.080306 -0.179163 76 0 153
0.285797 0.587870 -0.313209 76 0 153
0.302123 -0.156892 0.301578 204 51 127
0.107935 -0.048043 0.535749 204 51 127
0.066408 -0.023170 -0.076254 204 51 127
0.111463 0.247711 -0.314003 153 76 0
0.138859 0.057234 -0.260885 153 76 0
-0.331501 -0.666531 -0.269616 153 0 76
-0.272900 -0.025692 0.513285 204 51 127
0.296494 -0.023330 0.332541 204 51 127
-0.315858 -0.233634 -0.189517 153 0 76
0.392484 -0.143803 0.489927 153 76 0
0.325525 0.411035 -0.265168 153 0 76
-0.186513 0.051718 -0.269116 153 76 0
0.357083 -0.374105 0.475588 153 76 0
-0.277815 0.595547 -0.349765 76 0 153
0.313256 -0.641756 -0.304762 76 0 153
0.373391 -0.156892 0.279150 204 51 127
-0.328268 -0.014285 -0.200227 76 153 0
0.354912 0.572585 -0.290554 76 0 153
0.006003 0.539760 -0.275428 153 76 0
-0.051988 -0.018196 0.309182 204 51 127
0.358200 -0.305214 -0.205310 76 0 153
0.308402 0.096756 -0.200726 153 76 0
-0.318116 -0.304658 -0.193117 153 0 76
-0.373389 -0.156892 0.233065 204 51 127
0.118632 -0.156892 0.436609 204 51 127
-0.139921 0.574270 -0.374359 76 0 153
-0.366434 -0.094915 -0.190665 204 51 127
0.062363 0.377824 -0.226316 153 76 0
0.399966 -0.712618 0.495224 153 76 0
0.341394 -0.156892 0.168426 204 51 127
-0.450229 0.206465 -0.136146 255 0 0
-0.364547 0.066264 -0.188139 76 153 0
-0.177241 -0.048786 -0.249851 204 51 127
0.374897 -0.031641 0.489938 204 51 127
-0.436853 -0.123231 0.439009 204 51 127
-0.339419 0.157374 -0.260512 76 153 0
-0.273745 -0.021326 0.455484 204 51 127
-0.414146 -0.335169 0.455560 76 0 153
0.156515 -0.156892 0.450811 204 51 127
0.302306 -0.195185 -0.227785 76 0 153
-0.418385 -0.655276 0.504191 76 0 153
-0.287732 -0.060324 -0.249245 204 51 127
0.362198 -0.420434 0.514970 153 76 0
0.211620 -0.156892 0.378256 204 51 127
-0.146817 -0.022308 -0.045658 204 51 127
-0.172911 -0.156892 0.384307 204 51 127
-0.403261 0.196932 -0.104768 255 0 0
-0.107298 0.326871 -0.212934 153 76 0
-0.081624 0.234935 -0.193591 153 76 0
-0.441286 0.227161 -0.124598 255 0 0
-0.027142 -0.035318 -0.241434 204 51 127
-0.231005 -0.073285 -0.249872 204 51 127
-0.121253 0.080107 -0.210831 153 76 0
-0.378830 -0.156892 0.144167 204 51 127
0.216916 -0.029628 -0.214302 204 51 127
0.025939 -0.018004 0.367956 204 51 127
0.132420 -0.039775 -0.247414 204 51 127
-0.132289 0.266743 -0.200677 153 76 0
-0.377593 0.192971 -0.264623 76 153 0
-0.235493 -0.027519 -0.188174 204 51 127
-0.259945 -0.057588 -0.249400 204 51 127
-0.061908 0.051718 -0.288118 153 76 0
-0.350519 0.476916 -0.288391 153 76 0
0.121968 0.551929 -0.332130 153 76 0
-0.362564 -0.156892 0.069800 204 51 127
-0.330713 -0.701693 -0.319160 153 0 76
-0.326836 -0.045583 -0.190005 153 0 76
-0.393023 0.516451 -0.286698 76 153 0
-0.026546 -0.156892 0.078262 204 51 127
0.312629 -0.023674 0.454078 204 51 127
0.052074 -0.018416 0.378018 204 51 127
-0.172353 0.112780 -0.193769 153 76 0
0.116517 -0.019453 0.329440 204 51 127
-0.353253 -0.156892 0.283890 204 51 127
-0.054811 0.124131 -0.303149 153 76 0
0.380958 -0.156892 0.491814 204 51 127
-0.333494 0.099980 -0.235333 153 76 0
0.139996 0.051718 -0.231331 153 76 0
0.373847 0.386165 -0.269237 153 0 76
0.427330 -0.129160 0.491797 204 51 127
0.221024 -0.156892 -0.181662 204 51 127
-0.195857 -0.156892 0.205972 204 51 127
-0.383824 0.595547 -0.308086 76 0 153
-0.390520 -0.539257 0.468238 76 0 153
0.388675 -0.033992 0.454759 204 51 127
-0.141249 -0.029212 -0.211479 204 51 127
-0.343412 -0.747852 -0.294951 153 0 76
0.168648 -0.156892 0.362788 204 51 127
0.312419 -0.020618 -0.191572 204 51 127
-0.418449 0.203940 0.176290 255 0 0
-0.328423 0.180491 -0.213662 153 76 0
0.306935 -0.119991 -0.204180 76 0 153
0.332569 -0.156892 0.485422 204 51 127
-0.111244 -0.156892 -0.111637 204 51 127
-0.009989 -0.156892 0.413693 204 51 127
0.392394 0.193862 -0.068396 127 127 0
0.161137 0.433091 -0.338563 153 76 0
-0.040498 0.172982 -0.307111 153 76 0
0.450858 -0.011546 0.323457 0 255 0
0.229441 -0.029745 0.522808 204 51 127
0.365521 0.087721 -0.214210 153 0 76
-0.345702 -0.156892 -0.018164 204 51 127
0.153960 -0.054876 -0.250009 204 51 127
0.355962 -0.483985 -0.233489 76 0 153
-0.104422 -0.156892 0.306241 204 51 127
-0.245776 0.595547 -0.352012 76 0 153
-0.375558 -0.161555 -0.251899 153 0 76
-0.292657 0.417855 -0.311701 153 76 0
-0.128173 -0.156892 0.485658 204 51 127
0.383464 -0.033640 0.431513 204 51 127
0.315539 -0.344272 -0.187063 76 0 153
0.390865 -0.132694 0.160210 204 51 127
-0.439763 -0.142880 0.459405 204 51 127
0.384987 -0.347506 0.513656 153 76 0
0.090572 0.058670 -0.227919 153 76 0
-0.322378 -0.439965 -0.249859 153 0 76
0.360233 -0.143606 -0.239948 76 0 153
-0.321249 -0.403892 -0.227184 153 0 76
0.445893 -0.053276 0.296072 0 255 0
-0.079195 0.558943 -0.369047 153 76 0
0.011349 -0.019423 0.096774 204 51 127
0.365383 -0.208795 0.447710 153 76 0
0.444754 0.180931 0.129371 127 127 0
-0.301905 -0.156892 0.157778 204 51 127
-0.326154 0.220034 -0.268567 153 76 0
0.137822 -0.156892 0.373207 204 51 127
0.444701 -0.118350 0.346661 0 255 0
0.096822 0.057234 -0.255690 153 76 0
-0.451970 0.151596 0.275726 0 0 255
0.360517 0.096660 -0.188963 153 0 76
0.077087 0.558943 -0.352027 76 0 153
-0.248508 -0.021698 0.030291 204 51 127
-0.352056 -0.281403 -0.175889 153 0 76
0.301886 -0.030136 -0.070551 204 51 127
-0.115283 -0.019043 0.421767 204 51 127
0.179587 -0.020658 0.173865 204 51 127
0.160641 -0.151510 -0.247148 204 51 127
0.329572 -0.648723 -0.263540 76 0 153
0.362169 -0.144684 0.464234 153 76 0
-0.438196 0.200300 -0.217499 255 0 0
-0.368344 -0.087518 -0.171110 153 0 76
0.307620 -0.029199 0.039535 204 51 127
0.402903 0.078606 0.306090 0 255 0
-0.171394 -0.156892 0.117851 204 51 127
0.442042 0.154013 0.275208 0 255 0
0.386571 -0.407122 0.514730 153 76 0
0.380176 -0.132893 0.531122 204 51 127
0.046327 -0.155625 -0.239187 204 51 127
-0.078016 -0.156892 -0.105141 204 51 127
-0.380192 -0.146441 -0.070970 204 51 127
-0.116711 0.096255 -0.299166 153 76 0
0.370971 0.282889 -0.253753 153 0 76
0.378390 -0.371940 0.457844 153 76 0
-0.303174 0.375327 -0.236938 153 76 0
0.021922 -0.024713 -0.139521 204 51 127
0.218033 0.456559 -0.333824 153 76 0
0.102289 -0.024573 -0.135833 204 51 127
-0.066911 0.205187 -0.189509 153 76 0
0.360935 -0.043650 0.020854 204 51 127
0.325131 0.282351 -0.263805 153 76 0
0.211154 0.503194 -0.344762 153 76 0
0.376440 -0.138010 0.027837 204 51 127
-0.320696 -0.156892 0.031966 204 51 127
-0.238255 -0.156892 0.315545 204 51 127
0.358998 -0.031067 0.384543 204 51 127
-0.319981 -0.363612 -0.209609 153 0 76
0.013763 -0.156892 0.495865 204 51 127
-0.442732 -0.130880 0.489968 204 51 127
-0.020535 0.057234 -0.243823 153 76 0
-0.316700 -0.214065 -0.240158 153 0 76
0.321753 0.215039 -0.214905 153 76 0
-0.402708 -0.479929 0.464552 76 0 153
0.136642 -0.020032 0.130770 204 51 127
0.360489 -0.156892 0.502933 153 76 0
-0.194478 -0.024591 -0.133704 204 51 127
0.390956 0.226763 -0.130596 127 127 0
0.367151 0.146270 -0.215408 153 0 76
-0.445504 0.197461 -0.183271 255 0 0
0.362263 -0.545199 0.487666 153 76 0
-0.315561 0.133885 -0.191109 153 76 0
-0.420610 -0.145141 0.509743 76 0 153
0.333369 -0.156892 0.137988 204 51 127
-0.358663 -0.351968 -0.185863 153 0 76
-0.332672 -0.156892 -0.122572 204 51 127
0.358812 -0.257043 -0.242035 76 0 153
-0.115862 0.126118 -0.301147 153 76 0
0.134273 -0.020830 0.019653 204 51 127
0.093185 0.581378 -0.332244 76 0 153
0.331435 0.008876 -0.184364 153 0 76
-0.333461 0.425944 -0.300368 153 76 0
-0.285386 -0.156892 0.041786 204 51 127
0.081352 0.329265 -0.213563 153 76 0
-0.169972 0.299395 -0.316507 153 76 0
-0.011667 0.051718 -0.273100 153 76 0
0.358610 -0.272421 -0.200458 76 0 153
-0.322990 -0.023588 0.504686 204 51 127
-0.161439 0.471395 -0.347679 153 76 0
-0.447526 0.226845 0.069842 255 0 0
-0.211091 -0.156892 0.094905 204 51 127
0.402903 0.194861 0.193425 127 127 0
0.329605 0.552404 -0.291630 153 76 0
-0.189535 -0.156892 0.151289 204 51 127
0.218201 0.595547 -0.334158 76 0 153
-0.411084 0.174031 -0.162038 255 0 0
0.234856 0.051718 -0.263968 153 76 0
-0.276233 -0.024773 -0.064530 204 51 127
-0.022985 -0.156892 0.213858 204 51 127
0.027749 0.556959 -0.371456 153 76 0
0.445563 0.182507 0.165691 127 127 0
-0.409444 -0.174689 0.510540 76 0 153
-0.082821 0.122587 -0.190204 153 76 0
0.448401 0.196313 0.049852 127 127 0
0.301538 -0.274063 -0.241010 76 0 153
0.189807 -0.156892 -0.073894 204 51 127
0.314740 -0.688425 -0.326057 76 0 153
0.429620 0.081568 0.335160 0 255 0
-0.228471 0.398764 -0.323736 153 76 0
0.393476 0.176793 -0.134909 127 127 0
0.400572 -0.509836 0.471610 153 76 0
0.192869 0.054247 -0.229064 153 76 0
-0.294087 -0.156892 -0.155962 204 51 127
-0.419910 -0.470069 0.475090 76 0 153
-0.103700 -0.038610 -0.246197 204 51 127
0.323659 -0.305743 -0.180651 76 0 153
-0.371622 -0.475456 -0.261896 153 0 76
0.154738 -0.021861 -0.028593 204 51 127
0.028142 -0.152065 0.519569 204 51 127
0.185223 0.051718 -0.284990 153 76 0
0.205932 -0.020875 0.271936 204 51 127
-0.302108 0.471401 -0.319737 153 76 0
0.329294 -0.028479 0.288478 204 51 127
-0.050718 -0.156892 0.429539 204 51 127
-0.439194 -0.108602 0.464673 204 51 127
-0.411600 -0.143577 0.206336 204 51 127
-0.325638 0.279651 -0.221302 153 76 0
-0.385032 -0.032424 0.387597 204 51 127
-0.245914 -0.021336 0.214790 204 51 127
0.320755 -0.156892 0.264207 204 51 127
0.277366 0.558943 -0.343239 153 76 0
0.149557 0.545280 -0.276880 153 76 0
0.005323 -0.024981 -0.149461 204 51 127
0.387105 -0.060509 0.148073 204 51 127
-0.318871 0.057234 -0.242947 153 76 0
-0.015279 0.168683 -0.184909 153 76 0
-0.306284 0.341138 -0.230661 153 76 0
-0.280958 0.273554 -0.290429 153 76 0
0.187858 -0.020452 0.360723 204 51 127
0.023736 0.362904 -0.333144 153 76 0
-0.383356 -0.672510 0.521340 76 0 153
0.004490 -0.031139 -0.230279 204 51 127
-0.159605 -0.101742 0.535594 204 51 127
-0.331951 0.594312 -0.306747 76 0 153
0.382117 -0.058169 0.103566 204 51 127
0.355232 0.319445 -0.230897 153 0 76
-0.314262 -0.021897 0.471037 204 51 127
0.362664 0.510059 -0.273798 153 0 76
0.102171 -0.026521 -0.179811 204 51 127
0.327315 -0.031367 0.075995 204 51 127
0.164695 0.559249 -0.358822 153 76 0
-0.094065 -0.025521 -0.168042 204 51 127
-0.366514 -0.172151 0.490300 76 0 153
-0.184227 0.077367 -0.289996 153 76 0
-0.247069 -0.032462 0.526967 204 51 127
0.287036 -0.023118 0.266764 204 51 127
-0.325430 0.117658 -0.233358 153 76 0
0.253941 -0.156892 -0.096996 204 51 127
0.396748 0.216788 -0.026314 127 127 0
0.260874 0.570338 -0.314989 76 0 153
0.280949 -0.152488 -0.245832 204 51 127
0.440361 0.214026 -0.017420 127 127 0
0.407292 -0.277891 0.464497 153 76 0
0.309496 0.110604 -0.230492 153 76 0
-0.072246 0.194495 -0.309570 153 76 0
0.094439 -0.021554 -0.007791 204 51 127
-0.418449 0.153058 0.276423 0 0 255
-0.136495 -0.156892 0.152863 204 51 127
-0.330465 -0.569416 -0.240775 153 0 76
-0.412757 0.192557 -0.020718 255 0 0
-0.302508 0.414177 -0.244487 153 76 0
-0.078742 -0.029802 -0.219849 204 51 127
-0.373208 -0.348263 -0.210621 153 0 76
0.306337 -0.424830 -0.258736 76 0 153
0.275477 -0.023846 0.121313 204 51 127
0.025699 -0.028436 -0.204641 204 51 127
-0.071340 -0.156892 0.106784 204 51 127
0.180987 -0.032698 0.527273 204 51 127
0.050382 0.053188 -0.229064 153 76 0
-0.244887 0.558943 -0.342978 153 76 0
-0.262868 0.530299 -0.271486 153 76 0
-0.391263 0.453133 -0.285194 76 153 0
-0.417858 -0.401715 0.508036 76 0 153
-0.456947 0.189566 -0.060792 255 0 0
0.058847 -0.018607 0.240952 204 51 127
0.164316 0.459155 -0.249316 153 76 0
-0.339480 -0.026774 0.354377 204 51 127
-0.331482 -0.156892 -0.162965 204 51 127
0.034001 0.470064 -0.252718 153 76 0
-0.372357 -0.416955 -0.260731 153 0 76
0.089269 0.595547 -0.348493 76 0 153
0.048470 0.214691 -0.190707 153 76 0
-0.197116 0.595547 -0.370471 76 0 153
-0.129363 0.551934 -0.303672 153 76 0
-0.198035 -0.020872 0.028755 204 51 127
-0.418449 0.210393 0.121528 255 0 0
-0.364292 -0.032855 0.170236 204 51 127
0.319836 0.142543 -0.222382 153 76 0
0.354201 -0.624776 -0.286121 76 0 153
0.124854 -0.156892 0.282649 204 51 127
-0.146485 0.320065 -0.211820 153 76 0
-0.352784 0.266505 -0.273115 76 153 0
0.015741 -0.156892 -0.130202 204 51 127
-0.364862 0.492575 -0.308564 76 153 0
-0.434614 0.217609 0.223379 255 0 0
0.429312 -0.073719 0.289356 0 255 0
-0.034869 -0.029262 0.521800 204 51 127
-0.021013 -0.156892 0.396881 204 51 127
-0.219232 -0.156892 0.261771 204 51 127
0.157572 -0.020284 0.201567 204 51 127
0.349085 -0.156892 0.089362 204 51 127
0.403450 -0.644461 0.490660 153 76 0
-0.441311 -0.116342 0.349977 0 0 255
-0.436255 0.182871 -0.225224 255 0 0
0.266813 -0.021667 0.333185 204 51 127
-0.019319 0.116776 -0.303048 153 76 0
-0.386700 0.289646 -0.243998 76 153 0
-0.251830 0.060414 -0.226529 153 76 0
0.233391 0.212668 -0.198479 153 76 0
-0.329394 -0.660015 -0.286622 153 0 76
0.312950 -0.631535 -0.268647 76 0 153
0.261425 -0.156892 0.153974 204 51 127
0.124712 -0.156892 0.349088 204 51 127
0.337790 -0.547466 -0.293775 76 0 153
-0.279585 -0.027946 -0.191980 204 51 127
0.285778 -0.030096 -0.206207 204 51 127
-0.350866 -0.736828 -0.344348 153 0 76
0.360236 -0.142748 -0.211500 76 0 153
0.386994 -0.597227 0.519186 153 76 0
0.352768 0.218813 -0.226185 127 127 0
0.344519 -0.392813 -0.194112 76 0 153
0.083786 0.458233 -0.349228 153 76 0
0.358951 -0.032378 0.295226 204 51 127
-0.357984 -0.193471 -0.254754 153 0 76
0.175057 0.521388 -0.268670 153 76 0
-0.391785 0.474805 -0.305503 76 153 0
0.408850 -0.152131 0.366414 204 51 127
0.360567 -0.125270 -0.112163 204 51 127
0.307932 -0.475366 -0.280027 76 0 153
0.077379 -0.035350 -0.240749 204 51 127
0.358452 -0.408560 0.460119 153 76 0
-0.341174 0.439564 -0.279248 153 76 0
0.361040 -0.078144 -0.195428 76 0 153
0.202970 -0.067556 -0.249867 204 51 127
0.426343 -0.070849 0.500582 204 51 127
0.156326 -0.156892 -0.003354 204 51 127
0.219995 0.559250 -0.351256 153 76 0
0.080253 -0.156892 -0.177172 204 51 127
