-0.386212 -0.178395 -0.355073 0.800000 0.200000 0.500000
-0.392683 0.307130 -0.475009 0.800000 0.200000 0.500000
-0.368203 0.011607 0.206006 0.000000 0.500000 0.500000
0.430170 -0.386304 0.613755 0.600000 0.300000 0.000000
-0.583863 0.101472 0.595615 0.500000 0.000000 0.500000
-0.367730 0.092939 -0.151562 0.000000 0.500000 0.500000
-0.655964 0.247216 0.110781 0.000000 0.500000 0.500000
0.312035 -0.278888 -0.355073 0.800000 0.200000 0.500000
-0.364229 0.025234 -0.355073 0.800000 0.200000 0.500000
0.263275 0.593611 -0.379060 0.600000 0.000000 0.300000
-0.180176 0.057745 -0.355073 0.800000 0.200000 0.500000
-0.118655 -0.292615 0.290936 0.000000 1.000000 0.000000
-0.002174 0.032274 -0.461979 0.800000 0.200000 0.500000
0.363664 0.100606 0.204224 0.300000 0.000000 0.600000
0.618099 0.160421 -0.368375 0.300000 0.600000 0.000000
-0.006175 0.673847 -0.439028 0.600000 0.000000 0.300000
0.181579 0.660451 -0.381294 0.600000 0.000000 0.300000
-0.492978 -0.521360 -0.372582 0.600000 0.000000 0.300000
0.230613 0.553409 -0.475009 0.800000 0.200000 0.500000
-0.457888 -0.071961 0.555272 0.500000 0.000000 0.500000
-0.372973 -0.047847 0.587415 0.000000 0.500000 0.500000
0.662405 0.209177 0.377853 0.300000 0.000000 0.600000
0.070539 0.775958 -0.379060 0.600000 0.000000 0.300000
-0.402139 -0.341245 0.555256 1.000000 0.000000 0.000000
0.078580 -0.292615 -0.398813 0.000000 1.000000 0.000000
0.140619 -0.292615 0.409997 0.000000 1.000000 0.000000
-0.576704 0.633193 -0.379060 0.600000 0.000000 0.300000
0.521126 0.032378 0.619762 0.600000 0.000000 0.300000
0.487329 -0.419477 0.588723 0.600000 0.300000 0.000000
0.379258 0.224089 0.521102 0.300000 0.000000 0.600000
0.364444 -0.071733 -0.151133 0.300000 0.000000 0.600000
0.110506 -0.087945 -0.104951 0.000000 1.000000 0.000000
-0.372741 0.162535 0.180193 0.000000 0.500000 0.500000
0.448146 0.548901 -0.379060 0.600000 0.000000 0.300000
-0.481925 0.180563 -0.063405 0.000000 0.500000 0.500000
0.051749 -0.292615 -0.064858 0.000000 1.000000 0.000000
0.083479 0.466618 -0.355073 0.800000 0.200000 0.500000
-0.390722 0.241361 0.577945 0.000000 0.500000 0.500000
-0.281381 0.061513 -0.355073 0.800000 0.200000 0.500000
0.172634 -0.365449 -0.365202 0.000000 0.000000 1.000000
-0.667237 0.204462 -0.311893 0.000000 0.500000 0.500000
-0.428760 -0.236209 0.533279 0.000000 1.000000 0.000000
-0.326402 -0.114231 0.678079 0.000000 1.000000 0.000000
-0.440332 -0.191662 0.167960 0.000000 1.000000 0.000000
0.449634 0.090339 -0.304757 0.300000 0.000000 0.600000
-0.452542 -0.074327 -0.413793 0.000000 0.500000 0.500000
0.356049 0.633968 -0.439028 0.600000 0.000000 0.300000
-0.448062 0.017670 0.604714 0.000000 0.500000 0.500000
-0.382566 0.220806 0.025977 0.000000 0.500000 0.500000
-0.180198 -0.389143 -0.451085 0.000000 0.000000 1.000000
-0.368449 0.104833 0.451478 0.000000 0.500000 0.500000
-0.239835 -0.292615 0.611685 0.000000 1.000000 0.000000
0.560737 0.209146 0.677554 0.600000 0.000000 0.300000
-0.516443 -0.057458 0.555256 0.500000 0.000000 0.500000
0.437270 0.660462 -0.437165 0.600000 0.000000 0.300000
0.012206 -0.088605 0.199129 0.000000 1.000000 0.000000
-0.223288 0.717022 -0.379060 0.600000 0.000000 0.300000
-0.228065 -0.088945 0.563350 0.000000 1.000000 0.000000
-0.004033 -0.292615 0.063646 0.000000 1.000000 0.000000
-0.296182 -0.173854 -0.476971 0.000000 1.000000 0.000000
-0.358868 -0.400007 -0.428814 0.000000 0.000000 1.000000
0.326134 0.568783 -0.432353 0.800000 0.200000 0.500000
-0.223485 -0.290654 -0.459408 0.800000 0.200000 0.500000
0.379943 0.226027 0.585673 0.300000 0.000000 0.600000
0.369143 -0.052539 -0.216537 0.300000 0.000000 0.600000
0.574884 0.228666 0.061627 0.300000 0.000000 0.600000
-0.601016 0.302541 -0.164052 0.000000 0.500000 0.500000
0.135960 0.341958 -0.355073 0.800000 0.200000 0.500000
0.515976 0.654772 -0.419113 0.600000 0.000000 0.300000
0.363579 0.098490 -0.334451 0.300000 0.000000 0.600000
-0.460114 -0.507997 -0.329697 0.600000 0.000000 0.300000
0.348412 -0.287107 -0.475009 0.800000 0.200000 0.500000
0.096274 0.024006 -0.355073 0.800000 0.200000 0.500000
-0.206388 0.531487 -0.355073 0.800000 0.200000 0.500000
0.594085 0.215470 -0.102231 0.300000 0.000000 0.600000
0.395457 0.259287 0.180216 0.300000 0.000000 0.600000
-0.353428 -0.201455 -0.355073 0.800000 0.200000 0.500000
-0.409017 -0.177855 0.678334 0.000000 1.000000 0.000000
-0.290708 -0.292615 0.574199 0.000000 1.000000 0.000000
-0.514252 0.315600 -0.040845 0.000000 0.500000 0.500000
0.375001 -0.127306 0.677936 0.000000 1.000000 0.000000
-0.432568 0.290548 0.429918 0.000000 0.500000 0.500000
-0.481873 0.182279 -0.469980 0.000000 0.500000 0.500000
-0.381116 0.372790 -0.355073 0.800000 0.200000 0.500000
-0.458686 0.111849 -0.449382 0.000000 0.500000 0.500000
0.363094 0.186418 -0.475009 0.800000 0.200000 0.500000
-0.403004 -0.290403 0.267080 0.000000 1.000000 0.000000
0.364062 -0.072562 -0.084958 0.300000 0.000000 0.600000
0.237526 -0.087945 0.504631 0.000000 1.000000 0.000000
-0.416268 -0.272398 -0.443978 0.000000 1.000000 0.000000
-0.396849 -0.349526 -0.476190 0.000000 0.000000 1.000000
0.591668 0.217407 0.564938 0.300000 0.000000 0.600000
0.113474 0.706816 -0.388611 0.600000 0.000000 0.300000
0.374470 0.205468 0.181669 0.300000 0.000000 0.600000
-0.570725 0.079070 0.155406 0.000000 0.500000 0.500000
0.455462 -0.485675 0.587027 0.600000 0.300000 0.000000
0.365098 -0.009307 -0.139283 0.300000 0.000000 0.600000
0.560512 0.097791 0.027467 0.300000 0.000000 0.600000
0.324967 -0.292615 0.267174 0.000000 1.000000 0.000000
-0.089352 -0.134278 0.677334 0.000000 1.000000 0.000000
-0.165950 -0.472853 -0.365540 0.000000 0.000000 1.000000
0.404558 0.303234 -0.382047 0.800000 0.200000 0.500000
0.052568 -0.321634 0.555256 1.000000 0.000000 0.000000
-0.041848 -0.502104 -0.363458 0.000000 0.000000 1.000000
0.206667 -0.292615 -0.133701 0.000000 1.000000 0.000000
0.013626 -0.087945 -0.405314 0.000000 1.000000 0.000000
0.063601 -0.292615 -0.261934 0.000000 1.000000 0.000000
-0.002174 0.365168 -0.366374 0.800000 0.200000 0.500000
0.370772 0.182502 -0.078987 0.300000 0.000000 0.600000
0.152688 -0.087945 0.018334 0.000000 1.000000 0.000000
0.338067 -0.292615 0.413000 0.000000 1.000000 0.000000
0.530446 0.233316 -0.044557 0.300000 0.000000 0.600000
-0.396759 0.499651 -0.355218 0.800000 0.200000 0.500000
0.397112 0.108683 0.678334 0.300000 0.000000 0.600000
0.210776 -0.362998 -0.354052 0.000000 0.000000 1.000000
0.430341 -0.215183 -0.331831 0.000000 1.000000 0.000000
0.323032 0.244102 -0.475009 0.800000 0.200000 0.500000
0.368340 -0.026388 -0.362149 0.800000 0.200000 0.500000
0.121603 -0.376377 -0.353934 0.000000 0.000000 1.000000
-0.231171 -0.087945 0.012413 0.000000 1.000000 0.000000
-0.344923 -0.292615 0.434214 0.000000 1.000000 0.000000
-0.368585 0.009305 -0.331209 0.000000 0.500000 0.500000
-0.452943 -0.613113 -0.347757 0.600000 0.000000 0.300000
-0.239288 -0.040900 -0.475009 0.800000 0.200000 0.500000
-0.038961 0.359159 -0.475009 0.800000 0.200000 0.500000
0.113484 -0.289496 0.568042 1.000000 0.000000 0.000000
0.395107 0.258685 0.514889 0.300000 0.000000 0.600000
-0.618077 0.155395 -0.017148 0.000000 0.500000 0.500000
0.452897 0.497193 -0.379060 0.600000 0.000000 0.300000
0.000981 -0.121597 0.678073 0.000000 1.000000 0.000000
0.493888 0.173945 -0.476190 0.300000 0.600000 0.000000
0.440544 -0.535144 0.626251 0.600000 0.300000 0.000000
0.282167 0.369578 -0.355073 0.800000 0.200000 0.500000
-0.336022 -0.292615 0.266752 0.000000 1.000000 0.000000
-0.622749 0.163745 -0.380764 0.500000 0.500000 0.000000
0.057724 -0.088156 -0.465367 0.000000 1.000000 0.000000
-0.185005 -0.292615 0.121992 0.000000 1.000000 0.000000
-0.452489 -0.071386 0.474138 0.000000 0.500000 0.500000
0.444302 -0.002270 0.448113 0.300000 0.000000 0.600000
0.411526 -0.273447 -0.185812 0.000000 1.000000 0.000000
-0.037929 0.470118 -0.475009 0.800000 0.200000 0.500000
0.005884 -0.283428 -0.355073 0.800000 0.200000 0.500000
0.465497 0.194993 -0.476957 0.300000 0.000000 0.600000
-0.534544 0.277296 -0.476971 0.000000 0.500000 0.500000
0.241382 -0.087945 0.593128 0.000000 1.000000 0.000000
0.573440 0.156498 0.555256 0.600000 0.000000 0.300000
-0.233022 -0.385128 0.555256 1.000000 0.000000 0.000000
0.614274 0.165155 -0.215213 0.300000 0.000000 0.600000
-0.519832 -0.219410 0.677554 0.500000 0.000000 0.500000
0.469664 0.161518 -0.375947 0.300000 0.000000 0.600000
-0.527541 -0.242456 -0.476190 0.500000 0.500000 0.000000
-0.506017 0.005055 -0.476191 0.500000 0.500000 0.000000
-0.490638 -0.503602 0.581580 0.300000 0.000000 0.600000
-0.494249 -0.558605 -0.324791 0.600000 0.000000 0.300000
0.441156 -0.004888 0.588490 0.600000 0.000000 0.300000
0.134205 -0.292615 0.289658 0.000000 1.000000 0.000000
-0.413667 -0.278981 0.327272 0.000000 1.000000 0.000000
-0.002174 0.042874 -0.370572 0.800000 0.200000 0.500000
0.175785 -0.338422 0.580484 1.000000 0.000000 0.000000
-0.002174 0.357626 -0.389213 0.800000 0.200000 0.500000
0.234008 -0.447776 0.579527 1.000000 0.000000 0.000000
-0.026186 -0.248093 -0.476971 0.000000 1.000000 0.000000
-0.613282 0.138526 0.208548 0.000000 0.500000 0.500000
0.390350 -0.292355 0.452439 0.000000 1.000000 0.000000
-0.462366 -0.078360 0.677052 0.500000 0.000000 0.500000
0.450082 0.107616 0.634336 0.600000 0.000000 0.300000
-0.079387 -0.290654 -0.395856 0.800000 0.200000 0.500000
-0.548242 0.616933 -0.419435 0.600000 0.000000 0.300000
0.601913 0.300099 -0.423350 0.300000 0.000000 0.600000
0.391138 -0.204225 -0.457411 0.800000 0.200000 0.500000
-0.379301 0.206202 0.372625 0.000000 0.500000 0.500000
-0.396977 0.219813 -0.476458 0.000000 0.500000 0.500000
0.316029 0.505757 -0.355073 0.800000 0.200000 0.500000
-0.050726 -0.088946 -0.030998 0.000000 1.000000 0.000000
-0.281561 0.146433 -0.355073 0.800000 0.200000 0.500000
-0.312475 -0.132751 -0.476971 0.000000 1.000000 0.000000
-0.244914 -0.201421 -0.475009 0.800000 0.200000 0.500000
0.058210 -0.440764 -0.476190 0.000000 0.000000 1.000000
0.444271 -0.001491 0.151675 0.300000 0.000000 0.600000
-0.400175 0.488998 -0.379060 0.600000 0.000000 0.300000
-0.169468 -0.088945 -0.097752 0.000000 1.000000 0.000000
0.353300 -0.081838 0.454205 0.000000 1.000000 0.000000
0.444090 0.037955 -0.446368 0.300000 0.000000 0.600000
0.335158 -0.290473 0.608474 1.000000 0.000000 0.000000
0.095046 -0.292615 0.604291 0.000000 1.000000 0.000000
-0.666714 0.209559 0.387853 0.000000 0.500000 0.500000
-0.278286 -0.034702 -0.475009 0.800000 0.200000 0.500000
0.360346 0.656608 -0.404623 0.600000 0.000000 0.300000
-0.369651 -0.070396 -0.315260 0.000000 0.500000 0.500000
-0.515499 -0.601702 -0.383927 0.600000 0.000000 0.300000
0.407991 -0.281541 0.423611 0.000000 1.000000 0.000000
-0.430006 -0.232150 -0.283352 0.000000 1.000000 0.000000
0.500329 -0.686838 -0.379886 0.300000 0.000000 0.600000
-0.579134 0.100092 -0.472942 0.500000 0.500000 0.000000
-0.002174 0.545417 -0.407924 0.800000 0.200000 0.500000
0.493983 -0.507553 0.596738 0.600000 0.300000 0.000000
0.065352 0.174413 -0.475009 0.800000 0.200000 0.500000
-0.583394 0.231032 -0.401910 0.500000 0.500000 0.000000
0.011452 -0.047488 -0.355073 0.800000 0.200000 0.500000
-0.520170 0.705893 -0.379850 0.600000 0.000000 0.300000
0.503418 0.220027 0.114283 0.300000 0.000000 0.600000
0.473869 0.171762 0.628018 0.300000 0.000000 0.600000
0.107250 -0.374921 -0.476190 0.000000 0.000000 1.000000
0.055635 -0.292615 0.066427 0.000000 1.000000 0.000000
0.385173 -0.292537 -0.071591 0.000000 1.000000 0.000000
0.366084 0.138472 -0.346942 0.300000 0.000000 0.600000
-0.460720 0.119583 0.636005 0.000000 0.500000 0.500000
0.366311 -0.292615 0.463216 0.000000 1.000000 0.000000
0.368610 -0.292615 0.144959 0.000000 1.000000 0.000000
0.594295 0.215301 -0.073885 0.300000 0.000000 0.600000
-0.450339 -0.027013 -0.254927 0.000000 0.500000 0.500000
-0.059912 0.580143 -0.475009 0.800000 0.200000 0.500000
0.289604 0.083233 -0.355073 0.800000 0.200000 0.500000
-0.071061 0.326264 -0.475009 0.800000 0.200000 0.500000
-0.277209 -0.292615 0.012614 0.000000 1.000000 0.000000
-0.606465 0.299409 0.477409 0.000000 0.500000 0.500000
0.348540 -0.292615 0.378693 0.000000 1.000000 0.000000
0.526107 0.316428 0.304262 0.300000 0.000000 0.600000
-0.606922 0.205132 0.479656 0.000000 0.500000 0.500000
-0.602567 0.121031 -0.425043 0.000000 0.500000 0.500000
0.392338 0.443082 -0.379060 0.600000 0.000000 0.300000
-0.165049 -0.088945 -0.221376 0.000000 1.000000 0.000000
0.165157 -0.252229 -0.475009 0.800000 0.200000 0.500000
-0.463406 0.129591 0.330621 0.000000 0.500000 0.500000
0.361370 0.568988 -0.366542 0.800000 0.200000 0.500000
0.448185 -0.078326 -0.198771 0.300000 0.000000 0.600000
-0.014392 -0.292615 -0.106299 0.000000 1.000000 0.000000
-0.367519 0.072523 0.549390 0.000000 0.500000 0.500000
0.067403 -0.390825 0.675948 1.000000 0.000000 0.000000
-0.082405 -0.367694 0.675646 1.000000 0.000000 0.000000
0.598735 0.301558 0.620070 0.300000 0.000000 0.600000
-0.136986 0.407237 -0.355073 0.800000 0.200000 0.500000
-0.425258 0.012324 -0.476970 0.000000 0.500000 0.500000
0.219454 0.060086 -0.355073 0.800000 0.200000 0.500000
0.208909 -0.088758 0.078544 0.000000 1.000000 0.000000
0.238740 -0.388249 -0.353950 0.000000 0.000000 1.000000
-0.562627 0.097465 -0.008626 0.000000 0.500000 0.500000
-0.457177 0.105962 -0.027843 0.000000 0.500000 0.500000
0.365744 0.129499 -0.467132 0.300000 0.000000 0.600000
0.525997 -0.098861 0.677376 0.600000 0.000000 0.300000
0.364379 0.001844 -0.309944 0.300000 0.000000 0.600000
0.182575 -0.390789 0.605417 1.000000 0.000000 0.000000
0.069400 -0.244758 -0.355073 0.800000 0.200000 0.500000
-0.448121 0.028899 0.028084 0.000000 0.500000 0.500000
0.069787 -0.497860 0.606881 1.000000 0.000000 0.000000
0.087692 -0.290172 0.636168 1.000000 0.000000 0.000000
-0.002174 0.504445 -0.422208 0.800000 0.200000 0.500000
-0.006242 -0.323982 -0.476190 0.000000 0.000000 1.000000
-0.181176 -0.292615 0.495714 0.000000 1.000000 0.000000
-0.528678 -0.317631 0.612623 0.500000 0.000000 0.500000
-0.160972 -0.161188 -0.355073 0.800000 0.200000 0.500000
-0.253487 -0.292615 -0.145860 0.000000 1.000000 0.000000
-0.332031 0.122165 -0.355073 0.800000 0.200000 0.500000
-0.002174 0.616862 -0.422197 0.800000 0.200000 0.500000
-0.012206 -0.351709 -0.442374 0.000000 0.000000 1.000000
0.289786 -0.292615 -0.015859 0.000000 1.000000 0.000000
0.083345 -0.087945 0.002023 0.000000 1.000000 0.000000
-0.461669 0.123106 -0.167039 0.000000 0.500000 0.500000
0.062837 -0.088462 0.419735 0.000000 1.000000 0.000000
-0.064948 -0.383970 0.628500 1.000000 0.000000 0.000000
-0.386586 0.232084 -0.454599 0.000000 0.500000 0.500000
-0.250704 -0.292615 -0.242792 0.000000 1.000000 0.000000
0.354604 -0.081171 -0.197160 0.000000 1.000000 0.000000
-0.446317 0.297628 0.216343 0.000000 0.500000 0.500000
-0.448567 0.264221 -0.476957 0.000000 0.500000 0.500000
0.426859 0.288504 -0.408441 0.600000 0.000000 0.300000
-0.002174 -0.208032 -0.430982 0.800000 0.200000 0.500000
-0.635036 0.277456 0.126237 0.000000 0.500000 0.500000
-0.087874 0.409705 -0.355073 0.800000 0.200000 0.500000
-0.657874 0.147716 0.027544 0.000000 0.500000 0.500000
-0.424942 0.573533 -0.379060 0.600000 0.000000 0.300000
-0.014292 0.169312 -0.475009 0.800000 0.200000 0.500000
-0.186881 -0.292615 0.031306 0.000000 1.000000 0.000000
0.480165 0.186448 0.034087 0.300000 0.000000 0.600000
-0.225760 -0.292615 0.464686 0.000000 1.000000 0.000000
0.450868 0.096620 0.198707 0.300000 0.000000 0.600000
0.520240 0.230045 0.649786 0.300000 0.000000 0.600000
0.452472 -0.270251 0.677114 0.600000 0.000000 0.300000
-0.448336 -0.297770 0.624507 0.300000 0.000000 0.600000
-0.210105 -0.075204 -0.475009 0.800000 0.200000 0.500000
-0.491797 0.200670 -0.457918 0.000000 0.500000 0.500000
-0.002174 0.450803 -0.470951 0.800000 0.200000 0.500000
0.136210 -0.456417 0.677086 1.000000 0.000000 0.000000
0.444685 -0.054930 -0.461279 0.300000 0.600000 0.000000
0.384240 0.237336 0.167238 0.300000 0.000000 0.600000
-0.322647 0.120125 -0.475009 0.800000 0.200000 0.500000
0.025946 -0.088920 0.464176 0.000000 1.000000 0.000000
-0.528267 0.231487 0.256404 0.000000 0.500000 0.500000
-0.192382 -0.292614 -0.451875 0.000000 1.000000 0.000000
0.147082 -0.292615 0.331921 0.000000 1.000000 0.000000
-0.470297 0.151520 0.492941 0.000000 0.500000 0.500000
-0.069587 -0.222001 0.678330 0.000000 1.000000 0.000000
0.044922 0.579229 -0.475009 0.800000 0.200000 0.500000
-0.382859 -0.124555 -0.476971 0.000000 1.000000 0.000000
0.191007 -0.087945 0.573804 0.000000 1.000000 0.000000
-0.075851 -0.123766 -0.475009 0.800000 0.200000 0.500000
0.110365 -0.488718 -0.411808 0.000000 0.000000 1.000000
-0.199052 -0.461688 -0.467037 0.000000 0.000000 1.000000
0.356761 -0.292615 0.251218 0.000000 1.000000 0.000000
-0.186224 0.502881 -0.355073 0.800000 0.200000 0.500000
-0.250424 -0.088945 0.557166 0.000000 1.000000 0.000000
0.021136 0.244557 -0.475009 0.800000 0.200000 0.500000
-0.585697 0.224986 0.264060 0.000000 0.500000 0.500000
0.376840 -0.096502 -0.441566 0.800000 0.200000 0.500000
0.156754 0.643961 -0.379060 0.600000 0.000000 0.300000
-0.451817 -0.105567 0.082869 0.000000 1.000000 0.000000
-0.418590 0.281436 0.581353 0.000000 0.500000 0.500000
0.412064 -0.263430 0.622428 0.600000 0.000000 0.300000
-0.210727 0.094375 -0.355073 0.800000 0.200000 0.500000
-0.613991 0.192105 0.395842 0.000000 0.500000 0.500000
-0.618648 0.168612 0.395277 0.000000 0.500000 0.500000
-0.378324 0.200346 0.560896 0.000000 0.500000 0.500000
0.599969 0.208222 0.287791 0.300000 0.000000 0.600000
-0.489130 0.311508 0.394654 0.000000 0.500000 0.500000
-0.204123 0.718806 -0.439028 0.600000 0.000000 0.300000
-0.065289 -0.316978 0.677554 1.000000 0.000000 0.000000
0.119561 0.210022 -0.475009 0.800000 0.200000 0.500000
0.395124 -0.291215 0.363133 0.000000 1.000000 0.000000
0.365753 -0.018265 0.440953 0.300000 0.000000 0.600000
-0.241935 0.703594 -0.424827 0.600000 0.000000 0.300000
-0.042398 0.713021 -0.379060 0.600000 0.000000 0.300000
-0.019982 -0.088351 -0.069533 0.000000 1.000000 0.000000
0.543953 -0.092671 -0.419391 0.300000 0.600000 0.000000
0.303841 -0.290654 -0.424057 0.800000 0.200000 0.500000
-0.014711 0.819292 -0.439028 0.600000 0.000000 0.300000
0.456179 -0.119336 -0.353891 0.300000 0.600000 0.000000
0.443718 0.013146 0.054514 0.300000 0.000000 0.600000
-0.607141 0.672217 -0.423169 0.600000 0.000000 0.300000
0.282458 0.316842 -0.475009 0.800000 0.200000 0.500000
0.039712 0.377446 -0.355073 0.800000 0.200000 0.500000
0.387412 -0.292513 -0.237144 0.000000 1.000000 0.000000
-0.274565 -0.292615 0.270012 0.000000 1.000000 0.000000
0.445050 0.054474 0.666003 0.300000 0.000000 0.600000
0.089570 0.565087 -0.475009 0.800000 0.200000 0.500000
-0.419580 0.282698 0.327491 0.000000 0.500000 0.500000
-0.447872 -0.148466 0.025024 0.000000 1.000000 0.000000
0.562365 0.098511 0.458157 0.300000 0.000000 0.600000
0.400629 -0.290654 -0.473300 0.800000 0.200000 0.500000
-0.032840 -0.069778 -0.475009 0.800000 0.200000 0.500000
0.127376 0.610006 -0.370814 0.800000 0.200000 0.500000
-0.280373 -0.088173 -0.197998 0.000000 1.000000 0.000000
0.513032 0.023975 -0.353997 0.300000 0.600000 0.000000
-0.417204 0.280669 -0.391097 0.600000 0.000000 0.300000
0.062927 -0.218375 -0.355073 0.800000 0.200000 0.500000
-0.470491 -0.667550 -0.390055 0.600000 0.000000 0.300000
0.045584 0.627405 -0.417917 0.600000 0.000000 0.300000
0.376977 0.216544 -0.126890 0.300000 0.000000 0.600000
0.444631 -0.008247 0.658219 0.300000 0.000000 0.600000
-0.335712 0.606040 -0.439028 0.600000 0.000000 0.300000
0.634931 0.118333 0.125645 0.300000 0.000000 0.600000
0.264316 -0.000908 -0.355073 0.800000 0.200000 0.500000
0.502564 -0.181764 0.677214 0.600000 0.000000 0.300000
-0.423685 -0.252017 -0.367247 0.000000 1.000000 0.000000
-0.213066 -0.088682 -0.055835 0.000000 1.000000 0.000000
0.444544 -0.006209 0.337782 0.300000 0.000000 0.600000
-0.384354 0.225985 -0.334434 0.000000 0.500000 0.500000
0.457841 -0.693194 -0.385945 0.300000 0.000000 0.600000
0.419569 -0.251311 0.527047 0.000000 1.000000 0.000000
-0.056262 0.520782 -0.355073 0.800000 0.200000 0.500000
0.442687 -0.154237 0.098136 0.000000 1.000000 0.000000
-0.091620 -0.494390 0.609117 1.000000 0.000000 0.000000
-0.283658 -0.088945 0.601218 0.000000 1.000000 0.000000
-0.287679 0.334326 -0.475009 0.800000 0.200000 0.500000
-0.449842 -0.358648 0.578660 0.500000 0.000000 0.500000
-0.362880 -0.111169 -0.355073 0.800000 0.200000 0.500000
-0.229996 0.328671 -0.355073 0.800000 0.200000 0.500000
-0.002174 0.328119 -0.382403 0.800000 0.200000 0.500000
0.104209 0.418399 -0.355073 0.800000 0.200000 0.500000
-0.367322 0.037235 -0.185535 0.000000 0.500000 0.500000
0.204995 0.092605 -0.475009 0.800000 0.200000 0.500000
-0.104279 0.347681 -0.475009 0.800000 0.200000 0.500000
0.307372 -0.349874 0.555321 1.000000 0.000000 0.000000
0.375323 0.209842 0.366689 0.300000 0.000000 0.600000
0.616259 0.290790 0.577732 0.300000 0.000000 0.600000
0.445042 -0.014057 0.499189 0.300000 0.000000 0.600000
0.565757 -0.148391 -0.390809 0.300000 0.600000 0.000000
0.365775 0.134591 0.048010 0.300000 0.000000 0.600000
-0.163745 0.442728 -0.355073 0.800000 0.200000 0.500000
-0.002174 -0.170860 -0.374637 0.800000 0.200000 0.500000
-0.050963 -0.132314 0.677334 0.000000 1.000000 0.000000
-0.399267 0.337957 -0.371128 0.800000 0.200000 0.500000
-0.479142 0.327489 -0.439028 0.600000 0.000000 0.300000
-0.059960 -0.292615 -0.152134 0.000000 1.000000 0.000000
0.321525 -0.413852 0.665251 1.000000 0.000000 0.000000
0.453848 0.109973 0.398223 0.300000 0.000000 0.600000
0.170514 -0.136616 -0.355073 0.800000 0.200000 0.500000
-0.023723 -0.157894 0.677509 0.000000 1.000000 0.000000
0.447648 -0.101516 0.224500 0.000000 1.000000 0.000000
0.567934 0.312427 -0.070436 0.300000 0.000000 0.600000
0.575301 0.232771 0.615080 0.600000 0.000000 0.300000
-0.291899 -0.217134 -0.475009 0.800000 0.200000 0.500000
0.313304 -0.292615 0.374965 0.000000 1.000000 0.000000
0.658071 0.160026 0.110063 0.300000 0.000000 0.600000
0.039975 0.379388 -0.475009 0.800000 0.200000 0.500000
-0.643854 0.267232 -0.365185 0.000000 0.500000 0.500000
0.445756 -0.128338 -0.096208 0.000000 1.000000 0.000000
-0.220879 -0.454088 -0.377657 0.000000 0.000000 1.000000
-0.261817 -0.087945 -0.094269 0.000000 1.000000 0.000000
-0.128955 -0.088945 -0.208676 0.000000 1.000000 0.000000
0.231903 0.596266 -0.439028 0.600000 0.000000 0.300000
0.195039 0.598755 -0.379060 0.600000 0.000000 0.300000
-0.600120 0.596642 -0.419397 0.600000 0.000000 0.300000
-0.602252 0.088448 0.012680 0.000000 0.500000 0.500000
-0.561402 0.083982 0.422418 0.000000 0.500000 0.500000
-0.286246 0.597548 -0.439028 0.600000 0.000000 0.300000
0.437818 -0.182734 -0.187613 0.000000 1.000000 0.000000
0.322126 -0.413619 0.618937 1.000000 0.000000 0.000000
0.065190 0.437140 -0.475009 0.800000 0.200000 0.500000
0.393712 -0.289995 0.601373 1.000000 0.000000 0.000000
0.483459 -0.021290 0.676962 0.600000 0.000000 0.300000
0.224804 -0.087945 0.423407 0.000000 1.000000 0.000000
0.414496 -0.299540 0.677141 0.600000 0.000000 0.300000
0.268953 -0.292533 0.656562 0.000000 1.000000 0.000000
-0.377657 0.199349 0.003310 0.000000 0.500000 0.500000
0.457242 -0.132418 0.677554 0.600000 0.000000 0.300000
0.178724 0.361549 -0.355073 0.800000 0.200000 0.500000
-0.180715 -0.459065 -0.354135 0.000000 0.000000 1.000000
-0.476137 -0.408714 0.577532 0.300000 0.000000 0.600000
0.440259 -0.169602 0.180251 0.000000 1.000000 0.000000
-0.495309 -0.576265 0.656893 0.300000 0.000000 0.600000
-0.473082 0.158868 0.236514 0.000000 0.500000 0.500000
-0.341163 -0.379943 0.677432 1.000000 0.000000 0.000000
0.447787 -0.094802 0.519263 0.000000 1.000000 0.000000
0.385849 0.236943 -0.379880 0.800000 0.200000 0.500000
0.347970 0.054605 -0.475009 0.800000 0.200000 0.500000
0.327295 -0.292615 0.510038 0.000000 1.000000 0.000000
-0.468929 0.455704 -0.419580 0.600000 0.000000 0.300000
-0.002174 0.317948 -0.406651 0.800000 0.200000 0.500000
0.021416 -0.087945 -0.223003 0.000000 1.000000 0.000000
0.191929 0.152285 -0.355073 0.800000 0.200000 0.500000
0.235019 -0.292615 0.076785 0.000000 1.000000 0.000000
-0.429631 -0.224462 -0.366818 0.500000 0.500000 0.000000
-0.569501 0.312886 0.468676 0.000000 0.500000 0.500000
0.563075 0.179491 -0.354058 0.300000 0.600000 0.000000
-0.511389 -0.649912 -0.378375 0.600000 0.000000 0.300000
0.563354 0.079703 0.491383 0.300000 0.000000 0.600000
-0.448895 -0.139876 0.497396 0.000000 1.000000 0.000000
-0.508948 0.603403 -0.439028 0.600000 0.000000 0.300000
0.256773 0.245433 -0.475009 0.800000 0.200000 0.500000
0.393605 -0.161643 -0.476971 0.000000 1.000000 0.000000
0.656373 0.236004 0.540432 0.300000 0.000000 0.600000
0.446737 -0.116647 0.466128 0.000000 1.000000 0.000000
-0.619519 0.260429 -0.476970 0.000000 0.500000 0.500000
0.363128 0.031150 0.377399 0.300000 0.000000 0.600000
-0.467439 0.219809 0.678334 0.000000 0.500000 0.500000
-0.562813 -0.120319 0.618429 0.500000 0.000000 0.500000
0.398644 0.322572 -0.411147 0.600000 0.000000 0.300000
0.213367 0.457018 -0.475009 0.800000 0.200000 0.500000
0.110822 -0.368898 0.677374 1.000000 0.000000 0.000000
0.073274 0.716786 -0.435848 0.600000 0.000000 0.300000
0.284494 -0.088945 0.039600 0.000000 1.000000 0.000000
0.166731 -0.292615 -0.258203 0.000000 1.000000 0.000000
-0.519432 -0.492085 0.616263 0.300000 0.000000 0.600000
0.080272 0.074762 -0.355073 0.800000 0.200000 0.500000
0.013848 -0.073347 -0.475009 0.800000 0.200000 0.500000
0.471939 0.323665 -0.379060 0.600000 0.000000 0.300000
-0.503303 0.665168 -0.379060 0.600000 0.000000 0.300000
0.191011 -0.087945 0.293483 0.000000 1.000000 0.000000
-0.352034 -0.178796 -0.355073 0.800000 0.200000 0.500000
0.592946 0.121512 -0.354559 0.300000 0.600000 0.000000
-0.210521 -0.088945 -0.161995 0.000000 1.000000 0.000000
-0.113058 0.280615 -0.355073 0.800000 0.200000 0.500000
-0.627129 0.285086 0.329020 0.000000 0.500000 0.500000
0.319964 -0.150302 -0.475009 0.800000 0.200000 0.500000
0.362761 0.062396 -0.268971 0.300000 0.000000 0.600000
0.174005 -0.292615 -0.149805 0.000000 1.000000 0.000000
0.434218 -0.503029 -0.357492 0.300000 0.000000 0.600000
0.491491 -0.640263 0.593736 0.600000 0.300000 0.000000
-0.027783 -0.337898 0.677554 1.000000 0.000000 0.000000
-0.133079 0.105066 -0.355073 0.800000 0.200000 0.500000
-0.556554 0.091129 0.635526 0.500000 0.000000 0.500000
-0.012786 0.855083 -0.420927 0.600000 0.000000 0.300000
-0.442841 -0.179582 0.576246 0.000000 1.000000 0.000000
0.445137 -0.073806 0.622301 0.600000 0.000000 0.300000
0.487949 0.520047 -0.432002 0.600000 0.000000 0.300000
-0.485017 -0.487637 -0.393800 0.600000 0.000000 0.300000
-0.445184 0.645018 -0.379060 0.600000 0.000000 0.300000
-0.662833 0.229156 0.356413 0.000000 0.500000 0.500000
0.222679 -0.156963 -0.476971 0.000000 1.000000 0.000000
-0.115202 -0.356903 0.566277 1.000000 0.000000 0.000000
0.270807 0.151864 -0.475009 0.800000 0.200000 0.500000
-0.433405 0.290911 -0.345742 0.000000 0.500000 0.500000
-0.421908 0.283826 -0.364288 0.000000 0.500000 0.500000
-0.660377 0.173028 -0.475281 0.000000 0.500000 0.500000
0.359458 -0.289763 -0.407339 0.000000 0.000000 1.000000
-0.268419 -0.001277 -0.475009 0.800000 0.200000 0.500000
-0.336302 0.192264 -0.475009 0.800000 0.200000 0.500000
-0.378199 -0.292615 0.065557 0.000000 1.000000 0.000000
0.087615 -0.292615 -0.147338 0.000000 1.000000 0.000000
-0.040582 -0.292615 -0.130814 0.000000 1.000000 0.000000
0.357639 -0.292615 0.202866 0.000000 1.000000 0.000000
-0.328002 -0.292615 0.508950 0.000000 1.000000 0.000000
0.649828 0.250820 -0.152107 0.300000 0.000000 0.600000
0.585006 0.083017 0.021099 0.300000 0.000000 0.600000
0.204865 -0.194094 -0.355073 0.800000 0.200000 0.500000
-0.530453 0.316067 0.494003 0.000000 0.500000 0.500000
-0.002174 -0.234694 -0.455391 0.800000 0.200000 0.500000
-0.002174 -0.211273 -0.366026 0.800000 0.200000 0.500000
0.299725 -0.044333 -0.475009 0.800000 0.200000 0.500000
-0.002174 0.702870 -0.431861 0.600000 0.000000 0.300000
0.444273 -0.001550 0.185545 0.300000 0.000000 0.600000
0.203533 0.177502 -0.475009 0.800000 0.200000 0.500000
0.366672 0.145432 -0.120090 0.300000 0.000000 0.600000
-0.133783 0.559778 -0.475009 0.800000 0.200000 0.500000
-0.597442 0.086265 -0.116298 0.000000 0.500000 0.500000
0.376129 -0.091141 -0.389446 0.800000 0.200000 0.500000
0.598762 0.209812 0.436522 0.300000 0.000000 0.600000
-0.573891 -0.180438 0.633834 0.500000 0.000000 0.500000
0.205245 0.446358 -0.355073 0.800000 0.200000 0.500000
0.229303 -0.292615 -0.223902 0.000000 1.000000 0.000000
-0.105341 -0.347335 -0.388502 0.000000 0.000000 1.000000
-0.312060 0.074304 -0.355073 0.800000 0.200000 0.500000
-0.642403 0.268554 0.496128 0.000000 0.500000 0.500000
0.437637 0.589890 -0.379060 0.600000 0.000000 0.300000
-0.025871 -0.035058 -0.355073 0.800000 0.200000 0.500000
-0.573954 -0.192277 0.595823 0.500000 0.000000 0.500000
0.039686 0.308813 -0.475009 0.800000 0.200000 0.500000
0.380578 -0.327339 0.555256 1.000000 0.000000 0.000000
-0.539295 0.234029 -0.241341 0.000000 0.500000 0.500000
0.481846 -0.482566 0.582119 0.600000 0.300000 0.000000
0.175577 -0.389292 0.627768 1.000000 0.000000 0.000000
-0.405929 0.378890 -0.379060 0.600000 0.000000 0.300000
-0.002174 0.686284 -0.381548 0.600000 0.000000 0.300000
-0.465342 0.305520 0.086804 0.000000 0.500000 0.500000
0.362760 0.053243 -0.190645 0.300000 0.000000 0.600000
0.414358 -0.265821 0.351011 0.000000 1.000000 0.000000
-0.413117 -0.280348 -0.395872 0.000000 1.000000 0.000000
-0.261924 -0.176563 -0.355073 0.800000 0.200000 0.500000
-0.304481 -0.088945 0.144292 0.000000 1.000000 0.000000
-0.415720 0.356721 -0.439028 0.600000 0.000000 0.300000
0.249323 -0.215209 -0.355073 0.800000 0.200000 0.500000
-0.038832 -0.088782 -0.271186 0.000000 1.000000 0.000000
0.171810 -0.428990 -0.407347 0.000000 0.000000 1.000000
-0.315232 0.218574 -0.475009 0.800000 0.200000 0.500000
0.496276 0.313871 -0.021647 0.300000 0.000000 0.600000
-0.504193 0.197493 0.555264 0.500000 0.000000 0.500000
0.478343 -0.474811 0.655993 0.600000 0.300000 0.000000
-0.479979 -0.145245 0.555256 0.500000 0.000000 0.500000
0.045096 -0.088945 0.360818 0.000000 1.000000 0.000000
0.607377 0.196890 0.315875 0.300000 0.000000 0.600000
0.387309 0.382755 -0.355138 0.800000 0.200000 0.500000
-0.594054 0.218996 0.321744 0.000000 0.500000 0.500000
-0.617588 0.097817 0.037295 0.000000 0.500000 0.500000
-0.118871 0.755535 -0.439028 0.600000 0.000000 0.300000
0.649279 0.139660 -0.066173 0.300000 0.000000 0.600000
0.087430 0.105673 -0.475009 0.800000 0.200000 0.500000
-0.052199 0.722323 -0.423305 0.600000 0.000000 0.300000
0.647855 0.253638 0.127579 0.300000 0.000000 0.600000
-0.295719 -0.092128 -0.475633 0.000000 1.000000 0.000000
-0.438437 -0.188876 -0.462479 0.500000 0.500000 0.000000
0.257875 0.517280 -0.475009 0.800000 0.200000 0.500000
0.446715 -0.117037 0.588202 0.000000 1.000000 0.000000
0.447915 -0.063085 0.556412 0.600000 0.000000 0.300000
0.129092 0.591714 -0.475009 0.800000 0.200000 0.500000
-0.501238 0.313947 0.217572 0.000000 0.500000 0.500000
-0.459348 0.012284 0.677221 0.500000 0.000000 0.500000
-0.448662 -0.002547 0.318764 0.000000 0.500000 0.500000
0.375850 0.205341 -0.444967 0.800000 0.200000 0.500000
0.187088 -0.292615 0.151030 0.000000 1.000000 0.000000
0.024504 0.682040 -0.439028 0.600000 0.000000 0.300000
-0.002174 -0.126767 -0.400461 0.800000 0.200000 0.500000
-0.053926 -0.212441 -0.355073 0.800000 0.200000 0.500000
-0.235727 0.356673 -0.475009 0.800000 0.200000 0.500000
-0.381932 -0.102105 -0.451542 0.800000 0.200000 0.500000
0.443714 0.017526 -0.329408 0.300000 0.000000 0.600000
0.270730 0.117637 -0.355073 0.800000 0.200000 0.500000
0.366247 0.140514 0.151874 0.300000 0.000000 0.600000
0.018715 0.436903 -0.475009 0.800000 0.200000 0.500000
-0.589651 0.307330 -0.295568 0.000000 0.500000 0.500000
0.251002 0.153361 -0.355073 0.800000 0.200000 0.500000
0.477472 0.061170 0.677221 0.600000 0.000000 0.300000
-0.126404 -0.415518 -0.354181 0.000000 0.000000 1.000000
0.368476 0.552479 -0.475009 0.800000 0.200000 0.500000
0.120874 -0.436211 0.677061 1.000000 0.000000 0.000000
0.373425 -0.072010 -0.467107 0.800000 0.200000 0.500000
-0.085044 0.236119 -0.475009 0.800000 0.200000 0.500000
0.370874 0.495508 -0.355073 0.800000 0.200000 0.500000
-0.149793 0.664082 -0.439028 0.600000 0.000000 0.300000
-0.222479 0.579254 -0.424508 0.800000 0.200000 0.500000
0.332070 0.218229 -0.475009 0.800000 0.200000 0.500000
-0.630056 0.282146 0.389069 0.000000 0.500000 0.500000
0.485649 -0.103005 0.677069 0.600000 0.000000 0.300000
-0.281239 0.446671 -0.355073 0.800000 0.200000 0.500000
0.094740 -0.103525 0.678277 0.000000 1.000000 0.000000
-0.510798 -0.355140 0.635006 0.300000 0.000000 0.600000
0.447127 -0.675146 0.634181 0.600000 0.300000 0.000000
-0.351824 0.145801 -0.475009 0.800000 0.200000 0.500000
0.120843 0.225383 -0.355073 0.800000 0.200000 0.500000
-0.508853 -0.540419 -0.361497 0.600000 0.000000 0.300000
0.457669 0.242438 0.678335 0.300000 0.000000 0.600000
-0.449161 -0.053981 0.596469 0.500000 0.000000 0.500000
-0.622753 0.288650 -0.224184 0.000000 0.500000 0.500000
0.016261 0.852856 -0.379060 0.600000 0.000000 0.300000
-0.507074 -0.253472 0.677554 0.500000 0.000000 0.500000
-0.524756 -0.317526 -0.474633 0.500000 0.500000 0.000000
-0.130800 -0.290472 -0.437539 0.000000 0.000000 1.000000
-0.403174 0.264148 0.031934 0.000000 0.500000 0.500000
0.418261 -0.255102 0.413693 0.000000 1.000000 0.000000
0.414157 0.346963 -0.379060 0.600000 0.000000 0.300000
0.560816 0.214159 -0.476190 0.300000 0.600000 0.000000
-0.012012 0.282053 -0.355073 0.800000 0.200000 0.500000
0.242921 -0.183023 0.677334 0.000000 1.000000 0.000000
0.113781 -0.337116 0.636949 1.000000 0.000000 0.000000
0.490610 -0.497927 -0.331537 0.300000 0.000000 0.600000
0.524123 0.315698 0.669206 0.300000 0.000000 0.600000
0.170750 0.592834 -0.405513 0.800000 0.200000 0.500000
0.663115 0.188840 -0.234669 0.300000 0.000000 0.600000
-0.234460 -0.076795 -0.475009 0.800000 0.200000 0.500000
0.315797 0.590475 -0.439028 0.600000 0.000000 0.300000
-0.452488 -0.082529 0.222231 0.000000 0.500000 0.500000
0.463338 0.015526 0.555256 0.600000 0.000000 0.300000
-0.175092 -0.469832 0.646854 1.000000 0.000000 0.000000
-0.393312 0.643282 -0.439028 0.600000 0.000000 0.300000
-0.105934 -0.292615 -0.190842 0.000000 1.000000 0.000000
-0.420669 -0.260470 0.363593 0.000000 1.000000 0.000000
0.662246 0.208991 0.036700 0.300000 0.000000 0.600000
0.062639 -0.390744 0.609191 1.000000 0.000000 0.000000
0.257528 0.635605 -0.420072 0.600000 0.000000 0.300000
0.165472 -0.116290 0.678333 0.000000 1.000000 0.000000
0.410801 -0.275305 -0.368439 0.000000 1.000000 0.000000
0.099391 0.094752 -0.355073 0.800000 0.200000 0.500000
0.319620 0.335718 -0.475009 0.800000 0.200000 0.500000
-0.311950 -0.267212 -0.355073 0.800000 0.200000 0.500000
0.468125 -0.384357 -0.398104 0.300000 0.000000 0.600000
0.008209 0.377949 -0.355073 0.800000 0.200000 0.500000
-0.507757 -0.492329 -0.341061 0.600000 0.000000 0.300000
0.446622 -0.038128 0.675998 0.600000 0.000000 0.300000
-0.450161 -0.127712 -0.333657 0.000000 1.000000 0.000000
-0.448063 0.016505 -0.373362 0.000000 0.500000 0.500000
-0.394948 -0.200174 -0.456658 0.800000 0.200000 0.500000
-0.597902 0.303758 0.378787 0.000000 0.500000 0.500000
0.191242 -0.087945 0.528651 0.000000 1.000000 0.000000
0.094098 -0.432899 0.677235 1.000000 0.000000 0.000000
0.032539 -0.386015 0.671160 1.000000 0.000000 0.000000
0.450060 0.102488 0.559892 0.600000 0.000000 0.300000
0.351037 -0.083862 -0.314775 0.000000 1.000000 0.000000
-0.213893 -0.216697 -0.355073 0.800000 0.200000 0.500000
-0.388092 0.235847 0.047538 0.000000 0.500000 0.500000
0.278038 -0.095652 0.678112 0.000000 1.000000 0.000000
0.508357 -0.627469 -0.352913 0.300000 0.000000 0.600000
0.434050 0.279917 -0.476895 0.300000 0.000000 0.600000
-0.067018 -0.087945 0.262702 0.000000 1.000000 0.000000
-0.155960 0.671338 -0.379060 0.600000 0.000000 0.300000
0.053844 0.125223 -0.475009 0.800000 0.200000 0.500000
-0.394514 0.249630 0.368965 0.000000 0.500000 0.500000
-0.231790 -0.088945 -0.207949 0.000000 1.000000 0.000000
0.350198 0.277850 -0.475009 0.800000 0.200000 0.500000
0.084082 0.459097 -0.475009 0.800000 0.200000 0.500000
-0.452085 -0.055966 0.095663 0.000000 0.500000 0.500000
-0.505716 0.218279 -0.307054 0.000000 0.500000 0.500000
0.471506 -0.443022 -0.402406 0.300000 0.000000 0.600000
0.373226 0.198821 0.449872 0.300000 0.000000 0.600000
0.495437 0.212454 0.234066 0.300000 0.000000 0.600000
-0.572070 0.078787 -0.435096 0.000000 0.500000 0.500000
-0.393728 0.247725 -0.427822 0.000000 0.500000 0.500000
0.174483 -0.468433 -0.470599 0.000000 0.000000 1.000000
0.470251 -0.346588 0.598790 0.600000 0.000000 0.300000
-0.272410 -0.292615 -0.088405 0.000000 1.000000 0.000000
-0.388971 -0.292535 -0.131790 0.000000 1.000000 0.000000
-0.159788 -0.292615 0.519835 0.000000 1.000000 0.000000
-0.087605 -0.493566 0.675480 1.000000 0.000000 0.000000
0.152652 -0.087945 0.269988 0.000000 1.000000 0.000000
-0.169625 -0.088945 0.426989 0.000000 1.000000 0.000000
0.163413 -0.378510 0.677535 1.000000 0.000000 0.000000
-0.663452 0.163763 -0.025772 0.000000 0.500000 0.500000
-0.187196 0.652665 -0.426221 0.600000 0.000000 0.300000
-0.522658 0.315777 -0.242270 0.000000 0.500000 0.500000
-0.483066 0.309968 0.663626 0.000000 0.500000 0.500000
0.447611 -0.053073 0.182737 0.300000 0.000000 0.600000
-0.202227 -0.227774 -0.475009 0.800000 0.200000 0.500000
0.569429 -0.193053 0.581147 0.600000 0.000000 0.300000
0.197926 -0.269191 -0.355073 0.800000 0.200000 0.500000
0.603808 0.298899 0.331261 0.300000 0.000000 0.600000
0.036524 -0.120761 -0.476971 0.000000 1.000000 0.000000
-0.338262 -0.290472 -0.389256 0.000000 0.000000 1.000000
0.366916 0.147951 -0.213214 0.300000 0.000000 0.600000
0.650356 0.249755 0.302528 0.300000 0.000000 0.600000
-0.587263 0.107652 0.153568 0.000000 0.500000 0.500000
0.038500 -0.138979 -0.355073 0.800000 0.200000 0.500000
-0.357015 0.568708 -0.359355 0.800000 0.200000 0.500000
0.613877 0.176180 0.545256 0.300000 0.000000 0.600000
-0.647639 0.128890 0.540186 0.000000 0.500000 0.500000
-0.661040 0.155898 0.249552 0.000000 0.500000 0.500000
-0.078577 -0.088039 0.406079 0.000000 1.000000 0.000000
0.189260 -0.087945 -0.362043 0.000000 1.000000 0.000000
0.613797 0.176797 -0.198598 0.300000 0.000000 0.600000
0.371357 -0.250136 0.677526 0.000000 1.000000 0.000000
0.457556 0.304410 0.274454 0.300000 0.000000 0.600000
-0.188613 -0.088945 -0.289809 0.000000 1.000000 0.000000
-0.002174 -0.276374 -0.442436 0.800000 0.200000 0.500000
0.205367 0.366330 -0.475009 0.800000 0.200000 0.500000
-0.212950 -0.001903 -0.355073 0.800000 0.200000 0.500000
0.484091 -0.332860 -0.476032 0.300000 0.600000 0.000000
-0.234310 -0.292615 -0.289025 0.000000 1.000000 0.000000
0.446487 0.066930 0.193066 0.300000 0.000000 0.600000
-0.578420 0.228973 0.246036 0.000000 0.500000 0.500000
0.189250 -0.463607 0.623625 1.000000 0.000000 0.000000
0.130591 0.333081 -0.475009 0.800000 0.200000 0.500000
-0.618051 0.185519 0.557154 0.500000 0.000000 0.500000
-0.448363 -0.144467 -0.212476 0.000000 1.000000 0.000000
-0.002174 0.034648 -0.420797 0.800000 0.200000 0.500000
-0.521005 -0.010313 0.656662 0.500000 0.000000 0.500000
-0.498174 0.207267 -0.354628 0.500000 0.500000 0.000000
0.439521 0.318677 -0.379060 0.600000 0.000000 0.300000
0.285008 0.188187 -0.355073 0.800000 0.200000 0.500000
-0.223810 -0.337298 0.677554 1.000000 0.000000 0.000000
-0.599141 0.214890 -0.038456 0.000000 0.500000 0.500000
0.468272 0.627331 -0.379060 0.600000 0.000000 0.300000
0.153652 -0.087945 0.614345 0.000000 1.000000 0.000000
0.653446 0.147988 0.004650 0.300000 0.000000 0.600000
-0.508871 0.314916 0.316110 0.000000 0.500000 0.500000
-0.044485 -0.292615 0.229514 0.000000 1.000000 0.000000
-0.070776 -0.376803 -0.453950 0.000000 0.000000 1.000000
0.413712 0.221622 -0.476971 0.300000 0.000000 0.600000
0.448492 0.100410 -0.458541 0.300000 0.600000 0.000000
0.365031 0.124469 -0.086784 0.300000 0.000000 0.600000
-0.571714 0.231652 0.134788 0.000000 0.500000 0.500000
-0.460350 0.118202 -0.418594 0.000000 0.500000 0.500000
-0.302493 -0.087945 -0.041411 0.000000 1.000000 0.000000
0.010331 0.163883 -0.355073 0.800000 0.200000 0.500000
0.545586 -0.095584 0.649580 0.600000 0.000000 0.300000
0.655630 0.153575 -0.050825 0.300000 0.000000 0.600000
0.370132 -0.205498 -0.355073 0.800000 0.200000 0.500000
0.149925 -0.089002 -0.475009 0.800000 0.200000 0.500000
-0.453476 -0.187301 0.677555 0.500000 0.000000 0.500000
-0.367857 0.020010 0.567563 0.000000 0.500000 0.500000
-0.144244 -0.334757 -0.445508 0.000000 0.000000 1.000000
0.218725 -0.368437 -0.374452 0.000000 0.000000 1.000000
-0.002174 0.410701 -0.370523 0.800000 0.200000 0.500000
-0.374307 -0.057099 0.159435 0.000000 0.500000 0.500000
-0.522698 -0.184946 0.677554 0.500000 0.000000 0.500000
-0.443556 0.593846 -0.439028 0.600000 0.000000 0.300000
-0.606289 0.205695 0.085898 0.000000 0.500000 0.500000
-0.204449 -0.016836 -0.475009 0.800000 0.200000 0.500000
0.391079 0.251748 -0.045392 0.300000 0.000000 0.600000
-0.020012 0.091190 -0.475009 0.800000 0.200000 0.500000
0.495057 -0.243770 -0.354559 0.300000 0.600000 0.000000
-0.448925 -0.006730 0.622868 0.000000 0.500000 0.500000
-0.123388 -0.336509 0.633679 1.000000 0.000000 0.000000
0.033293 0.792673 -0.412825 0.600000 0.000000 0.300000
0.461293 0.397080 -0.396846 0.600000 0.000000 0.300000
-0.252331 0.419439 -0.355073 0.800000 0.200000 0.500000
-0.500342 -0.140699 0.677554 0.500000 0.000000 0.500000
0.386326 0.315935 -0.355073 0.800000 0.200000 0.500000
0.327331 -0.257026 -0.355073 0.800000 0.200000 0.500000
0.059882 -0.292615 0.526545 0.000000 1.000000 0.000000
-0.128453 0.443971 -0.355073 0.800000 0.200000 0.500000
-0.474604 -0.528399 0.578805 0.300000 0.000000 0.600000
0.042844 0.144036 -0.475009 0.800000 0.200000 0.500000
-0.257598 0.354935 -0.475009 0.800000 0.200000 0.500000
-0.596221 0.085720 -0.147925 0.000000 0.500000 0.500000
-0.514389 0.060704 0.677262 0.500000 0.000000 0.500000
-0.166569 -0.292615 -0.233774 0.000000 1.000000 0.000000
-0.002174 0.232537 -0.376708 0.800000 0.200000 0.500000
0.145106 -0.396855 -0.475009 0.000000 0.000000 1.000000
-0.615924 0.145369 0.012626 0.000000 0.500000 0.500000
-0.002174 0.405812 -0.462247 0.800000 0.200000 0.500000
0.576038 0.080199 0.427872 0.300000 0.000000 0.600000
-0.523370 -0.150860 0.677554 0.500000 0.000000 0.500000
0.354982 0.084308 -0.475009 0.800000 0.200000 0.500000
-0.535879 0.315852 -0.313320 0.000000 0.500000 0.500000
0.473451 -0.587148 0.665888 0.600000 0.300000 0.000000
0.117309 -0.358683 -0.420364 0.000000 0.000000 1.000000
-0.446583 -0.016632 -0.361104 0.500000 0.500000 0.000000
0.629554 0.111654 -0.205580 0.300000 0.000000 0.600000
0.109938 -0.466605 0.677143 1.000000 0.000000 0.000000
-0.396605 0.570545 -0.468404 0.800000 0.200000 0.500000
0.567382 -0.217178 0.577244 0.600000 0.000000 0.300000
0.369844 -0.058322 0.184639 0.300000 0.000000 0.600000
0.011160 0.043991 -0.355073 0.800000 0.200000 0.500000
0.362762 0.053000 -0.364161 0.300000 0.000000 0.600000
-0.636162 0.114066 -0.187622 0.000000 0.500000 0.500000
-0.467301 -0.407815 -0.386212 0.600000 0.000000 0.300000
0.384447 0.703513 -0.407924 0.600000 0.000000 0.300000
-0.606657 0.146693 0.677554 0.500000 0.000000 0.500000
0.213046 -0.343146 -0.354172 0.000000 0.000000 1.000000
0.594272 0.303636 0.294773 0.300000 0.000000 0.600000
0.154134 -0.292615 0.119560 0.000000 1.000000 0.000000
-0.145017 -0.425541 -0.373380 0.000000 0.000000 1.000000
0.328269 -0.406246 -0.475729 0.000000 0.000000 1.000000
0.426514 -0.229118 0.627633 0.000000 1.000000 0.000000
-0.455506 0.145956 -0.476487 0.000000 0.500000 0.500000
0.366202 0.002817 -0.474974 0.800000 0.200000 0.500000
0.362765 0.052730 -0.246154 0.300000 0.000000 0.600000
-0.002174 0.368240 -0.426943 0.800000 0.200000 0.500000
-0.445365 0.469966 -0.439028 0.600000 0.000000 0.300000
0.248624 -0.354359 0.555256 1.000000 0.000000 0.000000
-0.644319 0.123952 -0.231487 0.000000 0.500000 0.500000
-0.112263 -0.267935 0.677100 0.000000 1.000000 0.000000
0.464334 0.602611 -0.439028 0.600000 0.000000 0.300000
-0.456883 -0.281741 0.593518 0.300000 0.000000 0.600000
0.024443 -0.368090 -0.448163 0.000000 0.000000 1.000000
-0.008908 -0.340623 -0.354062 0.000000 0.000000 1.000000
0.614085 0.157664 0.237332 0.300000 0.000000 0.600000
-0.448298 0.033946 -0.078065 0.000000 0.500000 0.500000
0.326090 0.568837 -0.400843 0.600000 0.000000 0.300000
-0.585599 0.308733 0.277998 0.000000 0.500000 0.500000
-0.449586 -0.017141 -0.126150 0.000000 0.500000 0.500000
0.471760 0.482772 -0.397318 0.600000 0.000000 0.300000
0.168314 -0.087945 -0.374272 0.000000 1.000000 0.000000
-0.266372 0.522013 -0.475009 0.800000 0.200000 0.500000
0.571862 0.233874 -0.466111 0.300000 0.600000 0.000000
0.309075 0.150155 -0.475009 0.800000 0.200000 0.500000
0.202122 0.641644 -0.408497 0.600000 0.000000 0.300000
0.448119 -0.001898 0.555407 0.600000 0.000000 0.300000
0.440774 -0.460760 0.599221 0.600000 0.300000 0.000000
0.094461 -0.328918 -0.353892 0.000000 0.000000 1.000000
-0.107373 -0.292615 0.100169 0.000000 1.000000 0.000000
-0.093900 -0.334651 0.677354 1.000000 0.000000 0.000000
0.138141 -0.087945 -0.085575 0.000000 1.000000 0.000000
0.426865 -0.217557 0.561627 0.600000 0.000000 0.300000
0.363247 0.089095 0.297291 0.300000 0.000000 0.600000
0.028960 -0.436931 0.555256 1.000000 0.000000 0.000000
0.005538 -0.503963 0.661918 1.000000 0.000000 0.000000
0.367615 -0.292615 0.571819 0.000000 1.000000 0.000000
-0.089254 0.431353 -0.475009 0.800000 0.200000 0.500000
0.438954 -0.177020 0.208177 0.000000 1.000000 0.000000
0.120918 -0.292615 -0.164688 0.000000 1.000000 0.000000
-0.524488 -0.037811 -0.442720 0.500000 0.500000 0.000000
0.446756 -0.116321 0.528152 0.000000 1.000000 0.000000
0.199040 0.582874 -0.415495 0.800000 0.200000 0.500000
-0.313823 0.594414 -0.439028 0.600000 0.000000 0.300000
-0.023229 0.036297 -0.355073 0.800000 0.200000 0.500000
0.478786 -0.342342 -0.416107 0.300000 0.600000 0.000000
-0.479909 0.175890 0.573734 0.000000 0.500000 0.500000
-0.606845 0.127080 0.290933 0.000000 0.500000 0.500000
0.443136 -0.030690 0.581110 0.600000 0.000000 0.300000
0.393420 0.570670 -0.404864 0.600000 0.000000 0.300000
0.437210 -0.362579 0.567226 0.600000 0.000000 0.300000
-0.264438 0.573192 -0.381365 0.800000 0.200000 0.500000
0.567348 0.312580 0.138280 0.300000 0.000000 0.600000
-0.415081 -0.267974 0.645476 0.500000 0.000000 0.500000
0.392920 0.600327 -0.379060 0.600000 0.000000 0.300000
0.033016 -0.088946 0.329949 0.000000 1.000000 0.000000
0.379163 -0.292588 0.543703 0.000000 1.000000 0.000000
-0.646903 0.239344 -0.476831 0.000000 0.500000 0.500000
-0.555377 -0.111099 0.556154 0.500000 0.000000 0.500000
0.033566 -0.088946 0.285936 0.000000 1.000000 0.000000
-0.147152 -0.370076 -0.429195 0.000000 0.000000 1.000000
-0.117463 -0.290654 -0.404727 0.800000 0.200000 0.500000
0.371365 0.187038 0.279113 0.300000 0.000000 0.600000
-0.379156 -0.290654 -0.452118 0.800000 0.200000 0.500000
-0.500414 0.313835 -0.437026 0.000000 0.500000 0.500000
-0.002120 -0.087945 -0.091226 0.000000 1.000000 0.000000
-0.426382 -0.243879 0.110809 0.000000 1.000000 0.000000
0.590981 0.114252 0.509690 0.300000 0.000000 0.600000
-0.214266 0.023472 -0.475009 0.800000 0.200000 0.500000
-0.374498 -0.060568 -0.296032 0.000000 0.500000 0.500000
0.373841 0.202243 0.571015 0.300000 0.000000 0.600000
0.516574 -0.011633 0.621225 0.600000 0.000000 0.300000
0.569021 0.557808 -0.396742 0.600000 0.000000 0.300000
-0.387603 0.063524 0.678250 0.000000 0.500000 0.500000
0.341228 -0.085952 0.536724 0.000000 1.000000 0.000000
0.365411 -0.013719 0.605575 0.300000 0.000000 0.600000
-0.444037 -0.173309 0.500605 0.000000 1.000000 0.000000
0.434116 -0.368494 -0.343611 0.300000 0.000000 0.600000
-0.247329 0.210101 -0.355073 0.800000 0.200000 0.500000
-0.009691 -0.304378 -0.476191 0.000000 0.000000 1.000000
-0.105991 -0.088945 0.024988 0.000000 1.000000 0.000000
0.170158 -0.292615 0.197069 0.000000 1.000000 0.000000
-0.449458 -0.249086 -0.476190 0.500000 0.500000 0.000000
0.612476 0.194414 0.630603 0.600000 0.000000 0.300000
0.323771 0.136933 -0.355073 0.800000 0.200000 0.500000
