ply
format ascii 1.0
element vertex 1274
property float x
property float y
property float z
property uchar red
property uchar green
property uchar blue
end_header
-0.608666 -0.573375 0.339757 153 76 0
-0.600599 -0.575668 0.080359 153 76 0
-0.070205 0.517039 -0.549763 127 127 0
-0.609365 -0.573293 -0.052142 153 76 0
-0.013281 0.001873 0.354279 0 127 127
0.027804 -0.075895 -0.159799 0 127 127
-0.271479 -0.024270 0.078297 153 0 76
0.451979 0.239267 -0.357994 153 0 76
0.110701 0.032933 0.550853 76 0 153
-0.434848 0.004873 0.070349 153 0 76
-0.287722 0.393229 -0.450180 153 0 76
0.202252 0.367348 -0.461161 153 0 76
-0.188597 0.020749 0.506182 153 76 0
-0.380077 0.409865 -0.431829 153 0 76
0.180025 0.045236 -0.344332 153 0 76
0.282510 0.028529 -0.315542 153 0 76
-0.375288 -0.014704 0.037509 76 0 153
-0.470648 0.015177 0.267695 127 127 0
-0.124471 0.461152 -0.505534 153 0 76
-0.309914 0.020506 0.474592 76 0 153
0.308176 0.004431 0.588540 153 0 76
0.542510 0.020489 0.155603 0 0 255
-0.189294 -0.022494 0.191352 255 0 0
-0.439035 0.271302 -0.360480 153 0 76
0.225767 0.300713 -0.434627 153 0 76
-0.259187 0.264416 -0.404893 153 0 76
0.030364 0.110371 -0.380367 153 0 76
-0.305713 -0.047302 -0.160840 0 127 127
-0.267898 -0.002430 0.310312 127 0 127
-0.390396 0.006247 0.266665 127 127 0
0.163038 -0.012269 0.231477 0 255 0
-0.398847 0.019034 0.384926 76 153 0
0.413011 0.022098 0.393506 76 153 0
-0.381950 0.488121 -0.464560 153 0 76
0.090526 -0.036313 0.108962 204 51 127
-0.089474 0.149655 -0.391177 153 0 76
-0.476520 0.364754 -0.385497 153 0 76
-0.480063 0.152566 -0.303830 153 0 76
-0.287828 0.060054 -0.327030 153 0 76
-0.571335 -0.208941 -0.335759 153 0 76
0.313440 0.384937 -0.446711 153 0 76
0.612616 -0.553683 -0.510973 0 127 127
-0.196922 0.009300 -0.316831 153 0 76
-0.268405 -0.038083 -0.008347 153 76 0
0.043579 0.022761 0.503808 153 76 0
0.385978 -0.011621 0.029280 76 0 153
-0.601268 -0.409571 -0.447781 153 0 76
-0.497709 0.036330 0.549807 76 0 153
0.292176 0.022855 0.504173 153 76 0
0.123929 0.363531 -0.471041 153 0 76
0.350662 0.484243 -0.473884 153 0 76
-0.140024 0.267658 -0.427964 153 0 76
0.478974 -0.036509 0.594105 127 127 0
-0.598867 -0.310123 -0.385617 153 0 76
-0.493265 0.261704 -0.328750 153 0 76
0.134945 0.151742 -0.387863 153 0 76
-0.376011 0.303122 -0.400904 153 0 76
-0.085515 -0.009419 0.314032 127 0 127
-0.116006 -0.055194 -0.083607 153 0 76
0.221031 0.006449 0.591275 153 0 76
-0.404289 0.021512 0.471578 76 0 153
0.233663 -0.067929 -0.204536 127 0 127
0.146599 0.025615 0.504246 153 76 0
0.516385 0.019721 -0.252554 153 0 76
-0.398354 0.012016 0.588891 153 0 76
-0.485264 0.026062 0.387235 76 153 0
0.389548 0.023507 0.511845 153 76 0
-0.607635 -0.519085 -0.479268 153 0 76
-0.484741 0.468377 -0.431359 153 0 76
0.312544 -0.008434 0.151147 0 0 255
-0.454791 0.551363 -0.463632 127 127 0
-0.437255 0.080897 -0.290812 153 0 76
-0.487912 0.023500 0.470143 76 0 153
-0.135715 0.012035 0.587858 153 0 76
0.134802 0.079396 -0.353403 153 0 76
-0.194823 -0.010423 0.273210 127 127 0
-0.104640 0.011071 0.433571 153 0 76
0.444160 0.025859 -0.277238 153 0 76
0.078447 0.415151 -0.492044 153 0 76
0.025367 -0.015618 0.234797 0 255 0
-0.018781 0.004968 0.590321 153 0 76
-0.159127 0.079712 -0.349208 153 0 76
0.504349 -0.002147 -0.144464 0 0 255
0.193607 0.471580 -0.501855 153 0 76
0.074756 -0.068857 -0.129981 76 153 0
0.397897 -0.024082 -0.090260 153 0 76
0.417705 -0.006088 0.077817 153 0 76
-0.504599 0.012358 0.216092 255 0 0
0.041200 -0.030738 0.148186 0 0 255
-0.017001 -0.070705 -0.127422 76 153 0
0.517235 0.340283 -0.362909 153 0 76
0.516943 0.438749 -0.405287 153 0 76
-0.337478 -0.014266 0.077238 153 0 76
-0.053496 0.111140 -0.370424 153 0 76
0.086385 -0.002198 0.315588 127 0 127
0.278130 0.012959 0.434413 153 0 76
0.233270 0.168898 -0.380567 153 0 76
0.572662 -0.106378 0.589932 76 153 0
-0.084435 0.008571 -0.329248 153 0 76
-0.406513 -0.020124 -0.209491 127 0 127
-0.471968 0.007759 0.115584 204 51 127
-0.594511 -0.583828 0.585303 153 76 0
-0.497589 0.014885 -0.070357 255 0 0
-0.336423 0.373127 -0.428345 153 0 76
-0.273683 -0.006581 0.195658 255 0 0
-0.202364 0.188759 -0.392388 153 0 76
-0.469014 0.007698 0.028161 76 0 153
0.602023 -0.455581 -0.453461 0 127 127
-0.376352 0.097464 -0.318420 153 0 76
-0.002032 0.071397 -0.362711 153 0 76
0.462443 0.388889 -0.402931 153 0 76
0.484350 0.008434 0.067397 153 0 76
0.485507 0.170193 -0.316369 153 0 76
0.598156 -0.182836 -0.338869 0 127 127
0.205548 -0.035771 0.077494 153 0 76
-0.051818 -0.041666 0.029998 76 0 153
-0.365593 0.006319 0.315383 127 0 127
-0.290823 0.479986 -0.485798 153 0 76
0.317136 0.082619 -0.332046 153 0 76
-0.546911 0.019161 -0.228943 153 0 76
-0.216124 0.018122 0.426632 153 0 76
0.503192 0.010687 0.589955 153 0 76
0.096548 -0.056140 -0.082862 153 0 76
0.519513 0.258177 -0.342213 153 0 76
0.286712 -0.043381 -0.130002 76 153 0
0.144798 0.008560 0.592109 153 0 76
0.073276 -0.041672 0.038131 76 0 153
0.588021 -0.100476 -0.277528 0 127 127
0.245702 0.004950 0.308080 127 0 127
0.500190 0.001429 -0.042333 76 0 153
-0.317077 0.012771 -0.302899 153 0 76
0.145044 -0.043127 -0.002819 153 76 0
-0.115503 0.002300 0.355651 0 127 127
0.195180 -0.064544 -0.160499 0 127 127
-0.106193 0.325079 -0.460345 153 0 76
0.266224 0.402185 -0.459189 153 0 76
-0.030030 0.422479 -0.500080 153 0 76
0.451729 0.013933 0.228359 0 255 0
-0.164124 -0.045270 -0.000817 153 76 0
-0.350159 -0.009231 0.147496 0 0 255
-0.115819 -0.035459 0.592248 127 127 0
0.487762 0.029781 0.503629 153 76 0
-0.302301 0.003809 0.270592 127 127 0
-0.432403 0.000255 0.147862 0 0 255
0.058462 0.227346 -0.417532 153 0 76
-0.289743 0.033415 0.544337 76 0 153
0.041821 -0.050315 -0.007952 153 76 0
0.258466 0.472934 -0.488086 153 0 76
-0.488729 0.019059 0.315582 127 0 127
0.315740 -0.035034 -0.081014 153 0 76
-0.450351 0.416874 -0.415167 153 0 76
0.142999 0.274813 -0.433605 153 0 76
0.593715 -0.282643 -0.366356 0 127 127
0.204890 0.004986 0.345944 0 127 127
-0.228170 0.029407 0.554160 76 0 153
0.234496 0.119917 -0.363800 153 0 76
-0.064667 0.031764 0.544590 76 0 153
-0.423456 0.314833 -0.386895 153 0 76
0.187260 0.017392 0.474743 76 0 153
-0.165800 0.033324 0.549128 76 0 153
-0.031452 0.289575 -0.441126 153 0 76
0.628731 -0.576722 -0.053749 76 0 153
0.038522 -0.037637 0.595653 127 127 0
0.325441 -0.074186 0.585716 0 255 0
-0.552196 -0.079769 0.582556 76 0 153
0.310226 -0.032580 -0.010553 153 76 0
0.050512 0.005277 0.350270 0 127 127
0.132694 0.002184 0.393171 76 153 0
-0.246899 -0.022064 0.149695 0 0 255
0.169790 -0.060334 -0.087317 153 0 76
-0.238253 0.397101 -0.463865 153 0 76
-0.184654 0.506905 -0.535133 127 127 0
-0.405890 0.034275 0.545245 76 0 153
0.478967 0.111884 -0.295691 153 0 76
-0.022381 -0.058208 -0.050126 76 0 153
-0.166598 0.219880 -0.413575 153 0 76
0.390440 0.016727 -0.287265 153 0 76
0.430824 0.018013 0.307722 127 0 127
0.383332 0.015180 0.432348 153 0 76
0.539975 -0.027672 0.599238 127 127 0
-0.070410 -0.075980 -0.208003 127 0 127
-0.311159 0.012427 0.395050 76 153 0
-0.522107 0.007862 0.028118 255 0 0
-0.042360 -0.038265 0.596684 127 127 0
0.217035 0.078879 -0.343230 153 0 76
0.610520 -0.587991 0.128552 76 0 153
0.316104 0.011946 0.386197 76 153 0
-0.543995 -0.023167 0.580096 255 0 0
0.354972 0.021202 0.474517 76 0 153
-0.466971 0.001092 -0.128676 76 153 0
-0.587934 -0.486305 0.587664 76 0 153
0.598671 -0.370879 -0.409153 0 127 127
0.126788 -0.070495 -0.202648 127 0 127
0.169416 -0.024148 0.112269 204 51 127
0.629252 -0.577409 -0.420036 76 0 153
0.612093 -0.576995 -0.235220 76 0 153
-0.385704 0.020329 -0.286920 153 0 76
0.390916 0.316642 -0.403063 153 0 76
0.350395 0.195946 -0.359875 153 0 76
0.611479 -0.589909 0.219686 76 0 153
0.374680 -0.033118 -0.160310 0 127 127
0.417395 -0.011950 -0.011097 153 76 0
0.044517 0.502149 -0.534818 127 127 0
-0.196047 0.359171 -0.455253 153 0 76
-0.306741 -0.048043 -0.209993 127 0 127
-0.086638 -0.060600 -0.045275 76 0 153
-0.019629 -0.008698 0.306840 127 0 127
-0.519777 0.026353 0.114262 255 0 0
-0.011102 0.017564 0.474709 76 0 153
0.616110 -0.593184 -0.327161 76 0 153
0.522585 0.094047 -0.273028 153 0 76
0.327946 0.008564 0.314977 127 0 127
-0.305701 0.161609 -0.362427 153 0 76
0.472992 0.001640 -0.088854 153 0 76
0.347382 0.293927 -0.399792 153 0 76
-0.014140 -0.041723 0.070050 153 0 76
0.047027 0.031878 0.552403 76 0 153
0.502560 0.484256 -0.415513 153 0 76
0.026242 -0.084379 -0.206977 127 0 127
-0.421313 0.012222 0.230499 0 255 0
0.130570 -0.051185 -0.047742 76 0 153
-0.041334 0.011423 0.426156 153 0 76
-0.515274 0.010476 -0.172306 255 0 0
0.000822 0.211748 -0.418434 153 0 76
0.355740 0.007842 0.592177 153 0 76
-0.083986 -0.019373 0.235268 0 255 0
-0.240978 0.050526 -0.327121 153 0 76
-0.147086 -0.052119 -0.047508 76 0 153
-0.240317 0.219838 -0.401717 153 0 76
-0.360585 0.521879 -0.499967 127 127 0
0.338018 -0.048735 -0.206756 127 0 127
-0.238951 -0.048807 -0.082456 153 0 76
0.374011 0.088658 -0.323317 153 0 76
-0.336807 0.009472 0.585360 153 0 76
-0.374656 0.031743 0.507740 153 76 0
0.283572 -0.006381 0.236420 0 255 0
-0.336351 -0.033227 -0.088631 153 0 76
-0.379318 -0.074119 0.594714 0 255 0
-0.178590 -0.000156 0.355100 0 127 127
0.281411 -0.031701 0.028883 76 0 153
0.498292 0.018336 0.315347 127 0 127
-0.186623 -0.058514 -0.160935 0 127 127
-0.111599 -0.008011 0.274724 127 127 0
0.241536 0.263057 -0.410740 153 0 76
0.098739 0.042309 -0.342198 153 0 76
0.184111 -0.034664 0.033985 76 0 153
0.428809 0.278686 -0.369307 153 0 76
-0.275618 0.007050 0.355793 0 127 127
0.613159 -0.577027 -0.146545 76 0 153
0.355667 -0.011541 0.075334 153 0 76
-0.276815 0.511562 -0.517699 127 127 0
0.013082 0.389602 -0.483336 153 0 76
0.422600 0.034791 0.551190 76 0 153
0.627483 -0.575693 0.033250 76 0 153
-0.162258 -0.023868 0.112703 204 51 127
0.566809 -0.294986 0.583427 76 153 0
0.459821 0.494496 -0.447856 153 0 76
0.063991 -0.011893 0.274268 127 127 0
0.343654 0.438528 -0.460573 153 0 76
0.213211 -0.016402 0.196649 255 0 0
-0.301293 -0.032873 -0.042404 76 0 153
-0.467574 -0.074579 0.592763 0 255 0
-0.188363 0.120609 -0.362628 153 0 76
-0.124468 -0.069814 -0.158928 0 127 127
0.227876 -0.042868 -0.040812 76 0 153
-0.334271 0.225879 -0.380530 153 0 76
0.259674 -0.050018 -0.167386 0 127 127
0.178406 -0.007297 0.307693 127 0 127
-0.111585 0.044356 -0.349239 153 0 76
-0.016088 0.464850 -0.518805 153 0 76
-0.056598 0.326472 -0.454205 153 0 76
0.372386 0.374993 -0.423197 153 0 76
0.521508 0.022788 0.043500 0 0 255
-0.351259 -0.031923 -0.161046 0 127 127
0.056579 0.015233 0.431075 153 0 76
-0.050460 0.180044 -0.399358 153 0 76
-0.457251 0.014517 0.352453 0 127 127
0.065890 0.077330 -0.358055 153 0 76
-0.147484 0.022611 0.467822 76 0 153
0.431629 0.419752 -0.423779 153 0 76
0.537297 0.038629 0.555686 0 0 255
0.019523 0.007971 0.385984 76 153 0
-0.104813 -0.044657 0.038804 76 0 153
-0.026091 -0.017787 0.228449 0 255 0
-0.327273 -0.008441 0.187358 255 0 0
0.121082 -0.047730 0.036354 76 0 153
0.495789 0.010816 0.145533 0 0 255
-0.395552 -0.016644 -0.082941 153 0 76
0.146918 0.471215 -0.508385 153 0 76
0.404967 -0.035811 0.592928 127 127 0
0.574706 -0.204991 0.598108 76 153 0
0.263091 -0.045385 -0.089812 153 0 76
-0.240900 0.022906 0.465402 76 0 153
-0.042494 -0.027979 0.157306 0 0 255
-0.097972 -0.033768 0.117883 204 51 127
0.248195 -0.024250 0.152565 0 0 255
-0.404736 0.170607 -0.330744 153 0 76
-0.113607 0.031178 0.552885 76 0 153
0.064061 -0.054511 -0.049103 76 0 153
0.475878 0.348921 -0.379870 153 0 76
0.457465 0.012006 0.590037 153 0 76
-0.221226 0.002619 0.310816 127 0 127
0.168612 -0.021203 0.187490 255 0 0
0.307113 -0.011746 0.195903 255 0 0
0.440687 0.022923 0.508107 153 76 0
0.216565 0.017871 0.433764 153 0 76
0.321790 -0.019063 0.108401 204 51 127
-0.450236 0.494225 -0.448158 153 0 76
0.102897 0.007524 0.431035 153 0 76
0.112960 0.324209 -0.450568 153 0 76
0.460114 0.204361 -0.330806 153 0 76
0.187871 0.012050 0.386921 76 153 0
0.294093 0.119176 -0.344332 153 0 76
0.510099 0.030449 0.463471 76 0 153
0.468323 0.004391 -0.009186 153 76 0
0.016463 -0.041440 0.031589 76 0 153
0.304977 0.336410 -0.434246 153 0 76
-0.182492 -0.052129 -0.087025 153 0 76
0.237164 -0.035591 0.585817 127 127 0
0.385388 0.003111 0.227164 0 255 0
-0.209344 0.437875 -0.480947 153 0 76
0.407522 0.239320 -0.359150 153 0 76
0.097626 -0.073005 -0.169183 0 127 127
0.129881 -0.009895 0.311141 127 0 127
-0.176134 -0.037419 0.595581 127 127 0
0.419549 -0.026125 -0.167369 0 127 127
-0.203401 -0.027115 0.070118 153 0 76
-0.188433 0.048532 -0.338026 153 0 76
-0.257488 0.359000 -0.449938 153 0 76
-0.354788 0.010514 0.388222 76 153 0
-0.079283 0.363358 -0.471822 153 0 76
-0.160446 0.435025 -0.493267 153 0 76
0.094923 -0.035541 0.589809 127 127 0
-0.326519 -0.070441 0.581155 0 255 0
-0.563792 -0.244778 0.579016 76 0 153
0.241756 0.042254 -0.334859 153 0 76
-0.334554 0.086018 -0.325678 153 0 76
0.361047 0.003782 0.275257 127 127 0
-0.290958 0.294252 -0.414122 153 0 76
0.393529 0.131054 -0.332647 153 0 76
-0.346813 -0.022558 -0.001226 153 76 0
0.060872 0.318415 -0.454471 153 0 76
0.612438 -0.584164 0.584713 76 0 153
-0.479476 0.071730 -0.265973 153 0 76
0.113509 -0.017403 0.195864 255 0 0
0.156983 0.219996 -0.415496 153 0 76
-0.127719 0.361440 -0.471311 153 0 76
-0.537480 0.032069 0.386621 255 0 0
0.097394 0.178093 -0.401985 153 0 76
0.303404 0.195357 -0.380671 153 0 76
0.151796 -0.062867 -0.163831 0 127 127
0.353012 -0.022571 -0.001260 153 76 0
0.209557 0.024160 0.511526 153 76 0
0.313982 -0.042010 -0.169428 0 127 127
0.462204 -0.005514 -0.162324 0 127 127
0.169324 0.392539 -0.474390 153 0 76
-0.254655 -0.036594 0.594331 127 127 0
-0.136457 0.002886 0.393807 76 153 0
-0.554771 -0.325278 0.590155 76 0 153
0.214440 -0.053188 -0.083280 153 0 76
-0.235917 0.004411 0.589626 153 0 76
0.086256 0.003039 -0.329082 153 0 76
0.429968 0.100410 -0.300467 153 0 76
-0.035974 0.022232 0.513756 153 76 0
0.084634 -0.017328 0.235990 0 255 0
-0.262914 0.116538 -0.349618 153 0 76
0.248640 -0.033840 0.073240 153 0 76
0.024238 0.012022 0.588604 153 0 76
-0.230140 0.475634 -0.496851 153 0 76
0.366802 0.010860 0.392962 76 153 0
-0.267084 -0.033910 0.035934 76 0 153
0.413964 0.010988 0.347289 0 127 127
0.048374 0.467445 -0.509940 153 0 76
0.238494 -0.012790 0.231063 0 255 0
0.020490 -0.062351 -0.044907 76 0 153
0.111899 -0.004045 0.350221 0 127 127
0.450859 0.314574 -0.385090 153 0 76
-0.174341 -0.011957 0.230327 0 255 0
-0.095124 -0.064368 -0.122323 76 153 0
0.257534 -0.031123 -0.006569 153 76 0
-0.501667 0.004524 0.590025 153 0 76
0.004873 -0.014037 0.272175 127 127 0
0.489558 0.550208 -0.461571 127 127 0
-0.272896 -0.051079 -0.124839 76 153 0
0.391573 -0.000557 0.155683 0 0 255
0.210025 0.218163 -0.400688 153 0 76
0.388260 -0.074821 0.589691 0 255 0
-0.542200 0.039660 0.553389 255 0 0
0.487584 0.026552 0.388319 76 153 0
-0.363500 0.340154 -0.417182 153 0 76
-0.214701 -0.037143 -0.007908 153 76 0
-0.067062 -0.052994 -0.008659 153 76 0
-0.240346 -0.006724 0.274388 127 127 0
0.165750 -0.074867 0.591203 0 255 0
-0.122331 -0.015839 0.190512 255 0 0
0.300800 0.033379 0.544408 76 0 153
0.255341 -0.009153 0.269560 127 127 0
-0.400745 0.016726 0.426953 153 0 76
0.498506 0.016329 0.235258 0 255 0
-0.235522 -0.059474 -0.168629 0 127 127
-0.348843 0.126773 -0.330745 153 0 76
-0.401975 0.275103 -0.379936 153 0 76
-0.529018 0.033907 0.308882 255 0 0
-0.241753 0.010372 0.394308 76 153 0
-0.393049 -0.019643 -0.166497 0 127 127
0.154061 -0.011418 0.273772 127 127 0
0.200868 -0.037761 -0.004241 153 76 0
-0.153553 -0.004624 0.269885 127 127 0
-0.231590 -0.016833 0.188200 255 0 0
-0.297072 0.436092 -0.472754 153 0 76
-0.128835 0.179851 -0.394103 153 0 76
-0.199220 0.022108 0.465443 76 0 153
0.307028 0.019219 0.464714 76 0 153
0.082102 -0.028070 0.155719 0 0 255
-0.453675 0.029662 0.553219 76 0 153
0.388578 0.007538 0.306267 127 0 127
-0.481891 0.013540 0.155537 0 0 255
0.435309 0.004392 0.147024 0 0 255
-0.323349 0.029923 0.512689 153 76 0
-0.180192 -0.039892 0.038207 76 0 153
0.266755 0.004985 0.590352 153 0 76
-0.460889 0.000583 -0.046315 76 0 153
-0.178160 0.291577 -0.437944 153 0 76
-0.341680 0.484324 -0.473577 153 0 76
-0.243136 -0.037660 -0.042831 76 0 153
0.367006 0.229946 -0.379241 153 0 76
-0.567441 -0.405321 0.578346 76 0 153
0.274782 0.013743 0.387099 76 153 0
0.221612 -0.029171 0.115889 204 51 127
0.118833 0.408865 -0.486344 153 0 76
-0.532125 0.039448 0.471191 255 0 0
0.528551 0.029404 0.195430 0 0 255
0.344351 0.516468 -0.498749 127 127 0
-0.171701 -0.027731 0.154453 0 0 255
0.303448 -0.027495 0.072525 153 0 76
-0.428233 -0.007984 0.029376 76 0 153
-0.079227 0.024689 0.504083 153 76 0
0.180127 -0.035468 0.589637 127 127 0
-0.378549 0.448118 -0.455674 153 0 76
-0.391672 0.201856 -0.354287 153 0 76
-0.461260 0.114210 -0.292692 153 0 76
0.594277 -0.513294 0.577708 76 153 0
-0.447321 -0.016168 -0.207495 127 0 127
0.136507 0.013330 0.466424 76 0 153
0.325260 0.163703 -0.357560 153 0 76
-0.494287 0.034619 0.509087 153 76 0
-0.061859 -0.003531 0.348869 0 127 127
0.065212 0.144551 -0.385237 153 0 76
-0.333126 0.305158 -0.411146 153 0 76
-0.564373 -0.165429 0.587909 76 0 153
-0.330417 0.405223 -0.452802 153 0 76
-0.075475 0.429635 -0.493408 153 0 76
0.551629 0.038552 0.477570 0 0 255
-0.044802 -0.000353 -0.332468 153 0 76
-0.482369 0.008404 -0.012096 153 76 0
0.329886 -0.005814 0.229277 0 255 0
0.354312 0.057890 -0.305393 153 0 76
0.418052 0.381598 -0.420940 153 0 76
-0.186153 0.012395 0.393218 76 153 0
-0.315740 -0.020237 0.111550 204 51 127
0.356136 -0.033914 -0.083299 153 0 76
-0.377881 -0.010492 0.077603 153 0 76
-0.342447 0.007434 0.273081 127 127 0
-0.104755 0.015217 0.474296 76 0 153
-0.402115 0.062739 -0.298790 153 0 76
0.201787 0.510587 -0.538476 127 127 0
-0.033768 0.499102 -0.543502 127 127 0
0.528239 0.013077 0.270018 0 0 255
0.304540 0.258730 -0.405294 153 0 76
-0.328271 -0.031229 -0.127981 76 153 0
-0.414534 0.391806 -0.419434 153 0 76
-0.350535 0.024497 0.472877 76 0 153
-0.446610 0.030498 0.467500 76 0 153
0.465325 0.029131 0.464973 76 0 153
0.089452 0.248819 -0.430901 153 0 76
0.131418 -0.035852 0.116573 204 51 127
-0.145009 0.397496 -0.474116 153 0 76
0.505298 0.016990 0.107197 0 0 255
-0.486013 0.030294 0.427195 153 0 76
-0.479056 -0.005801 -0.167856 0 127 127
-0.142484 0.115747 -0.372957 153 0 76
0.083919 0.025713 0.511492 153 76 0
0.440041 0.027148 0.428564 153 0 76
0.110676 -0.042677 0.075132 153 0 76
-0.400360 0.015679 0.345220 0 127 127
0.405915 -0.013693 -0.049209 76 0 153
-0.034343 0.000815 0.388400 76 153 0
-0.475120 -0.036354 0.584531 127 127 0
0.180221 0.288166 -0.438217 153 0 76
-0.241218 0.291630 -0.428507 153 0 76
0.352652 -0.004415 0.148368 0 0 255
0.040949 -0.000916 -0.333913 153 0 76
0.285151 -0.001734 0.309173 127 0 127
0.379909 0.451473 -0.450662 153 0 76
0.373152 0.160372 -0.350077 153 0 76
-0.431054 0.013546 0.270536 127 127 0
0.312055 0.477834 -0.487493 153 0 76
-0.294686 -0.008265 0.229314 0 255 0
0.446189 0.064718 -0.291113 153 0 76
-0.011830 0.112404 -0.375085 153 0 76
0.110234 -0.074355 0.593167 0 255 0
0.010911 0.177175 -0.401921 153 0 76
0.048425 0.283320 -0.441004 153 0 76
0.009113 0.035295 -0.345834 153 0 76
-0.055465 0.394212 -0.489097 153 0 76
-0.251835 0.185535 -0.383458 153 0 76
-0.426261 -0.010161 -0.124068 76 153 0
-0.309856 0.017571 0.434975 153 0 76
0.131976 0.115642 -0.369209 153 0 76
0.597080 -0.439516 0.585414 76 153 0
0.245997 0.000434 0.348136 0 127 127
0.415978 0.162879 -0.338076 153 0 76
-0.070432 0.077918 -0.357982 153 0 76
0.190680 -0.056311 -0.120499 76 153 0
0.171855 0.007997 -0.322683 153 0 76
0.415268 0.525781 -0.472757 127 127 0
0.484584 -0.074666 0.586955 0 255 0
0.521189 0.026407 0.419603 0 0 255
0.105629 0.005789 0.590854 153 0 76
0.615378 -0.592921 0.437183 76 0 153
0.001772 -0.030448 0.147994 0 0 255
-0.413630 -0.007308 -0.049224 76 0 153
-0.361849 0.271903 -0.382217 153 0 76
-0.571710 -0.127012 -0.290550 153 0 76
-0.313487 0.008980 0.307879 127 0 127
-0.026819 -0.069631 -0.165514 0 127 127
-0.440624 0.352971 -0.394938 153 0 76
0.035537 0.020776 0.465768 76 0 153
0.198406 0.151099 -0.384444 153 0 76
-0.312551 -0.036692 0.594436 127 127 0
0.006749 0.352489 -0.474300 153 0 76
0.333091 0.029831 0.505237 153 76 0
-0.382372 0.002565 0.225454 0 255 0
-0.563466 -0.055189 -0.257735 153 0 76
-0.208932 -0.015479 0.152460 0 0 255
0.203944 0.327859 -0.451314 153 0 76
0.545853 0.015710 0.338476 0 0 255
0.018028 -0.032648 0.108579 204 51 127
0.618591 -0.594007 0.369662 76 0 153
0.488765 0.235032 -0.341374 153 0 76
0.182658 0.005866 0.585790 153 0 76
-0.617721 -0.586952 -0.211342 153 76 0
-0.476381 0.220898 -0.332465 153 0 76
-0.015036 -0.059935 -0.087824 153 0 76
0.352394 0.404548 -0.442640 153 0 76
0.176631 0.082970 -0.350746 153 0 76
-0.616469 -0.577663 -0.278108 153 76 0
0.451118 0.014742 0.390291 76 153 0
-0.431071 -0.002970 0.109641 204 51 127
0.315535 0.048038 -0.314980 153 0 76
0.312030 -0.035520 0.588456 127 127 0
-0.253217 -0.016951 0.111215 204 51 127
0.329304 -0.028921 -0.043480 76 0 153
0.137958 0.044032 -0.339255 153 0 76
0.128602 0.508031 -0.545396 127 127 0
0.395722 -0.021879 -0.130668 76 153 0
-0.422158 0.237220 -0.360718 153 0 76
-0.442334 0.015680 0.391485 76 153 0
-0.056985 -0.073005 -0.125509 76 153 0
0.630284 -0.580239 0.302661 76 0 153
0.518467 0.297603 -0.348045 153 0 76
-0.616580 -0.578026 0.437314 153 76 0
0.033161 -0.074729 0.587288 0 255 0
0.246679 -0.074739 0.587181 0 255 0
-0.104481 0.254701 -0.426720 153 0 76
0.385024 0.035474 0.547464 76 0 153
0.273095 0.509545 -0.513524 127 127 0
0.516045 0.061914 -0.251038 153 0 76
-0.363095 0.016568 0.351554 0 127 127
-0.506073 0.346382 -0.371205 153 0 76
0.217177 0.033630 0.547057 76 0 153
0.623485 -0.573186 0.508790 76 0 153
0.442878 0.010454 0.269130 127 127 0
0.003544 0.017003 0.509807 153 76 0
-0.019271 0.244380 -0.432776 153 0 76
-0.038206 -0.072872 0.583172 0 255 0
-0.384028 -0.019611 -0.005259 153 76 0
0.226366 0.396059 -0.465968 153 0 76
0.490623 0.412416 -0.409534 153 0 76
-0.257688 0.079697 -0.343266 153 0 76
-0.610044 -0.572977 -0.406815 153 76 0
-0.080247 -0.024281 0.149271 0 0 255
0.027569 0.147449 -0.386815 153 0 76
0.571359 -0.026017 -0.247906 0 127 127
-0.510750 0.002112 -0.234977 153 0 76
-0.056944 -0.029590 0.110310 204 51 127
-0.113249 -0.073754 0.584722 0 255 0
-0.597179 -0.586825 0.242095 153 76 0
-0.599604 -0.590943 -0.020690 153 76 0
0.495590 0.016122 0.352241 0 127 127
0.142431 0.184691 -0.403006 153 0 76
-0.452866 0.173926 -0.316884 153 0 76
0.481728 0.029455 -0.264912 153 0 76
0.491313 0.001237 0.031949 76 0 153
0.489933 0.002543 -0.207248 127 0 127
0.166960 0.356863 -0.460701 153 0 76
0.260942 0.436000 -0.473784 153 0 76
-0.607798 -0.593926 0.370166 153 76 0
0.049420 0.394273 -0.482164 153 0 76
-0.165770 0.188946 -0.392034 153 0 76
0.189522 0.436749 -0.485688 153 0 76
0.267279 0.184975 -0.382472 153 0 76
0.434060 -0.009567 -0.082767 153 0 76
-0.198347 0.153114 -0.375904 153 0 76
-0.601683 -0.575465 0.502489 153 76 0
0.031671 -0.022183 0.187248 255 0 0
-0.247382 -0.072180 0.596733 0 255 0
0.202242 -0.014395 0.232740 0 255 0
-0.613222 -0.574204 0.115601 153 76 0
-0.331001 0.191343 -0.370008 153 0 76
-0.507977 0.136691 -0.286062 153 0 76
-0.202200 0.224256 -0.408597 153 0 76
0.418972 -0.018592 -0.204028 127 0 127
-0.493904 0.017662 0.353111 0 127 127
0.544354 0.002299 -0.231444 0 127 127
-0.373922 0.374784 -0.419298 153 0 76
0.416199 0.446103 -0.448560 153 0 76
0.592147 -0.374831 0.592375 76 153 0
0.134114 -0.061345 -0.082055 153 0 76
-0.470353 0.029060 -0.258837 153 0 76
-0.394529 -0.005587 0.151383 0 0 255
0.473603 -0.009980 -0.126404 76 153 0
0.074796 -0.043619 0.074355 153 0 76
-0.409333 0.022531 0.507954 153 76 0
0.548949 0.036060 0.399022 0 0 255
0.533375 0.008602 -0.053893 0 0 255
-0.059632 0.255886 -0.432520 153 0 76
-0.596946 -0.582265 0.304842 153 76 0
-0.417451 0.485633 -0.459665 153 0 76
0.621436 -0.530882 -0.484847 0 127 127
-0.104743 0.506591 -0.547510 127 127 0
-0.001589 -0.037792 0.582593 127 127 0
-0.395620 -0.035601 0.587491 127 127 0
-0.124486 0.427302 -0.494375 153 0 76
-0.192406 -0.059511 -0.120428 76 153 0
-0.186582 -0.004601 0.314799 127 0 127
-0.599644 -0.590979 0.180752 153 76 0
-0.139296 -0.044840 0.030238 76 0 153
0.514585 0.182338 -0.297630 153 0 76
-0.503908 0.386943 -0.381125 153 0 76
0.056440 -0.029820 0.116187 204 51 127
0.457286 0.013009 0.192130 255 0 0
-0.455179 0.302422 -0.368974 153 0 76
-0.080456 -0.035500 0.591489 127 127 0
0.122174 -0.013960 0.229948 0 255 0
-0.312230 -0.024064 -0.008251 153 76 0
-0.303759 0.239153 -0.392363 153 0 76
0.388903 0.027650 0.467618 76 0 153
-0.349240 0.018139 -0.289632 153 0 76
-0.317870 0.052104 -0.310621 153 0 76
0.163132 -0.029069 0.150692 0 0 255
-0.600678 -0.590554 -0.478440 153 76 0
-0.019897 0.322582 -0.453892 153 0 76
-0.194389 0.324126 -0.450296 153 0 76
0.271947 0.014785 0.470591 76 0 153
-0.055300 0.144063 -0.386040 153 0 76
0.249271 0.027951 0.506935 153 76 0
0.419751 -0.007716 0.112696 204 51 127
-0.084771 0.181158 -0.406052 153 0 76
-0.604333 -0.538489 -0.510109 153 0 76
-0.417681 0.009057 0.194213 255 0 0
-0.271231 -0.045177 -0.165753 0 127 127
-0.472171 0.018493 0.227339 0 255 0
-0.588538 -0.331979 -0.411856 153 0 76
-0.042178 -0.023043 0.197522 255 0 0
-0.617691 -0.581075 -0.342142 153 76 0
-0.453149 0.383206 -0.406792 153 0 76
-0.154006 0.045519 -0.345226 153 0 76
0.432096 0.207885 -0.351111 153 0 76
-0.616905 -0.578891 -0.147624 153 76 0
-0.491922 -0.001359 -0.100561 255 0 0
-0.160920 0.365742 -0.462182 153 0 76
-0.238677 -0.032167 0.070183 153 0 76
0.029731 -0.073503 -0.125253 76 153 0
0.329103 0.013132 0.354065 0 127 127
-0.225476 0.120899 -0.362679 153 0 76
-0.036138 0.077187 -0.363575 153 0 76
0.449389 -0.045943 0.578933 127 127 0
-0.593754 -0.230836 -0.350238 153 0 76
0.212547 -0.005447 0.312335 127 0 127
-0.600812 -0.592168 -0.081320 153 76 0
-0.382385 0.133647 -0.326879 153 0 76
-0.507544 0.172872 -0.299489 153 0 76
-0.181938 -0.071138 0.581735 0 255 0
-0.585597 -0.182798 -0.318626 153 0 76
0.536512 0.008862 0.123934 0 0 255
0.593741 -0.217134 -0.333058 0 127 127
0.031831 0.077956 -0.360671 153 0 76
0.310671 0.010906 -0.304279 153 0 76
-0.156327 -0.013882 0.192291 255 0 0
-0.479538 0.436868 -0.412076 153 0 76
-0.459198 0.248153 -0.343244 153 0 76
-0.470921 0.002434 0.068938 153 0 76
0.014339 0.288050 -0.440621 153 0 76
-0.149163 -0.060749 -0.086847 153 0 76
0.451222 -0.003930 0.074470 153 0 76
0.099955 0.145673 -0.392994 153 0 76
-0.609776 -0.573067 0.048017 153 76 0
0.623362 -0.583192 -0.498770 76 0 153
0.561170 -0.070957 0.595295 76 153 0
-0.531159 0.016726 0.196059 255 0 0
-0.303364 -0.015193 0.073178 153 0 76
-0.147239 -0.042862 0.579491 127 127 0
0.316567 0.302901 -0.409365 153 0 76
0.294943 0.228433 -0.394823 153 0 76
-0.579969 -0.286374 -0.368914 153 0 76
-0.287488 0.024370 0.512221 153 76 0
0.146043 0.027953 0.542932 76 0 153
-0.411318 0.092821 -0.309836 153 0 76
-0.584281 -0.392339 -0.423928 153 0 76
-0.117368 -0.042259 0.072757 153 0 76
0.226327 0.466114 -0.500269 153 0 76
0.280942 -0.017964 0.147583 0 0 255
-0.430922 0.529285 -0.470240 127 127 0
0.530120 0.011192 -0.128415 0 0 255
-0.270872 0.159053 -0.367862 153 0 76
-0.530865 0.027746 0.229178 255 0 0
0.508335 -0.040360 0.579261 127 127 0
-0.273949 0.023794 0.465465 76 0 153
0.255398 0.009128 -0.315200 153 0 76
-0.273912 0.014279 0.387939 76 153 0
0.342174 0.261916 -0.393946 153 0 76
-0.348339 -0.015787 0.111033 204 51 127
-0.209206 0.298567 -0.427153 153 0 76
-0.229210 0.011536 -0.322024 153 0 76
-0.156002 -0.069335 -0.167828 0 127 127
0.504174 0.033482 0.543450 76 0 153
-0.607570 -0.486226 -0.484191 153 0 76
-0.228599 -0.056217 -0.204235 127 0 127
0.420523 0.007664 0.235605 0 255 0
-0.054768 -0.054345 -0.049038 76 0 153
-0.160825 -0.074360 -0.200073 127 0 127
0.102449 0.077922 -0.356756 153 0 76
0.015865 0.466419 -0.510127 153 0 76
0.058990 -0.076141 -0.168815 0 127 127
-0.122059 0.290365 -0.442634 153 0 76
0.209758 0.045677 -0.330664 153 0 76
0.152779 -0.045085 0.030033 76 0 153
0.494527 0.499248 -0.443107 153 0 76
-0.092634 0.469652 -0.509840 153 0 76
-0.131976 0.144071 -0.388380 153 0 76
0.493398 -0.001942 -0.174891 0 0 255
0.467156 0.019733 0.306792 127 0 127
-0.155990 0.466605 -0.509641 153 0 76
-0.146591 -0.002281 0.348440 0 127 127
-0.105274 0.011582 0.389878 76 153 0
-0.021359 0.389778 -0.483005 153 0 76
-0.344913 -0.023550 0.031687 76 0 153
0.226941 -0.059645 -0.159311 0 127 127
-0.478973 0.272176 -0.355557 153 0 76
-0.484206 0.547785 -0.451232 127 127 0
-0.384387 -0.018756 -0.042750 76 0 153
-0.502069 0.015779 0.273976 127 127 0
-0.021279 -0.050932 0.032827 76 0 153
-0.502462 0.293244 -0.342241 153 0 76
0.383876 -0.014201 -0.002939 153 76 0
0.167019 0.151833 -0.378277 153 0 76
0.501326 0.005114 -0.003759 153 76 0
0.232891 0.366199 -0.452087 153 0 76
0.378660 0.344328 -0.413328 153 0 76
0.500999 0.366758 -0.371358 153 0 76
0.272887 0.257243 -0.412502 153 0 76
0.610814 -0.299998 -0.388887 0 127 127
0.266428 0.117748 -0.360065 153 0 76
0.592742 -0.117406 -0.308160 0 127 127
-0.166013 0.251412 -0.418010 153 0 76
0.561874 -0.137786 0.600075 76 153 0
-0.230868 0.257079 -0.417411 153 0 76
-0.157341 0.022465 0.511619 153 76 0
0.386975 -0.015692 0.071894 153 0 76
-0.262805 0.334336 -0.430639 153 0 76
0.242487 0.327483 -0.438196 153 0 76
-0.054515 -0.009202 0.307234 127 0 127
-0.220310 0.021192 0.505818 153 76 0
0.079171 0.030450 0.553205 76 0 153
-0.490881 0.009962 0.185739 255 0 0
-0.078649 0.035483 -0.348689 153 0 76
-0.302773 0.369199 -0.435997 153 0 76
-0.599943 -0.447014 -0.443795 153 0 76
0.528988 0.005451 -0.162888 0 0 255
0.612387 -0.340999 -0.412385 0 127 127
0.061484 0.105187 -0.378091 153 0 76
-0.228121 0.368088 -0.456861 153 0 76
-0.198460 0.032376 0.544262 76 0 153
0.445098 0.172974 -0.332022 153 0 76
-0.071837 0.012220 0.433520 153 0 76
-0.087223 0.221915 -0.412801 153 0 76
0.100674 -0.060375 -0.045970 76 0 153
0.178012 0.023169 0.504104 153 76 0
0.125658 0.251440 -0.422114 153 0 76
-0.328010 0.341395 -0.420182 153 0 76
0.065631 0.012174 0.467905 76 0 153
0.420408 0.307891 -0.382802 153 0 76
0.496215 0.454978 -0.426892 153 0 76
0.415893 -0.009562 0.037899 76 0 153
0.051497 0.425863 -0.504634 153 0 76
-0.120913 -0.007158 0.314775 127 0 127
0.400858 0.099950 -0.311187 153 0 76
-0.449202 -0.043804 0.599746 127 127 0
-0.556360 -0.107172 0.597501 76 0 153
0.256542 0.148890 -0.371866 153 0 76
0.358642 0.012003 0.312669 127 0 127
-0.590321 -0.552567 0.579176 76 0 153
0.021391 -0.004088 0.353760 0 127 127
-0.508517 0.067400 -0.256731 153 0 76
0.133393 0.010717 0.433563 153 0 76
-0.478940 0.190058 -0.318559 153 0 76
0.063269 -0.045060 0.579064 127 127 0
0.354808 -0.067286 0.580136 0 255 0
-0.478519 0.399742 -0.392635 153 0 76
-0.480472 0.497164 -0.441011 153 0 76
-0.507833 0.233511 -0.328186 153 0 76
0.114076 0.026738 0.506226 153 76 0
-0.396315 0.014054 0.314933 127 0 127
0.460254 0.276317 -0.367371 153 0 76
0.276140 0.326280 -0.434145 153 0 76
-0.563585 -0.008393 -0.232720 153 0 76
0.514124 0.006624 0.077073 0 0 255
0.482141 0.141400 -0.306862 153 0 76
0.381377 0.481459 -0.472262 153 0 76
0.355770 -0.014175 0.031346 76 0 153
0.609366 -0.583023 -0.443270 76 0 153
0.369562 -0.035322 -0.123218 76 153 0
0.053169 0.008115 0.385994 76 153 0
-0.503959 0.454805 -0.411200 153 0 76
0.095149 0.355525 -0.465983 153 0 76
0.160518 -0.059067 -0.120312 76 153 0
0.467312 0.002196 0.151116 0 0 255
0.034362 -0.006507 0.271217 127 127 0
0.630732 -0.584649 -0.122112 76 0 153
0.081891 -0.003824 0.353882 0 127 127
-0.365513 -0.026932 -0.083792 153 0 76
0.055146 -0.015226 0.229778 0 255 0
0.339274 0.376358 -0.433701 153 0 76
0.557343 -0.012725 0.579645 0 0 255
-0.029651 0.032869 0.550647 76 0 153
-0.204400 -0.010061 0.236263 0 255 0
0.612063 -0.484656 -0.461798 0 127 127
-0.448338 -0.004354 -0.003265 153 76 0
-0.518588 0.023709 0.495071 255 0 0
-0.133016 -0.028769 0.117785 204 51 127
0.245469 0.009800 0.431887 153 0 76
0.030388 0.214048 -0.423109 153 0 76
0.094972 0.390484 -0.487615 153 0 76
-0.133744 0.010847 0.426268 153 0 76
-0.528348 0.022689 0.532888 255 0 0
0.415400 0.039385 -0.283421 153 0 76
-0.361863 0.202556 -0.357245 153 0 76
0.292378 0.363629 -0.446767 153 0 76
0.527927 0.002012 -0.024874 0 0 255
0.627693 -0.591574 0.058465 76 0 153
0.055333 0.255820 -0.431883 153 0 76
-0.459265 0.014913 0.315655 127 0 127
-0.355229 -0.001221 0.194471 255 0 0
-0.595408 -0.578955 0.555525 153 76 0
-0.037688 -0.047778 -0.005134 153 76 0
-0.511958 0.008032 0.142649 255 0 0
-0.286288 -0.019956 0.107734 204 51 127
-0.505405 0.001167 -0.045291 255 0 0
-0.115667 -0.055756 -0.048602 76 0 153
-0.283018 -0.035588 0.586025 127 127 0
-0.319650 0.027588 0.552617 76 0 153
0.034720 0.360027 -0.468517 153 0 76
0.515148 0.019842 0.170968 0 0 255
0.558823 0.032979 0.530829 0 0 255
-0.459034 0.455242 -0.425463 153 0 76
-0.047454 0.009292 0.585171 153 0 76
-0.498387 0.491129 -0.418528 153 0 76
0.489408 0.323186 -0.375838 153 0 76
0.584835 -0.272034 0.586031 76 153 0
0.465576 0.420041 -0.422634 153 0 76
-0.077123 -0.011366 0.274297 127 127 0
0.411053 0.025423 0.432202 153 0 76
-0.303264 0.084820 -0.329118 153 0 76
0.229466 -0.042575 -0.008092 153 76 0
0.347419 -0.037826 -0.169786 0 127 127
0.515427 0.114727 -0.293939 153 0 76
-0.105839 0.010812 0.591035 153 0 76
0.581905 -0.073181 -0.287656 0 127 127
-0.018078 0.179801 -0.399665 153 0 76
0.508889 -0.064176 0.600854 0 255 0
-0.511832 0.023133 0.005500 255 0 0
0.262851 -0.063115 -0.202166 127 0 127
0.531465 0.004014 0.023546 0 0 255
-0.503618 -0.003157 -0.143666 255 0 0
-0.086640 -0.063628 -0.085148 153 0 76
-0.510138 0.013368 0.244665 255 0 0
0.508810 -0.001568 -0.113227 0 0 255
-0.288122 0.016098 -0.302306 153 0 76
0.514014 -0.001132 -0.075216 0 0 255
0.630513 -0.587073 -0.355553 76 0 153
-0.247383 0.513068 -0.509783 127 127 0
0.349339 -0.007388 0.114870 204 51 127
-0.298743 -0.038039 -0.124130 76 153 0
-0.428126 0.012047 0.587173 153 0 76
-0.272794 -0.032322 -0.047355 76 0 153
-0.018148 0.040072 -0.354205 153 0 76
0.494237 0.272199 -0.342136 153 0 76
0.628233 -0.576322 0.108937 76 0 153
-0.516762 0.007456 0.092620 255 0 0
-0.508432 0.013199 -0.205176 255 0 0
-0.528142 0.013371 0.288718 255 0 0
0.628318 -0.591159 -0.258725 76 0 153
0.197952 0.398452 -0.469600 153 0 76
-0.515632 0.025256 0.403865 255 0 0
-0.429372 0.021134 0.352646 0 127 127
0.058409 -0.002480 0.307674 127 0 127
-0.244607 0.010222 0.432084 153 0 76
-0.210207 -0.045077 -0.086481 153 0 76
-0.531790 0.019757 0.449528 255 0 0
0.356148 0.005143 0.231344 0 255 0
-0.214429 0.011112 0.386144 76 153 0
-0.056117 -0.020186 0.229248 0 255 0
0.116310 0.291361 -0.445253 153 0 76
0.160360 0.010947 0.394331 76 153 0
0.488340 0.207845 -0.332618 153 0 76
0.140227 -0.022792 0.187519 255 0 0
0.296400 0.400565 -0.463194 153 0 76
-0.267818 -0.000713 0.270651 127 127 0
0.171921 -0.048887 -0.009765 153 76 0
0.153997 0.250015 -0.425425 153 0 76
-0.523061 0.019749 0.054025 255 0 0
0.624289 -0.593447 -0.076161 76 0 153
0.073301 0.502301 -0.534225 127 127 0
-0.412400 0.042061 -0.281826 153 0 76
0.512530 -0.001342 -0.223826 0 0 255
0.301672 -0.065642 0.600304 0 255 0
-0.211547 0.394145 -0.472616 153 0 76
-0.578220 -0.062635 -0.280634 153 0 76
-0.511020 0.019600 -0.096848 255 0 0
-0.286850 0.259167 -0.406713 153 0 76
0.596169 -0.393382 -0.428337 0 127 127
-0.177985 -0.038688 0.073690 153 0 76
0.477066 0.478368 -0.432526 153 0 76
-0.122821 -0.059896 -0.124622 76 153 0
-0.335860 0.160561 -0.356594 153 0 76
-0.424675 0.419644 -0.426315 153 0 76
-0.111445 0.000782 -0.329622 153 0 76
0.326417 0.411487 -0.450819 153 0 76
0.226345 -0.059828 0.599577 0 255 0
0.616997 -0.573897 0.247181 76 0 153
0.000178 -0.079201 -0.163608 0 127 127
-0.568115 -0.100478 -0.299318 153 0 76
-0.514291 0.024137 0.371262 255 0 0
0.180800 -0.004213 0.269289 127 127 0
0.568280 -0.228967 0.578607 76 153 0
-0.458730 0.063820 -0.283093 153 0 76
-0.375756 0.034589 0.545896 76 0 153
-0.302947 0.187951 -0.371507 153 0 76
0.585007 -0.160584 -0.328114 0 127 127
0.305212 0.017342 0.424851 153 0 76
0.182151 0.222287 -0.403532 153 0 76
-0.349975 -0.072724 0.596200 0 255 0
-0.364334 0.012006 0.589471 153 0 76
0.618785 -0.572236 0.558648 76 0 153
-0.186501 0.077301 -0.354087 153 0 76
0.273295 -0.020809 0.073683 153 0 76
0.125552 -0.070928 -0.158930 0 127 127
-0.261930 0.031525 0.543761 76 0 153
-0.578280 -0.510411 0.577526 76 0 153
0.333369 -0.050490 0.598323 127 127 0
-0.456051 0.139971 -0.310227 153 0 76
0.216031 0.186061 -0.394092 153 0 76
-0.267438 0.406684 -0.463673 153 0 76
-0.008563 0.011026 0.390598 76 153 0
0.383383 0.005275 0.590515 153 0 76
0.433553 0.491363 -0.456401 153 0 76
0.467194 0.535621 -0.453867 127 127 0
-0.477992 0.331640 -0.368496 153 0 76
-0.041916 -0.041953 0.070383 153 0 76
-0.122717 0.073669 -0.361757 153 0 76
0.463320 -0.058847 0.599280 0 255 0
0.617534 -0.593699 -0.400902 76 0 153
-0.518080 -0.031748 0.584889 127 127 0
0.116459 -0.050158 0.580319 127 127 0
0.630449 -0.581026 0.147220 76 0 153
-0.487483 0.105517 -0.290928 153 0 76
0.527693 0.026533 0.487497 0 0 255
-0.241520 -0.034315 -0.001797 153 76 0
-0.226217 0.175367 -0.381247 153 0 76
0.328246 -0.014776 0.076443 153 0 76
-0.132318 0.327911 -0.451108 153 0 76
0.155898 -0.047289 0.579513 127 127 0
0.362355 0.021639 0.507466 153 76 0
-0.400688 -0.004366 0.034533 76 0 153
-0.300178 -0.013569 0.192482 255 0 0
0.290207 0.088433 -0.332177 153 0 76
0.510519 0.243044 -0.321021 153 0 76
0.088055 0.320904 -0.461814 153 0 76
0.596582 -0.258696 -0.353124 0 127 127
-0.157225 0.505120 -0.536193 127 127 0
0.381654 0.058071 -0.308212 153 0 76
0.528066 0.014963 0.315512 127 0 127
0.202450 -0.072574 -0.205917 127 0 127
0.627016 -0.575022 -0.025582 76 0 153
0.609869 -0.586508 -0.301328 76 0 153
-0.209628 0.506754 -0.523859 127 127 0
-0.525089 -0.075770 0.582548 0 255 0
0.289212 -0.041811 -0.081864 153 0 76
0.619533 -0.436541 -0.444477 0 127 127
0.347413 0.089738 -0.329728 153 0 76
0.535089 0.009344 0.585247 153 0 76
0.128177 0.432537 -0.500335 153 0 76
0.043586 -0.040386 0.034389 76 0 153
-0.380410 -0.028030 -0.209620 127 0 127
-0.089264 -0.004346 0.352328 0 127 127
-0.267464 -0.007628 0.227949 0 255 0
0.255828 0.529977 -0.518784 127 127 0
-0.615845 -0.576819 0.162400 153 76 0
-0.316024 0.472845 -0.478280 153 0 76
0.512679 0.158481 -0.310613 153 0 76
-0.493145 0.022820 -0.236573 153 0 76
0.247430 0.291905 -0.420710 153 0 76
0.159515 0.108577 -0.369740 153 0 76
0.320852 0.119935 -0.339581 153 0 76
-0.408194 -0.000478 0.070590 153 0 76
0.312640 -0.045866 -0.122269 76 153 0
0.624348 -0.593395 0.196020 76 0 153
-0.372844 0.533309 -0.478638 127 127 0
-0.056301 -0.061288 0.599980 0 255 0
-0.094834 -0.060227 0.599321 0 255 0
-0.161913 0.005807 0.590900 153 0 76
0.377675 -0.044476 0.578917 127 127 0
-0.610424 -0.573172 0.387314 153 76 0
0.431421 -0.038784 0.597789 127 127 0
0.178669 -0.033470 0.078756 153 0 76
0.142989 0.398128 -0.476403 153 0 76
-0.545508 -0.184455 0.584613 76 0 153
-0.585678 -0.458468 0.584783 76 0 153
0.357192 0.014686 0.425831 153 0 76
0.215586 0.254753 -0.413321 153 0 76
-0.420810 -0.007558 -0.084786 153 0 76
0.559756 0.028101 0.566178 0 0 255
0.284980 0.468890 -0.485975 153 0 76
-0.296885 0.529925 -0.515974 127 127 0
-0.301959 -0.059568 0.580393 0 255 0
0.101547 -0.068796 -0.128072 76 153 0
0.256040 -0.053822 -0.123880 76 153 0
0.520744 0.023176 0.344076 0 0 255
0.284107 -0.037824 -0.008480 153 76 0
0.247148 -0.018603 0.114751 204 51 127
-0.267041 0.469030 -0.490918 153 0 76
0.611453 -0.577896 0.283253 76 0 153
0.570533 -0.360000 0.587670 76 153 0
0.098236 0.429565 -0.502500 153 0 76
0.509076 0.189978 -0.322527 153 0 76
-0.487190 -0.059697 0.580380 0 255 0
-0.163813 0.011232 -0.323800 153 0 76
-0.264950 -0.061174 0.580079 0 255 0
-0.348937 0.022855 0.511231 153 76 0
-0.356711 0.236992 -0.371613 153 0 76
-0.498505 0.009041 0.115017 204 51 127
0.289621 0.053442 -0.321364 153 0 76
-0.264991 0.228481 -0.390687 153 0 76
0.399601 0.360607 -0.413511 153 0 76
0.194503 -0.032432 0.110006 204 51 127
-0.527424 -0.000807 0.593355 153 0 76
-0.000268 -0.022228 0.233485 0 255 0
0.563918 -0.187527 0.579074 76 153 0
-0.172738 0.018550 0.474721 76 0 153
-0.354224 0.464808 -0.460943 153 0 76
0.456100 0.345121 -0.396917 153 0 76
0.620665 -0.593939 0.492784 76 0 153
0.073276 0.458934 -0.511419 153 0 76
-0.271227 -0.012013 0.149291 0 0 255
-0.402536 0.454515 -0.446958 153 0 76
0.531091 0.021537 0.444424 0 0 255
0.443456 -0.008538 -0.011503 153 76 0
-0.601007 -0.592264 0.100724 153 76 0
0.136237 -0.070721 0.592494 0 255 0
0.211178 -0.035459 0.589593 127 127 0
0.285602 -0.045981 -0.167268 0 127 127
0.582776 -0.310227 0.597607 76 153 0
-0.340052 0.538016 -0.497635 127 127 0
-0.078253 0.106769 -0.377798 153 0 76
0.518312 0.024105 0.218951 0 0 255
-0.021292 -0.013950 0.273287 127 127 0
-0.079737 -0.038840 0.033988 76 0 153
-0.354283 -0.033327 -0.130157 76 153 0
0.029876 0.515642 -0.551824 127 127 0
0.006331 -0.005622 0.316593 127 0 127
-0.141605 0.220640 -0.405954 153 0 76
-0.440770 -0.072679 0.596373 0 255 0
-0.547127 -0.223612 0.587647 76 0 153
0.628301 -0.591169 -0.220458 76 0 153
-0.565025 -0.388544 0.598198 76 0 153
-0.323456 -0.013694 0.156080 0 0 255
-0.086318 0.512498 -0.529836 127 127 0
0.516185 0.314875 -0.368446 153 0 76
0.497417 0.108509 -0.276212 153 0 76
-0.189765 0.010647 0.426025 153 0 76
0.108138 0.006562 0.385098 76 153 0
0.010378 -0.058126 -0.082662 153 0 76
-0.252014 0.005677 0.345055 0 127 127
-0.334772 0.012634 0.429618 153 0 76
-0.472109 0.005298 -0.085181 153 0 76
0.016997 -0.052155 -0.000653 153 76 0
0.514322 0.409093 -0.387990 153 0 76
0.628772 -0.576806 0.007424 76 0 153
-0.608009 -0.593832 0.063480 153 76 0
0.049999 -0.075625 -0.201671 127 0 127
-0.544850 -0.151166 0.597092 76 0 153
-0.190863 -0.047097 -0.008950 153 76 0
0.198319 0.013661 -0.323023 153 0 76
0.397488 0.005858 0.192657 255 0 0
-0.329677 -0.041071 -0.200388 127 0 127
0.409686 -0.058230 0.581020 0 255 0
0.515194 0.034953 0.508456 153 76 0
-0.325697 -0.029952 -0.050243 76 0 153
-0.376383 0.061080 -0.303284 153 0 76
0.546745 0.034551 0.356035 0 0 255
-0.402361 -0.057985 0.598335 0 255 0
0.091145 -0.059996 0.580279 0 255 0
0.537331 -0.048528 0.581385 127 127 0
-0.399398 0.305718 -0.387295 153 0 76
-0.430213 0.173962 -0.331553 153 0 76
-0.140167 -0.042642 -0.009764 153 76 0
0.223027 0.526951 -0.530065 127 127 0
0.551044 -0.093499 0.584760 76 153 0
0.341666 0.013996 0.385048 76 153 0
-0.152593 0.290397 -0.439803 153 0 76
0.280795 0.208117 -0.388073 153 0 76
-0.016409 0.006766 0.430019 153 0 76
0.482797 0.375634 -0.394708 153 0 76
-0.594525 -0.368944 -0.429732 153 0 76
0.544383 0.016638 0.211038 0 0 255
-0.351695 0.413906 -0.441504 153 0 76
0.630773 -0.583121 -0.164103 76 0 153
-0.101143 -0.072101 -0.169232 0 127 127
-0.603190 -0.574254 -0.099548 153 76 0
0.616981 -0.461446 -0.473365 0 127 127
0.602942 -0.561298 0.575467 76 153 0
0.061481 -0.057630 -0.082595 153 0 76
0.181660 0.000320 0.355487 0 127 127
0.327289 0.535136 -0.502307 127 127 0
-0.470710 0.025682 0.505050 153 76 0
-0.140333 0.033211 0.547280 76 0 153
0.455322 0.103140 -0.300540 153 0 76
0.157770 -0.052786 -0.047706 76 0 153
0.429740 0.546630 -0.474218 127 127 0
-0.489924 0.011337 -0.124904 255 0 0
0.420093 0.127185 -0.318100 153 0 76
0.488739 0.527772 -0.442949 127 127 0
0.595121 -0.498400 0.598260 76 153 0
-0.608245 -0.572492 -0.462275 153 76 0
-0.513543 0.027517 0.181298 255 0 0
0.599094 -0.422233 -0.438500 0 127 127
-0.268588 0.297968 -0.425465 153 0 76
-0.557973 -0.260145 0.599208 76 0 153
0.109638 0.516102 -0.530494 127 127 0
-0.375368 0.027804 0.469249 76 0 153
0.261235 -0.039762 0.598525 127 127 0
-0.491496 0.008910 -0.184257 255 0 0
-0.262031 0.009847 0.585573 153 0 76
-0.220605 -0.047038 -0.049421 76 0 153
-0.574190 -0.420545 0.598865 76 0 153
0.609565 -0.583952 -0.204287 76 0 153
0.312980 -0.046929 -0.209547 127 0 127
-0.045729 -0.074948 -0.202735 127 0 127
-0.598955 -0.577428 -0.129573 153 76 0
-0.103487 0.354409 -0.472041 153 0 76
-0.603368 -0.593227 -0.293038 153 76 0
0.208310 -0.041568 0.032173 76 0 153
0.120273 -0.047430 -0.000823 153 76 0
0.124296 0.460588 -0.512164 153 0 76
-0.004046 0.428218 -0.505293 153 0 76
0.211589 0.013232 0.469614 76 0 153
-0.493802 0.003152 0.028597 76 0 153
0.096474 -0.044830 0.028840 76 0 153
-0.459406 0.006603 0.146585 0 0 255
-0.337372 0.008133 0.315773 127 0 127
0.189858 -0.068360 0.599513 0 255 0
0.439458 0.453471 -0.442515 153 0 76
-0.034982 0.021536 0.467944 76 0 153
-0.328195 -0.040543 -0.169816 0 127 127
0.301592 -0.030308 -0.045888 76 0 153
0.537464 0.010095 0.182099 0 0 255
0.241569 0.082402 -0.339317 153 0 76
-0.616528 -0.589096 -0.424918 153 76 0
-0.104973 -0.028194 0.148020 0 0 255
0.573848 -0.324145 0.578784 76 153 0
0.207700 0.125274 -0.370947 153 0 76
0.115784 0.096686 -0.366811 153 0 76
0.251250 -0.041575 -0.049693 76 0 153
-0.161639 0.007865 0.395538 76 153 0
-0.129856 -0.055815 0.596167 0 255 0
0.191475 0.013237 0.434905 153 0 76
-0.518882 0.016003 0.323114 255 0 0
-0.096738 -0.073168 -0.202863 127 0 127
0.262874 0.046842 -0.322320 153 0 76
-0.099258 0.431332 -0.500867 153 0 76
0.406967 0.542006 -0.489844 127 127 0
0.013840 0.500395 -0.537365 127 127 0
0.090604 -0.026688 0.190542 255 0 0
0.066100 -0.044885 -0.006007 153 76 0
-0.087659 0.025555 0.552038 76 0 153
0.449019 0.026619 0.550042 76 0 153
-0.596622 -0.583998 0.450992 153 76 0
-0.281960 -0.048779 -0.206500 127 0 127
-0.037014 -0.004672 0.350632 0 127 127
0.036984 0.325973 -0.462396 153 0 76
-0.404597 -0.019947 -0.131356 76 153 0
-0.488248 0.050038 -0.255931 153 0 76
0.615818 -0.378155 -0.428563 0 127 127
0.505412 0.022871 0.269228 127 127 0
-0.529590 0.025907 0.569792 255 0 0
-0.280068 0.089395 -0.336735 153 0 76
-0.187838 0.434220 -0.492789 153 0 76
-0.428989 0.026294 0.549522 76 0 153
0.330323 0.018631 0.473800 76 0 153
-0.448803 0.012997 0.233536 0 255 0
0.476926 -0.003647 -0.049235 76 0 153
0.329757 -0.004389 0.187132 255 0 0
0.546828 0.025610 0.259437 0 0 255
0.533176 0.005553 0.056962 0 0 255
-0.210019 -0.057628 -0.169042 0 127 127
-0.566285 -0.306854 0.578249 76 0 153
0.630744 -0.584199 0.350445 76 0 153
-0.187005 -0.031439 0.112773 204 51 127
0.238725 -0.043263 -0.086042 153 0 76
0.015443 -0.055731 0.583249 0 255 0
-0.537193 0.018845 0.417158 255 0 0
-0.562330 -0.351683 0.597947 76 0 153
0.162738 0.020514 0.474097 76 0 153
0.057328 0.520252 -0.545727 127 127 0
0.374558 0.197946 -0.354126 153 0 76
-0.051251 -0.071534 -0.168566 0 127 127
0.101562 -0.081396 -0.204986 127 0 127
0.178100 0.452393 -0.501401 153 0 76
-0.022214 -0.054174 0.584952 127 127 0
0.520624 0.025716 0.248696 0 0 255
0.363167 0.275180 -0.388489 153 0 76
0.627918 -0.591528 0.458360 76 0 153
-0.437428 -0.007797 -0.042842 76 0 153
0.064058 0.005242 -0.339857 153 0 76
0.543620 0.016622 0.416794 0 0 255
-0.083388 0.320921 -0.452021 153 0 76
0.623220 -0.559811 -0.489610 0 127 127
0.089282 0.221073 -0.413059 153 0 76
-0.054402 0.282195 -0.446033 153 0 76
0.443493 -0.020548 -0.168153 0 127 127
0.359994 0.461161 -0.461342 153 0 76
0.604154 -0.535665 0.583758 76 153 0
-0.581556 -0.293884 -0.392258 153 0 76
-0.585121 -0.143983 -0.302194 153 0 76
0.327035 0.197489 -0.374352 153 0 76
0.365413 0.025518 -0.294280 153 0 76
-0.572873 -0.338514 0.580144 76 0 153
0.613634 -0.592108 -0.042118 76 0 153
0.011616 0.015637 0.464671 76 0 153
0.437586 0.385985 -0.406836 153 0 76
0.516311 0.500395 -0.427758 153 0 76
0.465711 0.029576 0.514253 153 76 0
0.607103 -0.263933 -0.374711 0 127 127
-0.567125 -0.471470 0.594014 76 0 153
0.283362 0.531698 -0.513971 127 127 0
0.508470 0.063950 -0.274128 153 0 76
-0.268162 0.046115 -0.323435 153 0 76
0.297184 -0.013549 0.111488 204 51 127
-0.171570 -0.048246 -0.039976 76 0 153
0.393868 0.172217 -0.345343 153 0 76
0.367356 0.305405 -0.407599 153 0 76
-0.048570 0.520388 -0.539176 127 127 0
0.205696 0.287106 -0.432992 153 0 76
0.186629 0.515614 -0.520156 127 127 0
0.154217 -0.008818 0.309469 127 0 127
0.488299 0.023226 0.471408 76 0 153
0.371079 0.523342 -0.502011 127 127 0
-0.385332 0.173112 -0.345422 153 0 76
-0.362400 -0.057049 0.581490 0 255 0
0.220368 0.147063 -0.374878 153 0 76
-0.079735 0.394909 -0.488788 153 0 76
-0.555631 0.007426 -0.249329 153 0 76
0.258198 -0.027648 0.037127 76 0 153
