ply
format ascii 1.0
element vertex 612
property float x
property float y
property float z
property float nx
property float ny
property float nz
property uchar red
property uchar green
property uchar blue
property float opacity
end_header
-0.433115 0.448923 -0.437614 -0.225062 -0.921638 -0.316118 255 255 255 1.000000
0.419243 0.450859 -0.438111 -0.267814 0.399590 0.876700 255 255 255 1.000000
0.582225 -0.081204 -0.290781 0.302031 -0.394984 0.867620 255 255 255 1.000000
0.259488 0.185163 -0.386630 0.164695 -0.407621 -0.898176 255 255 255 1.000000
0.384239 0.345154 -0.412998 -0.014652 -0.911570 0.410883 255 255 255 1.000000
-0.208106 0.366104 -0.453521 0.168009 0.407582 0.897580 255 255 255 1.000000
-0.529848 0.014216 0.303000 0.455470 0.890172 -0.011907 255 255 255 1.000000
-0.227498 -0.013506 0.235232 0.062785 0.916738 -0.394525 255 255 255 1.000000
0.281719 -0.011323 0.233723 -0.062723 0.916736 -0.394540 255 255 255 1.000000
-0.503820 0.009641 0.011587 -0.912558 0.401454 -0.077927 255 255 255 1.000000
-0.172241 0.329993 -0.445003 -0.115035 -0.410307 -0.904663 255 255 255 1.000000
0.006426 0.000932 -0.331648 0.000596 -0.352403 0.935848 255 255 255 1.000000
-0.174471 -0.054552 -0.123037 0.085820 0.925208 0.369629 255 255 255 1.000000
-0.323378 -0.035139 -0.165232 0.181263 0.900560 -0.395139 255 255 255 1.000000
0.142202 -0.043547 -0.002133 -0.071638 0.926248 0.370045 255 255 255 1.000000
0.616069 -0.593069 -0.226768 0.422354 0.906431 -0.000354 255 255 255 1.000000
0.519992 0.097060 -0.283604 0.689096 -0.251863 -0.679494 255 255 255 1.000000
-0.617878 -0.582480 0.340472 -0.989361 0.145481 -0.000504 255 255 255 1.000000
-0.034420 0.515231 -0.551348 0.029825 -0.426212 0.904132 255 255 255 1.000000
-0.234415 0.015549 0.434771 -0.010620 -0.394195 -0.918965 255 255 255 1.000000
0.320708 -0.043593 -0.170143 -0.070287 0.389061 0.918527 255 255 255 1.000000
0.002977 0.007054 0.427576 0.000001 -0.928659 -0.370934 255 255 255 1.000000
-0.428866 0.492561 -0.448698 0.192126 0.925741 0.325716 255 255 255 1.000000
0.393217 0.001650 0.196167 0.044945 -0.391958 -0.918885 255 255 255 1.000000
-0.067623 0.217689 -0.411445 -0.059274 -0.411927 -0.909287 255 255 255 1.000000
0.046818 0.317762 -0.461433 -0.037931 0.935454 0.351407 255 255 255 1.000000
-0.507186 0.020334 -0.072645 -0.265406 -0.963863 0.022980 255 255 255 1.000000
-0.502341 0.496099 -0.435494 0.893680 0.148666 0.423360 255 255 255 1.000000
-0.165808 0.109396 -0.365263 0.006236 -0.911090 0.412160 255 255 255 1.000000
-0.302851 -0.007483 0.151598 0.103003 0.913067 -0.394587 255 255 255 1.000000
-0.393917 0.273133 -0.373458 -0.268902 -0.399244 -0.876525 255 255 255 1.000000
-0.536214 -0.037542 0.580184 0.307540 0.267243 0.913236 255 255 255 1.000000
-0.574517 -0.257819 -0.362755 -0.985364 0.124949 -0.115957 255 255 255 1.000000
0.488422 0.007628 -0.047040 0.190750 -0.802845 -0.564848 255 255 255 1.000000
-0.104159 0.433021 -0.492891 0.059750 0.412203 0.909131 255 255 255 1.000000
0.196007 -0.060312 -0.160449 -0.035832 0.394190 0.918330 255 255 255 1.000000
0.386290 0.200146 -0.351543 -0.265655 0.399511 0.877393 255 255 255 1.000000
0.013188 0.251342 -0.436913 0.000600 -0.352101 0.935962 255 255 255 1.000000
0.321112 -0.024013 0.038406 0.056956 -0.366172 0.928802 255 255 255 1.000000
0.470678 -0.044827 0.599972 0.000291 0.013800 -0.999905 255 255 255 1.000000
-0.238100 0.470427 -0.489024 -0.125833 0.355756 -0.926069 255 255 255 1.000000
0.239792 -0.015801 0.148961 0.077825 -0.915522 0.394667 255 255 255 1.000000
0.370068 0.001645 0.190060 -0.115955 0.911580 -0.394432 255 255 255 1.000000
0.463324 -0.038906 0.581194 -0.000234 0.578100 -0.815966 255 255 255 1.000000
-0.226042 -0.033681 -0.006649 -0.107543 -0.912369 0.394991 255 255 255 1.000000
0.273192 -0.056414 -0.162126 0.137576 -0.908149 0.395397 255 255 255 1.000000
0.012425 0.423077 -0.499998 0.000045 -0.910782 0.412887 255 255 255 1.000000
-0.420020 0.016931 0.314265 -0.031427 -0.393125 -0.918948 255 255 255 1.000000
0.104134 0.001783 0.392233 -0.011364 0.918872 -0.394391 255 255 255 1.000000
0.022173 -0.044184 0.070712 0.000461 0.928940 0.370229 255 255 255 1.000000
0.431675 -0.048214 0.579853 0.000000 -0.294269 -0.955723 255 255 255 1.000000
0.396861 -0.012911 -0.045997 0.183640 -0.910499 -0.370497 255 255 255 1.000000
0.494403 -0.037560 0.582324 0.000049 -0.702749 0.711438 255 255 255 1.000000
-0.439300 0.100625 -0.303149 -0.231417 0.365788 -0.901469 255 255 255 1.000000
0.571458 -0.337931 0.582033 0.716200 0.050951 0.696033 255 255 255 1.000000
-0.544330 -0.064833 0.591610 -0.539047 0.822304 0.182328 255 255 255 1.000000
0.024637 0.246422 -0.432248 0.000538 0.935805 0.352518 255 255 255 1.000000
-0.401330 0.025241 0.432399 0.045144 0.927541 0.370986 255 255 255 1.000000
-0.265039 -0.015920 0.189565 0.069064 0.926201 0.370651 255 255 255 1.000000
-0.010205 0.433221 -0.500390 -0.000542 -0.935882 -0.352312 255 255 255 1.000000
0.299089 0.004908 0.588629 0.000000 0.928628 0.371012 255 255 255 1.000000
0.311078 0.338065 -0.424527 -0.145469 0.930040 0.337438 255 255 255 1.000000
0.475427 -0.003596 -0.005989 -0.239100 0.897474 0.370636 255 255 255 1.000000
0.013434 -0.003321 0.354832 -0.000003 0.370861 -0.928688 255 255 255 1.000000
0.400807 0.166410 -0.334295 0.265348 -0.399495 -0.877493 255 255 255 1.000000
0.600183 -0.266627 -0.357747 -0.158289 0.418215 -0.894450 255 255 255 1.000000
0.107887 0.520252 -0.534421 -0.083819 0.902650 0.422134 255 255 255 1.000000
-0.019475 -0.038930 0.111509 0.000423 0.928891 0.370354 255 255 255 1.000000
0.418227 -0.073721 0.585741 -0.000536 -0.936969 -0.349412 255 255 255 1.000000
-0.026375 0.508027 -0.552800 0.041898 0.116140 0.992349 255 255 255 1.000000
0.358484 0.482746 -0.476675 -0.200059 -0.361845 0.910519 255 255 255 1.000000
-0.123930 0.399202 -0.478973 0.077084 0.934265 0.348149 255 255 255 1.000000
-0.246687 -0.042262 -0.089306 -0.053072 -0.366317 0.928975 255 255 255 1.000000
-0.123460 0.019105 0.465093 0.005929 0.370970 -0.928626 255 255 255 1.000000
-0.205632 -0.034647 0.588677 -0.001255 -0.999308 0.037173 255 255 255 1.000000
0.051715 -0.030417 0.148496 0.010141 -0.394687 -0.918760 255 255 255 1.000000
-0.266649 0.221186 -0.395683 -0.111762 -0.932392 -0.343736 255 255 255 1.000000
-0.617326 -0.587452 -0.060446 -0.906430 -0.422355 0.000001 255 255 255 1.000000
0.069846 0.353706 -0.469452 -0.003123 -0.910857 0.412709 255 255 255 1.000000
-0.601182 -0.591844 -0.391160 -0.616944 0.787007 -0.000094 255 255 255 1.000000
-0.096384 0.363434 -0.470699 -0.003275 0.910866 -0.412690 255 255 255 1.000000
0.099631 -0.072887 0.595025 0.000000 0.823028 -0.568001 255 255 255 1.000000
-0.179070 -0.008638 0.229173 0.041979 0.917898 -0.394590 255 255 255 1.000000
-0.232776 0.469675 -0.499404 -0.168640 -0.407689 -0.897413 255 255 255 1.000000
0.124499 0.040886 -0.340081 -0.082410 -0.354072 0.931580 255 255 255 1.000000
0.615380 -0.592580 0.079093 -0.505418 -0.862874 0.000759 255 255 255 1.000000
0.340349 0.480270 -0.480907 0.163167 0.358457 -0.919176 255 255 255 1.000000
-0.174229 -0.001605 0.352733 0.027662 0.918517 -0.394414 255 255 255 1.000000
0.008288 -0.065643 0.579355 0.000000 -0.236374 -0.971662 255 255 255 1.000000
0.514581 0.338994 -0.360151 -0.550503 -0.310346 -0.775005 255 255 255 1.000000
-0.384449 -0.034133 -0.206863 0.230996 0.899754 0.370249 255 255 255 1.000000
0.521347 0.015888 -0.191487 0.391950 0.919962 -0.006692 255 255 255 1.000000
0.616175 -0.375710 -0.422946 0.985326 0.125463 -0.115720 255 255 255 1.000000
0.592616 -0.556081 0.597685 0.340782 0.052656 -0.938667 255 255 255 1.000000
-0.298103 -0.045080 -0.159900 -0.070522 -0.389016 -0.918528 255 255 255 1.000000
0.373737 -0.032384 -0.170573 -0.096199 0.357874 -0.928801 255 255 255 1.000000
-0.156309 0.464724 -0.500804 -0.086283 0.353675 -0.931380 255 255 255 1.000000
-0.152704 0.148861 -0.387168 0.085255 -0.354024 0.931342 255 255 255 1.000000
-0.466317 0.013341 0.149421 0.137235 0.908611 -0.394452 255 255 255 1.000000
0.026867 -0.057232 -0.039975 0.000257 0.395483 0.918473 255 255 255 1.000000
-0.045840 -0.073347 -0.124337 -0.043115 -0.928217 -0.369532 255 255 255 1.000000
0.417802 -0.020992 -0.209473 -0.101132 0.356471 -0.928817 255 255 255 1.000000
-0.299642 -0.074282 0.587889 0.000004 -0.988685 -0.150008 255 255 255 1.000000
-0.601741 -0.575514 0.131360 0.613794 0.789466 -0.000904 255 255 255 1.000000
-0.408075 0.487138 -0.451444 0.270774 0.399342 0.875904 255 255 255 1.000000
0.187128 -0.022199 0.194669 0.047508 -0.917602 0.394650 255 255 255 1.000000
0.059978 0.184713 -0.406846 0.003091 0.910945 -0.412516 255 255 255 1.000000
-0.422327 0.017422 0.345531 0.030070 0.369775 -0.928635 255 255 255 1.000000
0.021696 -0.050443 0.598348 0.000000 0.362749 -0.931887 255 255 255 1.000000
0.239729 -0.057907 -0.201377 -0.142818 0.918159 0.369577 255 255 255 1.000000
-0.414865 0.034176 0.544925 0.004967 0.370984 -0.928626 255 255 255 1.000000
-0.470647 0.354542 -0.379247 -0.233699 0.194672 -0.952621 255 255 255 1.000000
0.258731 -0.022111 0.073723 -0.090924 0.924409 0.370407 255 255 255 1.000000
-0.551681 -0.262099 0.583973 0.842137 -0.061683 -0.535725 255 255 255 1.000000
-0.492800 0.086532 -0.263819 -0.750479 -0.227826 -0.620384 255 255 255 1.000000
-0.329712 -0.002548 0.270062 -0.072489 -0.925875 -0.370811 255 255 255 1.000000
-0.485956 0.027333 0.387615 -0.062785 -0.831832 0.551466 255 255 255 1.000000
0.115880 0.355447 -0.465434 -0.042394 -0.352458 0.934867 255 255 255 1.000000
-0.510857 0.026192 -0.240496 0.886786 -0.345895 -0.306540 255 255 255 1.000000
-0.196435 0.028780 0.509775 -0.008902 -0.928588 -0.371006 255 255 255 1.000000
-0.156854 -0.067699 -0.200184 -0.039184 -0.393975 -0.918286 255 255 255 1.000000
-0.318424 -0.044288 -0.169023 -0.070524 -0.389021 -0.918526 255 255 255 1.000000
-0.475117 0.004516 -0.126399 -0.241809 -0.889943 -0.386692 255 255 255 1.000000
-0.547804 0.019655 0.576551 -0.841391 -0.352414 -0.409715 255 255 255 1.000000
-0.274147 -0.025171 0.037161 0.038817 0.393110 0.918672 255 255 255 1.000000
0.612289 -0.365678 -0.425040 0.611875 0.377297 -0.695167 255 255 255 1.000000
0.319498 -0.032431 -0.008443 0.138769 -0.918464 -0.370361 255 255 255 1.000000
-0.404096 0.136360 -0.322280 0.014621 -0.911685 0.410629 255 255 255 1.000000
0.104304 -0.049943 -0.010492 -0.014181 0.395094 0.918531 255 255 255 1.000000
0.139297 0.143472 -0.382377 0.006064 0.911066 -0.412216 255 255 255 1.000000
-0.066770 -0.038104 0.111839 -0.027689 -0.928471 -0.370371 255 255 255 1.000000
-0.437812 -0.006794 -0.041773 -0.094486 -0.358699 0.928659 255 255 255 1.000000
-0.464076 0.028640 0.431801 0.053153 0.927109 0.371004 255 255 255 1.000000
-0.027645 -0.075019 -0.168806 -0.000253 -0.395993 -0.918253 255 255 255 1.000000
-0.031911 -0.026679 0.188889 0.000138 0.394761 0.918784 255 255 255 1.000000
-0.020158 0.246313 -0.431890 0.000538 0.935805 0.352518 255 255 255 1.000000
0.223816 0.014281 0.591057 0.000000 0.928624 0.371022 255 255 255 1.000000
-0.258060 -0.053085 -0.124181 0.130436 0.909242 -0.395305 255 255 255 1.000000
0.230722 -0.058889 -0.125461 -0.128272 0.920196 0.369846 255 255 255 1.000000
-0.352999 0.011519 0.314222 0.063243 0.926524 0.370881 255 255 255 1.000000
-0.120251 -0.043926 -0.002694 -0.070445 -0.926342 -0.370038 255 255 255 1.000000
0.478196 -0.037414 0.596794 0.000000 -0.711494 -0.702693 255 255 255 1.000000
0.524474 0.018695 0.203715 0.965367 0.257528 -0.041777 255 255 255 1.000000
0.451307 0.418950 -0.425366 -0.189807 -0.532254 0.825032 255 255 255 1.000000
0.019738 0.027504 0.553730 0.000006 0.371017 -0.928626 255 255 255 1.000000
0.627758 -0.538825 -0.499903 -0.995559 -0.086119 0.038024 255 255 255 1.000000
-0.568623 -0.116320 -0.287344 -0.572983 0.387065 -0.722407 255 255 255 1.000000
-0.533240 0.021448 0.234623 0.997335 -0.056462 0.046201 255 255 255 1.000000
0.117784 0.076675 -0.354418 0.056225 -0.411862 -0.909510 255 255 255 1.000000
-0.343353 -0.033885 -0.087918 0.158583 0.915329 0.370168 255 255 255 1.000000
0.126529 0.005303 0.587642 0.000000 0.928628 0.371012 255 255 255 1.000000
-0.030173 0.215927 -0.423164 0.000803 0.412547 0.910936 255 255 255 1.000000
0.284424 0.363003 -0.449381 -0.145638 0.930038 0.337370 255 255 255 1.000000
0.548998 -0.075768 0.599163 -0.304944 -0.206814 0.929643 255 255 255 1.000000
0.630633 -0.585622 0.209131 0.988342 -0.152247 -0.000889 255 255 255 1.000000
-0.060161 0.008391 0.584236 0.000000 0.394274 0.918993 255 255 255 1.000000
0.521792 0.011342 0.593565 0.018437 -0.839047 -0.543747 255 255 255 1.000000
0.243484 0.403411 -0.463865 -0.165927 0.407775 0.897879 255 255 255 1.000000
0.298840 0.329165 -0.433733 0.145469 -0.930040 -0.337438 255 255 255 1.000000
-0.504341 0.376522 -0.389248 0.859308 0.172000 0.481669 255 255 255 1.000000
0.156093 0.004152 -0.324098 0.082304 0.354067 -0.931591 255 255 255 1.000000
-0.334827 0.022241 -0.301428 -0.011826 0.911479 -0.411176 255 255 255 1.000000
-0.367769 -0.008173 0.148257 0.049688 0.391394 0.918881 255 255 255 1.000000
-0.087420 0.008315 0.433888 0.003912 0.370942 -0.928648 255 255 255 1.000000
-0.614793 -0.591221 0.315626 -0.689482 -0.724303 -0.000000 255 255 255 1.000000
0.252291 0.033194 0.546025 0.006780 -0.918957 0.394299 255 255 255 1.000000
-0.097831 0.028060 0.509459 -0.004521 -0.928618 -0.371011 255 255 255 1.000000
0.206885 0.074763 -0.349526 0.008956 0.911246 -0.411765 255 255 255 1.000000
0.058894 0.073618 -0.367121 -0.056221 0.411821 0.909529 255 255 255 1.000000
-0.177048 -0.073142 0.594655 0.000000 0.823028 -0.568001 255 255 255 1.000000
0.417700 0.235341 -0.366375 -0.265962 0.399524 0.877294 255 255 255 1.000000
0.572964 -0.276320 0.578849 0.238147 0.015664 0.971103 255 255 255 1.000000
-0.148463 -0.062679 -0.166530 -0.094983 -0.913498 0.395601 255 255 255 1.000000
-0.095684 0.022465 0.469488 0.006742 0.918942 -0.394336 255 255 255 1.000000
0.199091 -0.074184 0.591823 0.000000 0.971665 -0.236361 255 255 255 1.000000
-0.186339 0.223672 -0.409944 -0.085477 0.353971 -0.931342 255 255 255 1.000000
-0.570946 -0.405100 0.578399 0.001010 0.002436 -0.999997 255 255 255 1.000000
0.404239 -0.003783 0.117024 0.054157 -0.390894 -0.918841 255 255 255 1.000000
-0.040010 -0.038199 0.110077 -0.027689 -0.928471 -0.370371 255 255 255 1.000000
0.217009 0.008938 -0.316279 -0.122061 -0.356098 0.926442 255 255 255 1.000000
-0.222614 0.325290 -0.445227 -0.167801 -0.407589 -0.897616 255 255 255 1.000000
-0.360949 0.022443 0.464497 -0.010569 -0.394188 -0.918969 255 255 255 1.000000
-0.325989 0.154396 -0.354000 -0.145741 -0.929938 -0.337601 255 255 255 1.000000
0.192201 -0.065480 -0.200232 -0.038000 0.394112 0.918277 255 255 255 1.000000
-0.243608 -0.015537 0.148338 0.033653 0.369108 -0.928777 255 255 255 1.000000
-0.363648 0.000098 0.270232 0.091174 0.924195 0.370879 255 255 255 1.000000
0.459778 0.246777 -0.352415 0.011395 0.911267 -0.411658 255 255 255 1.000000
0.214008 0.080600 -0.354064 -0.122373 -0.356036 0.926425 255 255 255 1.000000
-0.172790 0.188894 -0.396201 -0.006263 0.911053 -0.412242 255 255 255 1.000000
-0.581827 -0.104648 -0.283958 -0.757269 -0.238584 0.607965 255 255 255 1.000000
-0.265044 -0.047590 -0.130101 0.050721 0.392205 0.918478 255 255 255 1.000000
0.497640 -0.002162 -0.124058 0.280223 -0.885539 -0.370535 255 255 255 1.000000
-0.147152 -0.012694 0.268543 -0.036451 -0.928022 -0.370738 255 255 255 1.000000
0.121894 -0.069974 -0.123718 0.044597 -0.917359 0.395555 255 255 255 1.000000
-0.484548 0.433214 -0.407098 -0.998954 0.035660 0.028623 255 255 255 1.000000
-0.280423 0.265676 -0.407849 -0.011993 0.911364 -0.411427 255 255 255 1.000000
-0.466979 0.382045 -0.395703 -0.023346 0.912490 -0.408432 255 255 255 1.000000
0.142796 0.291176 -0.435010 0.111496 -0.410433 -0.905049 255 255 255 1.000000
-0.224294 0.360245 -0.457733 0.112297 0.932424 0.343476 255 255 255 1.000000
0.344725 -0.001140 0.226506 -0.036135 0.369038 -0.928712 255 255 255 1.000000
-0.397571 0.063657 -0.292031 -0.267054 -0.399217 -0.877102 255 255 255 1.000000
0.418782 -0.048675 0.599251 0.000000 0.410151 -0.912018 255 255 255 1.000000
-0.604724 -0.593686 0.351497 0.250358 -0.968153 -0.000412 255 255 255 1.000000
-0.469897 0.178661 -0.318629 0.010932 -0.911237 0.411737 255 255 255 1.000000
0.590944 -0.302392 -0.389271 -0.965491 0.054312 -0.254712 255 255 255 1.000000
0.571259 -0.309795 0.597469 -0.534120 -0.041260 0.844401 255 255 255 1.000000
0.252791 0.117033 -0.351850 -0.122535 -0.355965 0.926431 255 255 255 1.000000
0.210668 0.025162 0.552106 0.004525 -0.918975 0.394290 255 255 255 1.000000
0.623593 -0.593643 -0.083661 -0.349202 0.937047 0.000000 255 255 255 1.000000
0.573478 -0.150670 0.583032 0.792118 0.060100 -0.607402 255 255 255 1.000000
0.090538 -0.011462 0.276564 0.007993 -0.370669 0.928731 255 255 255 1.000000
0.353310 0.024205 -0.296043 -0.143976 0.930018 0.338138 255 255 255 1.000000
-0.017189 0.281624 -0.445236 0.000044 -0.910863 0.412709 255 255 255 1.000000
0.003381 0.517476 -0.537187 0.031857 -0.802817 -0.595373 255 255 255 1.000000
-0.395295 0.523429 -0.485952 0.190457 0.945831 0.262925 255 255 255 1.000000
0.507942 0.259178 -0.327634 -0.221432 0.349802 0.910278 255 255 255 1.000000
-0.422952 0.128416 -0.316099 0.014621 -0.911685 0.410629 255 255 255 1.000000
-0.530887 -0.077078 0.596281 0.418455 -0.640283 0.644153 255 255 255 1.000000
-0.366736 -0.001076 0.227465 0.040595 0.392339 0.918925 255 255 255 1.000000
-0.598543 -0.578940 0.417056 -0.887171 -0.461440 -0.000000 255 255 255 1.000000
0.069198 0.255796 -0.433367 -0.003101 -0.910917 0.412578 255 255 255 1.000000
-0.250910 0.432514 -0.480583 0.112567 0.932436 0.343355 255 255 255 1.000000
-0.470076 0.546332 -0.467824 -0.312321 0.421618 -0.851290 255 255 255 1.000000
0.432662 -0.001392 0.107338 -0.054150 0.390851 0.918860 255 255 255 1.000000
0.535716 0.009546 -0.244537 0.017450 0.412707 0.910697 255 255 255 1.000000
0.444295 0.011180 0.265905 -0.035833 0.392806 0.918923 255 255 255 1.000000
-0.006926 -0.012580 0.276499 -0.000017 0.370757 -0.928730 255 255 255 1.000000
-0.616358 -0.589379 0.433267 0.841382 0.540441 0.000196 255 255 255 1.000000
0.035435 -0.074834 -0.158892 0.000282 0.369540 -0.929215 255 255 255 1.000000
-0.207925 0.221411 -0.407899 0.167177 0.407492 0.897776 255 255 255 1.000000
-0.502467 0.364982 -0.371268 -0.660627 0.282006 0.695734 255 255 255 1.000000
-0.283754 0.013014 0.584706 0.000000 0.371017 -0.928626 255 255 255 1.000000
-0.166144 -0.012628 0.236875 0.016265 0.394293 0.918841 255 255 255 1.000000
0.606995 -0.286121 -0.370484 0.788419 -0.220218 0.574368 255 255 255 1.000000
0.611225 -0.579448 0.280272 0.906419 -0.422379 -0.000000 255 255 255 1.000000
-0.468754 0.318831 -0.366791 0.206570 0.971166 0.119016 255 255 255 1.000000
-0.269290 0.029890 0.508867 -0.013720 -0.918882 0.394294 255 255 255 1.000000
0.074158 0.014990 0.465441 -0.002616 0.394318 0.918970 255 255 255 1.000000
-0.466071 0.022000 0.312698 -0.093865 -0.923886 -0.370976 255 255 255 1.000000
-0.473090 0.019031 0.266404 0.053071 0.367339 -0.928572 255 255 255 1.000000
0.366389 -0.032744 -0.086285 0.195320 -0.908092 -0.370432 255 255 255 1.000000
0.341560 0.000937 0.310618 0.063318 -0.926521 -0.370877 255 255 255 1.000000
-0.370519 -0.027169 -0.169545 -0.096474 -0.357802 0.928801 255 255 255 1.000000
-0.193428 -0.056865 -0.119730 0.033983 0.394199 0.918397 255 255 255 1.000000
-0.184195 -0.020892 0.157108 -0.020012 -0.394255 -0.918783 255 255 255 1.000000
-0.087934 -0.035676 0.117291 0.012216 0.370233 -0.928859 255 255 255 1.000000
0.316507 0.024991 0.547838 0.008861 -0.928587 -0.371008 255 255 255 1.000000
0.119433 -0.068308 -0.168208 0.020165 -0.369039 0.929195 255 255 255 1.000000
0.311249 0.299186 -0.409184 0.217369 -0.403971 -0.888571 255 255 255 1.000000
-0.319996 0.015224 0.385732 -0.019837 -0.370402 0.928660 255 255 255 1.000000
-0.314260 0.446681 -0.465375 -0.147087 -0.929957 -0.336966 255 255 255 1.000000
-0.167427 -0.040396 -0.008749 -0.071762 -0.915830 0.395102 255 255 255 1.000000
-0.525999 0.010623 0.181667 -0.455470 -0.890172 0.011907 255 255 255 1.000000
-0.111253 -0.054892 0.587353 0.001112 -0.931880 -0.362765 255 255 255 1.000000
-0.193885 0.013795 -0.322073 0.076047 0.934133 0.348731 255 255 255 1.000000
0.383642 -0.011633 0.115520 0.139630 -0.908225 0.394501 255 255 255 1.000000
0.196338 0.025387 0.504771 -0.003935 0.370995 -0.928627 255 255 255 1.000000
0.372611 -0.026378 -0.091134 -0.077320 0.387292 0.918709 255 255 255 1.000000
0.043952 -0.058583 -0.082993 0.000648 0.929167 0.369660 255 255 255 1.000000
0.427673 0.484402 -0.450268 -0.200061 -0.361831 0.910524 255 255 255 1.000000
0.421130 0.024668 0.433527 -0.017733 0.393940 0.918965 255 255 255 1.000000
-0.170243 0.394863 -0.471774 -0.086053 0.353744 -0.931375 255 255 255 1.000000
-0.440172 0.006902 0.592606 0.000000 -0.371017 0.928626 255 255 255 1.000000
-0.192586 0.012156 0.434646 -0.007933 -0.370879 0.928647 255 255 255 1.000000
-0.462933 0.005297 0.077072 0.068584 0.388483 0.918900 255 255 255 1.000000
-0.410299 0.526286 -0.483948 -0.248189 -0.831374 -0.497211 255 255 255 1.000000
0.232543 0.029147 0.554026 0.002625 -0.394288 -0.918983 255 255 255 1.000000
0.206000 0.328214 -0.441370 -0.165514 0.407707 0.897987 255 255 255 1.000000
-0.298793 -0.054921 0.587302 -0.000447 0.962825 0.270124 255 255 255 1.000000
-0.600214 -0.590851 0.019253 0.789467 -0.613792 0.000905 255 255 255 1.000000
-0.174820 0.251932 -0.424424 0.114740 0.410219 0.904740 255 255 255 1.000000
-0.142055 0.025701 0.513414 0.003513 0.394285 0.918981 255 255 255 1.000000
-0.500477 -0.004598 -0.208978 -0.269285 0.961986 -0.045483 255 255 255 1.000000
0.425856 0.023373 0.507303 -0.022386 0.928361 0.371006 255 255 255 1.000000
-0.396151 0.026533 0.546358 -0.011239 -0.928560 -0.371012 255 255 255 1.000000
-0.151073 0.019677 0.512715 0.009076 0.918934 -0.394306 255 255 255 1.000000
-0.328212 0.197142 -0.371616 -0.162786 0.358772 -0.919121 255 255 255 1.000000
0.458882 0.025846 0.389868 -0.031224 0.918499 -0.394189 255 255 255 1.000000
0.422763 0.482288 -0.459664 0.268127 -0.399612 -0.876594 255 255 255 1.000000
0.192275 0.033543 0.550107 -0.004438 0.928613 0.371022 255 255 255 1.000000
-0.269525 0.510750 -0.514672 -0.082450 -0.994842 -0.059089 255 255 255 1.000000
-0.041680 0.000298 0.355901 0.005284 0.394402 0.918923 255 255 255 1.000000
0.056703 -0.081220 -0.199033 -0.021335 0.368853 -0.929243 255 255 255 1.000000
-0.550818 -0.078903 0.597056 -0.594060 0.367996 0.715312 255 255 255 1.000000
-0.289442 0.011785 0.428449 -0.035815 -0.927953 -0.370973 255 255 255 1.000000
0.319190 0.014596 0.590267 0.000000 0.928624 0.371022 255 255 255 1.000000
0.199042 0.001568 0.307558 0.032407 -0.918335 0.394474 255 255 255 1.000000
0.129573 -0.019230 0.187941 0.010240 -0.370505 0.928774 255 255 255 1.000000
-0.597522 -0.580361 -0.474862 0.973373 0.228652 0.016254 255 255 255 1.000000
-0.186062 -0.016865 0.230358 0.041185 0.927851 0.370669 255 255 255 1.000000
0.029203 0.467547 -0.516620 0.000045 -0.910767 0.412920 255 255 255 1.000000
-0.287756 0.188862 -0.379626 -0.218242 -0.403804 -0.888433 255 255 255 1.000000
0.206958 -0.033340 0.037054 -0.066527 0.926573 0.370184 255 255 255 1.000000
-0.059370 0.467604 -0.516297 0.003296 -0.910804 0.412826 255 255 255 1.000000
-0.026457 0.427567 -0.495481 0.000602 -0.351908 0.936034 255 255 255 1.000000
0.430270 0.004144 0.227457 -0.040406 0.392385 0.918913 255 255 255 1.000000
-0.082063 -0.059966 -0.043899 0.038560 0.917737 -0.395312 255 255 255 1.000000
-0.351513 0.014398 0.431620 0.036514 0.918240 -0.394337 255 255 255 1.000000
0.138972 -0.006070 0.267859 0.016108 -0.370426 0.928722 255 255 255 1.000000
-0.613571 -0.592230 0.253356 -0.613794 -0.789466 -0.000904 255 255 255 1.000000
0.587298 -0.205147 -0.347968 0.657514 -0.287567 0.696406 255 255 255 1.000000
0.101025 -0.055358 -0.040150 0.016918 -0.369635 0.929023 255 255 255 1.000000
0.264805 0.226929 -0.391665 0.164897 -0.407620 -0.898140 255 255 255 1.000000
-0.536552 -0.069790 0.579340 0.075660 -0.117962 0.990132 255 255 255 1.000000
0.309310 0.034536 0.548100 0.009035 -0.918938 0.394298 255 255 255 1.000000
0.551159 0.021123 0.384635 0.832991 -0.553026 -0.016963 255 255 255 1.000000
0.625203 -0.574694 0.152673 0.505418 0.862874 -0.000783 255 255 255 1.000000
-0.603508 -0.574370 -0.086686 0.349210 0.937044 0.000000 255 255 255 1.000000
0.579945 -0.442534 0.581031 0.679988 0.048648 0.731608 255 255 255 1.000000
0.084073 0.325711 -0.461305 0.042336 0.352462 -0.934868 255 255 255 1.000000
0.052228 0.008747 0.386598 -0.004925 0.370886 -0.928665 255 255 255 1.000000
0.352320 0.536548 -0.492202 0.195482 -0.873411 -0.446028 255 255 255 1.000000
0.550346 0.040980 0.502399 -0.269199 -0.961956 0.046602 255 255 255 1.000000
0.348053 0.473867 -0.474056 -0.012048 -0.911252 0.411672 255 255 255 1.000000
-0.501467 0.437331 -0.399650 0.724570 -0.260676 -0.638001 255 255 255 1.000000
0.437623 0.017240 0.385755 0.022227 -0.393720 -0.918962 255 255 255 1.000000
-0.425736 0.270522 -0.369223 -0.023218 0.912536 -0.408337 255 255 255 1.000000
-0.006572 -0.063562 -0.079740 -0.000286 -0.369833 0.929098 255 255 255 1.000000
0.035006 -0.014395 0.267712 0.000016 -0.394550 -0.918874 255 255 255 1.000000
-0.249659 0.468414 -0.488517 -0.009287 0.911063 -0.412162 255 255 255 1.000000
0.195890 -0.008050 0.266690 0.014404 -0.394257 -0.918887 255 255 255 1.000000
-0.044084 0.011157 0.593392 0.000000 -0.394296 -0.918983 255 255 255 1.000000
-0.511493 0.000699 -0.219692 0.833138 0.544786 0.095337 255 255 255 1.000000
-0.321542 -0.044255 -0.199692 -0.074536 -0.388351 -0.918492 255 255 255 1.000000
-0.296492 0.028614 0.512960 -0.007142 -0.394234 -0.918982 255 255 255 1.000000
-0.256918 -0.034324 0.030081 0.098159 0.923713 0.370297 255 255 255 1.000000
0.396183 0.018229 -0.286312 -0.176620 0.927108 0.330570 255 255 255 1.000000
-0.424069 0.547105 -0.475266 0.076233 0.985677 -0.150434 255 255 255 1.000000
0.181913 0.019601 0.474265 -0.005294 0.394245 0.918990 255 255 255 1.000000
-0.304505 0.026329 0.469418 0.027303 0.918565 -0.394326 255 255 255 1.000000
-0.383774 0.163144 -0.344849 -0.267973 -0.399244 -0.876809 255 255 255 1.000000
0.115736 -0.047227 0.037082 0.033870 -0.918030 0.395062 255 255 255 1.000000
-0.235719 0.024818 0.504244 0.005947 0.370971 -0.928625 255 255 255 1.000000
0.039091 -0.010386 0.309517 -0.000008 0.928721 0.370780 255 255 255 1.000000
0.192741 0.331434 -0.447235 -0.074624 0.934333 0.348502 255 255 255 1.000000
0.366016 0.519525 -0.499170 -0.195476 0.873411 0.446029 255 255 255 1.000000
0.066970 0.178399 -0.399128 0.042106 0.352621 -0.934818 255 255 255 1.000000
0.503434 0.030971 0.472696 -0.023915 0.928342 0.370956 255 255 255 1.000000
-0.609745 -0.573708 -0.065667 0.152271 -0.988338 -0.000875 255 255 255 1.000000
0.501676 0.477233 -0.413266 -0.482280 0.309880 0.819378 255 255 255 1.000000
0.117923 0.396822 -0.487066 0.042453 0.352377 -0.934895 255 255 255 1.000000
-0.405989 0.167000 -0.339798 0.199866 -0.362219 0.910412 255 255 255 1.000000
0.546823 0.042567 0.555872 -0.294428 0.948717 0.115101 255 255 255 1.000000
-0.359512 0.033568 0.544964 0.003987 0.370996 -0.928626 255 255 255 1.000000
0.172014 -0.068697 -0.208142 -0.042044 0.367194 -0.929194 255 255 255 1.000000
-0.398676 -0.021832 -0.170413 0.096470 0.357779 -0.928810 255 255 255 1.000000
-0.587620 -0.437460 -0.454448 0.950711 0.077295 -0.300291 255 255 255 1.000000
-0.512858 0.021998 0.236660 -0.999124 -0.016585 -0.038426 255 255 255 1.000000
0.349006 -0.069827 0.580998 -0.000422 -0.567983 -0.823040 255 255 255 1.000000
0.375854 0.007863 0.347832 -0.054112 0.927087 0.370920 255 255 255 1.000000
-0.137329 -0.069354 -0.206748 0.100486 0.912864 -0.395705 255 255 255 1.000000
-0.202404 -0.004882 0.307449 -0.018785 -0.394033 -0.918904 255 255 255 1.000000
0.245218 0.007822 -0.312992 -0.122061 -0.356098 0.926442 255 255 255 1.000000
-0.228433 -0.034975 0.586746 -0.000003 0.940018 -0.341125 255 255 255 1.000000
0.149423 0.011087 -0.327203 0.073803 -0.934216 -0.348989 255 255 255 1.000000
0.517967 0.389705 -0.386324 0.962086 0.113365 0.248071 255 255 255 1.000000
0.231410 0.019001 0.509375 0.013602 -0.918884 0.394293 255 255 255 1.000000
0.613384 -0.591231 -0.402648 -0.689417 -0.724365 0.000245 255 255 255 1.000000
0.418130 -0.044998 0.579302 0.000000 -0.013897 0.999903 255 255 255 1.000000
0.621824 -0.594052 -0.332865 0.093292 -0.995639 -0.000006 255 255 255 1.000000
0.114726 0.000310 0.345899 0.005306 -0.394443 -0.918905 255 255 255 1.000000
0.384779 0.411177 -0.443909 -0.267504 0.399569 0.876805 255 255 255 1.000000
-0.233912 -0.037840 -0.000895 -0.046522 -0.367366 0.928912 255 255 255 1.000000
0.528310 0.013954 -0.129631 0.812193 0.580608 -0.056892 255 255 255 1.000000
0.609281 -0.513772 -0.478268 0.592817 0.382038 -0.708953 255 255 255 1.000000
-0.032683 0.010093 0.425412 0.000000 0.394334 0.918967 255 255 255 1.000000
0.476481 0.068631 -0.272116 -0.309108 0.390570 0.867126 255 255 255 1.000000
0.396034 -0.026284 -0.160713 -0.086610 0.385440 0.918659 255 255 255 1.000000
-0.201983 0.260113 -0.413631 -0.167386 -0.407509 -0.897730 255 255 255 1.000000
0.626457 -0.575353 -0.206547 -0.579799 -0.814759 0.000001 255 255 255 1.000000
-0.322545 0.021297 0.507580 0.018099 0.928447 0.371024 255 255 255 1.000000
-0.370521 -0.017189 -0.011737 0.076029 0.362867 -0.928734 255 255 255 1.000000
-0.276705 0.012945 0.592625 0.000000 0.394296 0.918983 255 255 255 1.000000
0.470606 0.004249 0.107391 0.063810 -0.389241 -0.918923 255 255 255 1.000000
-0.030217 0.078426 -0.359555 -0.000800 -0.412390 -0.911007 255 255 255 1.000000
-0.154862 -0.020480 0.156256 -0.050657 -0.927449 -0.370502 255 255 255 1.000000
0.313813 0.366830 -0.445146 0.217888 -0.404017 -0.888423 255 255 255 1.000000
0.430659 0.314544 -0.387129 0.014626 0.911583 -0.410855 255 255 255 1.000000
-0.600575 -0.576333 0.212630 -0.689495 -0.724290 -0.000000 255 255 255 1.000000
0.125243 0.005635 0.349747 0.013697 -0.918827 0.394422 255 255 255 1.000000
-0.180486 0.295254 -0.430997 0.076798 0.934231 0.348303 255 255 255 1.000000
0.439811 -0.016260 -0.160863 0.096198 -0.357875 0.928801 255 255 255 1.000000
0.491551 0.213159 -0.330490 0.188639 0.531798 -0.825594 255 255 255 1.000000
-0.195478 0.217244 -0.408129 0.111759 0.932398 0.343720 255 255 255 1.000000
0.147450 -0.059283 0.580535 0.001029 -0.445097 0.895482 255 255 255 1.000000
-0.076229 -0.070719 0.597533 0.000000 0.697698 -0.716392 255 255 255 1.000000
0.490381 0.009191 0.116105 -0.086232 0.361520 -0.928368 255 255 255 1.000000
-0.248272 0.023269 0.465810 -0.008888 -0.370907 0.928628 255 255 255 1.000000
0.554419 -0.129982 0.584912 0.904558 0.066090 0.421196 255 255 255 1.000000
0.132511 0.021077 0.465907 -0.005929 0.370968 -0.928627 255 255 255 1.000000
-0.420838 -0.011805 -0.003862 -0.175743 -0.901887 0.394607 255 255 255 1.000000
0.321726 -0.037350 0.596729 0.000000 -0.758196 -0.652027 255 255 255 1.000000
0.580855 -0.462613 0.581548 -0.749620 -0.053753 -0.659682 255 255 255 1.000000
0.133059 -0.027812 0.110207 0.057545 -0.916957 0.394814 255 255 255 1.000000
-0.307123 0.158093 -0.363133 0.162583 -0.358796 0.919148 255 255 255 1.000000
-0.059745 -0.045921 -0.004368 -0.035250 -0.928367 -0.369988 255 255 255 1.000000
0.181768 -0.042855 0.037064 0.067777 -0.916180 0.394995 255 255 255 1.000000
0.147718 -0.039016 0.581143 0.000000 -0.615255 0.788328 255 255 255 1.000000
0.456096 0.096090 -0.294537 0.022397 0.912529 -0.408398 255 255 255 1.000000
-0.286850 -0.035112 -0.040776 -0.058924 -0.390636 -0.918658 255 255 255 1.000000
-0.008425 0.212302 -0.414758 0.000044 -0.910894 0.412640 255 255 255 1.000000
-0.493100 0.027609 0.464295 -0.015945 -0.393954 -0.918992 255 255 255 1.000000
0.358226 -0.039800 -0.161748 -0.180658 0.900679 -0.395145 255 255 255 1.000000
0.501150 0.008385 -0.043818 -0.190750 0.802845 0.564848 255 255 255 1.000000
0.618383 -0.464598 -0.454976 0.621050 -0.303022 0.722825 255 255 255 1.000000
-0.268402 -0.051805 -0.208208 -0.063230 -0.364425 0.929084 255 255 255 1.000000
-0.581671 -0.086128 -0.288229 -0.834592 0.284987 -0.471421 255 255 255 1.000000
0.463423 0.420815 -0.411509 -0.312545 0.390616 0.865872 255 255 255 1.000000
-0.299636 -0.049336 0.598926 0.000458 -0.453920 0.891042 255 255 255 1.000000
0.611286 -0.588353 -0.126295 -0.937026 -0.349260 -0.000000 255 255 255 1.000000
0.042850 0.254680 -0.435676 -0.000600 0.352101 -0.935962 255 255 255 1.000000
-0.324989 0.005809 0.305728 0.027932 0.369843 -0.928674 255 255 255 1.000000
-0.361516 0.165184 -0.341744 0.267974 0.399243 0.876809 255 255 255 1.000000
-0.099548 0.183826 -0.405218 0.044153 -0.352674 0.934704 255 255 255 1.000000
0.495969 0.032141 -0.259790 -0.250203 0.826058 0.505002 255 255 255 1.000000
0.073564 0.517021 -0.533367 0.035288 -0.663710 -0.747157 255 255 255 1.000000
-0.314739 0.471925 -0.479349 -0.147259 -0.929954 -0.336897 255 255 255 1.000000
-0.548212 -0.092780 0.599840 0.062204 -0.006859 -0.998040 255 255 255 1.000000
0.269578 -0.020738 0.155717 -0.077825 0.915525 -0.394661 255 255 255 1.000000
0.583145 -0.197369 -0.333500 -0.985329 -0.125419 0.115746 255 255 255 1.000000
0.472015 0.025607 0.505347 -0.010686 0.394130 0.918993 255 255 255 1.000000
0.531762 0.028597 0.152414 0.161645 -0.986406 0.029551 255 255 255 1.000000
-0.157503 0.432333 -0.486324 -0.115481 -0.410412 -0.904559 255 255 255 1.000000
0.433611 -0.011834 -0.010469 0.172019 -0.912739 -0.370564 255 255 255 1.000000
0.038850 -0.068155 0.580181 0.000772 0.321452 0.946926 255 255 255 1.000000
0.389465 -0.040400 0.598957 0.000000 -0.388292 -0.921537 255 255 255 1.000000
0.386393 -0.033486 -0.162931 -0.222613 0.891389 -0.394804 255 255 255 1.000000
-0.180774 0.365709 -0.457790 -0.115184 -0.410350 -0.904624 255 255 255 1.000000
-0.491322 0.293065 -0.360941 0.589393 -0.300894 -0.749720 255 255 255 1.000000
0.252571 0.016756 -0.316102 0.008922 0.911277 -0.411698 255 255 255 1.000000
0.373228 0.302719 -0.405542 -0.266574 0.399544 0.877099 255 255 255 1.000000
-0.400333 -0.001443 0.107749 0.060628 0.365862 -0.928692 255 255 255 1.000000
0.333371 0.376459 -0.437323 -0.011972 -0.911309 0.411549 255 255 255 1.000000
0.361575 0.020032 0.425195 -0.015843 0.370625 -0.928647 255 255 255 1.000000
-0.066973 0.176588 -0.401596 -0.003239 0.910953 -0.412497 255 255 255 1.000000
-0.025857 -0.043723 0.029796 0.000219 0.370193 -0.928955 255 255 255 1.000000
-0.108079 0.221124 -0.417747 -0.003246 0.910939 -0.412529 255 255 255 1.000000
0.331938 0.260993 -0.393999 0.011901 0.911356 -0.411447 255 255 255 1.000000
0.413073 0.009419 0.234570 -0.102304 0.923039 0.370855 255 255 255 1.000000
0.133964 0.427242 -0.499044 0.112072 -0.410567 -0.904917 255 255 255 1.000000
0.122161 -0.081164 -0.204120 0.048593 -0.928065 -0.369235 255 255 255 1.000000
0.353836 -0.009076 0.108421 -0.048593 0.367487 -0.928758 255 255 255 1.000000
-0.149013 0.471652 -0.506381 -0.006371 0.910901 -0.412575 255 255 255 1.000000
0.512802 0.006684 -0.072737 0.929703 0.365687 -0.043876 255 255 255 1.000000
0.317882 0.017572 0.389390 0.045835 -0.917814 0.394355 255 255 255 1.000000
0.504620 0.142016 -0.300402 -0.135275 -0.688523 0.712486 255 255 255 1.000000
-0.100626 -0.062693 -0.080673 0.017810 0.369431 -0.929087 255 255 255 1.000000
-0.246274 0.229353 -0.396524 -0.111760 -0.932397 -0.343723 255 255 255 1.000000
0.505409 0.005490 -0.220235 0.990415 0.136195 -0.022988 255 255 255 1.000000
0.125767 -0.046106 0.579517 0.001143 0.037173 0.999308 255 255 255 1.000000
-0.606287 -0.593861 0.105347 0.152273 -0.988338 -0.000875 255 255 255 1.000000
-0.444009 0.027615 0.504330 0.008898 0.394222 0.918972 255 255 255 1.000000
0.350168 -0.024438 0.034268 0.131620 -0.909305 0.394766 255 255 255 1.000000
0.016745 -0.021598 0.229776 0.000047 -0.928771 -0.370655 255 255 255 1.000000
0.357523 0.161010 -0.344965 0.161354 0.358690 -0.919405 255 255 255 1.000000
-0.109096 0.013272 0.434678 0.003493 0.394319 0.918967 255 255 255 1.000000
0.600461 -0.152822 -0.316385 0.976055 0.146071 -0.161185 255 255 255 1.000000
-0.023879 0.324054 -0.463594 -0.000603 0.352021 -0.935992 255 255 255 1.000000
-0.588455 -0.163932 -0.320859 -0.991980 0.104138 -0.071626 255 255 255 1.000000
0.334751 0.535845 -0.504650 0.028407 -0.964968 0.260826 255 255 255 1.000000
-0.271352 0.044213 -0.325354 -0.111099 -0.932357 -0.344046 255 255 255 1.000000
0.089564 -0.073322 -0.168712 -0.018156 0.395520 0.918278 255 255 255 1.000000
-0.004433 0.501206 -0.549358 -0.036635 -0.802717 -0.595234 255 255 255 1.000000
0.151127 0.293054 -0.442043 -0.006117 -0.910988 0.412388 255 255 255 1.000000
0.055466 0.017318 0.474731 -0.002616 0.394315 0.918972 255 255 255 1.000000
-0.240176 -0.073762 0.585979 0.000003 -0.936973 -0.349402 255 255 255 1.000000
-0.287273 0.008984 0.346040 -0.023878 -0.370170 0.928657 255 255 255 1.000000
-0.276749 -0.042267 0.579675 -0.000513 -0.270106 0.962830 255 255 255 1.000000
0.044894 -0.075271 -0.204239 -0.000691 -0.918304 0.395875 255 255 255 1.000000
-0.406610 0.013227 0.389769 0.056579 0.926917 0.370976 255 255 255 1.000000
0.536992 -0.056492 0.584413 -0.101201 -0.865462 0.490646 255 255 255 1.000000
-0.345711 0.031078 0.510120 -0.018099 -0.928451 -0.371014 255 255 255 1.000000
-0.449717 0.001198 -0.047476 0.200822 0.803904 -0.559829 255 255 255 1.000000
0.125413 -0.004173 0.306240 0.006954 -0.370742 0.928710 255 255 255 1.000000
0.187032 0.291405 -0.439664 0.083175 0.353797 -0.931617 255 255 255 1.000000
0.141893 0.428112 -0.490032 -0.083625 -0.353582 0.931658 255 255 255 1.000000
0.612282 -0.556812 -0.510372 0.599532 0.010536 0.800282 255 255 255 1.000000
0.338164 0.447462 -0.462793 -0.145972 0.930050 0.337194 255 255 255 1.000000
-0.105511 0.005784 0.350331 -0.013646 -0.918820 0.394440 255 255 255 1.000000
0.294172 0.293895 -0.421649 -0.217367 0.403994 0.888561 255 255 255 1.000000
0.092320 0.024024 0.547082 -0.002228 0.928621 0.371024 255 255 255 1.000000
0.261949 0.014947 0.589391 0.000000 -0.928624 -0.371022 255 255 255 1.000000
0.322502 -0.066728 0.579619 0.000000 0.236374 0.971662 255 255 255 1.000000
0.427505 0.022565 0.393502 -0.056314 0.926935 0.370971 255 255 255 1.000000
0.330903 -0.030900 -0.007966 -0.138768 0.918464 0.370361 255 255 255 1.000000
0.131750 -0.063755 -0.119581 -0.034556 0.394150 0.918396 255 255 255 1.000000
-0.507472 0.009845 0.075307 -0.893765 0.445914 -0.048434 255 255 255 1.000000
-0.016383 0.467097 -0.517607 -0.000045 0.910767 -0.412920 255 255 255 1.000000
0.467943 0.033005 -0.261801 0.199328 -0.972644 -0.119302 255 255 255 1.000000
-0.522001 0.017452 0.003548 0.889158 -0.454192 0.055743 255 255 255 1.000000
0.144167 -0.018707 0.196922 0.018413 -0.394269 -0.918811 255 255 255 1.000000
0.426023 0.024377 -0.273797 0.196972 0.362064 -0.911105 255 255 255 1.000000
0.482609 -0.067179 0.599464 -0.000274 -0.299245 0.954176 255 255 255 1.000000
-0.347865 -0.014286 0.116323 0.048772 0.367463 -0.928758 255 255 255 1.000000
-0.044541 0.321670 -0.453797 -0.044398 0.352519 -0.934751 255 255 255 1.000000
-0.501718 0.010822 0.153604 0.109054 0.564850 -0.817956 255 255 255 1.000000
-0.021493 0.220212 -0.420330 -0.000044 0.910903 -0.412621 255 255 255 1.000000
0.289639 0.016435 0.466629 -0.020097 0.928420 0.370988 255 255 255 1.000000
0.625761 -0.592724 -0.366895 0.491090 -0.871109 0.000005 255 255 255 1.000000
-0.385880 0.163414 -0.335092 -0.199876 0.362169 -0.910430 255 255 255 1.000000
-0.335319 0.233682 -0.383549 -0.162990 0.358722 -0.919104 255 255 255 1.000000
0.576732 -0.252412 0.598676 0.409953 0.027774 0.911684 255 255 255 1.000000
-0.356994 -0.019903 -0.050043 0.187657 0.899457 -0.394667 255 255 255 1.000000
-0.490894 0.015692 0.071841 -0.163535 -0.814316 0.556908 255 255 255 1.000000
0.301137 -0.049170 -0.169279 0.070287 -0.389061 -0.918527 255 255 255 1.000000
0.211512 -0.014100 0.188170 -0.030528 0.369488 -0.928734 255 255 255 1.000000
-0.272701 0.364289 -0.443093 -0.163809 0.358581 -0.919014 255 255 255 1.000000
-0.396680 -0.017374 -0.081485 -0.077549 -0.387234 -0.918714 255 255 255 1.000000
-0.611553 -0.593367 0.413653 -0.398475 -0.917179 -0.000001 255 255 255 1.000000
0.033444 0.324854 -0.455303 -0.000806 -0.412696 -0.910869 255 255 255 1.000000
0.194906 0.018134 0.464626 0.005295 -0.394291 -0.918970 255 255 255 1.000000
0.466916 0.017812 0.393684 -0.019917 0.209145 -0.977682 255 255 255 1.000000
-0.421917 0.447922 -0.442372 -0.180751 -0.926875 -0.328987 255 255 255 1.000000
-0.218165 0.012978 -0.323284 -0.123749 0.356218 -0.926172 255 255 255 1.000000
-0.271527 -0.042157 -0.047610 -0.112998 -0.922102 -0.370081 255 255 255 1.000000
0.436141 0.544887 -0.466848 0.290899 -0.746690 -0.598190 255 255 255 1.000000
0.454701 0.343211 -0.391564 0.016260 0.911755 -0.410413 255 255 255 1.000000
0.609733 -0.563013 -0.496089 0.905823 -0.102317 -0.411116 255 255 255 1.000000
0.493739 0.322398 -0.367181 0.268372 0.369123 -0.889789 255 255 255 1.000000
-0.066074 0.288675 -0.439137 -0.059431 -0.412022 -0.909234 255 255 255 1.000000
-0.269789 0.292497 -0.423592 0.146411 0.929947 0.337287 255 255 255 1.000000
-0.085295 -0.054942 0.591060 0.000000 -0.999309 0.037180 255 255 255 1.000000
-0.007065 -0.001729 0.355467 -0.000003 0.370861 -0.928688 255 255 255 1.000000
0.420965 0.032066 0.507235 0.022824 -0.918703 0.394288 255 255 255 1.000000
0.392078 0.301180 -0.395017 0.014621 0.911590 -0.410840 255 255 255 1.000000
0.189066 0.252454 -0.416833 0.083068 0.353804 -0.931623 255 255 255 1.000000
-0.600662 -0.591372 -0.086107 -0.724303 0.689482 -0.000001 255 255 255 1.000000
0.110195 0.007014 0.429193 -0.008878 0.928607 0.370958 255 255 255 1.000000
0.291038 -0.041464 -0.046948 -0.148361 0.916998 0.370275 255 255 255 1.000000
-0.097362 -0.003346 0.353442 0.013646 0.918826 -0.394426 255 255 255 1.000000
0.140410 -0.003071 0.352614 0.027667 -0.918510 0.394429 255 255 255 1.000000
-0.577124 -0.347609 0.591100 -0.977795 0.072103 0.196769 255 255 255 1.000000
-0.196164 -0.013989 0.236225 -0.018181 -0.370252 0.928753 255 255 255 1.000000
0.494156 0.018871 0.354053 -0.023474 0.208640 -0.977711 255 255 255 1.000000
0.376035 -0.036834 0.596128 0.000000 -0.758196 -0.652027 255 255 255 1.000000
-0.014289 0.319000 -0.463039 -0.000806 -0.412696 -0.910869 255 255 255 1.000000
0.519915 0.016340 -0.213070 -0.386148 -0.922415 0.006329 255 255 255 1.000000
0.265167 -0.012606 0.151368 -0.077825 0.915521 -0.394670 255 255 255 1.000000
0.564252 -0.275792 0.589358 0.995996 0.074533 -0.049363 255 255 255 1.000000
-0.437021 0.003717 0.069046 -0.164807 -0.903998 0.394494 255 255 255 1.000000
0.203923 0.437881 -0.488524 -0.009144 -0.911068 0.412155 255 255 255 1.000000
0.112574 -0.074916 -0.208149 -0.021336 0.368821 -0.929255 255 255 255 1.000000
-0.499757 -0.054598 0.593614 0.000406 0.922123 0.386896 255 255 255 1.000000
0.500782 0.260117 -0.343064 -0.818796 -0.215676 -0.532031 255 255 255 1.000000
0.284042 -0.048685 -0.120844 0.056461 -0.365701 0.929018 255 255 255 1.000000
-0.502743 0.021891 0.191652 0.134197 0.912983 0.385297 255 255 255 1.000000
-0.022514 -0.007739 0.274871 -0.000041 0.928745 0.370720 255 255 255 1.000000
-0.114016 -0.052141 -0.002222 0.071759 0.915830 -0.395102 255 255 255 1.000000
0.421294 0.017944 0.346199 0.029930 -0.369787 0.928634 255 255 255 1.000000
-0.612604 -0.574720 -0.297089 0.461395 -0.887195 -0.000022 255 255 255 1.000000
0.082183 -0.041274 0.580152 0.000000 0.362772 -0.931878 255 255 255 1.000000
0.160647 -0.031439 0.070451 0.062635 -0.916589 0.394893 255 255 255 1.000000
-0.017608 0.021076 0.472270 0.000001 -0.928640 -0.370983 255 255 255 1.000000
0.175070 0.323154 -0.453713 0.111638 -0.410442 -0.905027 255 255 255 1.000000
-0.446300 -0.000758 0.110500 0.162648 0.914321 0.370894 255 255 255 1.000000
-0.289221 0.086659 -0.329382 0.217463 0.403763 0.888642 255 255 255 1.000000
0.152817 0.003732 0.386715 -0.008890 0.394288 0.918944 255 255 255 1.000000
-0.500085 0.005693 0.590954 0.003518 -0.918982 0.394283 255 255 255 1.000000
0.030248 0.013397 0.473461 0.000000 -0.370968 0.928646 255 255 255 1.000000
0.196543 -0.031552 0.116339 0.057544 -0.916963 0.394801 255 255 255 1.000000
0.450302 0.024659 0.505561 -0.022386 0.928360 0.371008 255 255 255 1.000000
0.087255 -0.022632 0.152430 0.026155 -0.918406 0.394774 255 255 255 1.000000
0.630710 -0.585700 -0.232571 -0.968152 0.250364 -0.000405 255 255 255 1.000000
-0.174880 0.016803 0.465158 -0.005294 -0.394292 -0.918970 255 255 255 1.000000
0.035178 -0.055038 0.588477 0.000000 0.999309 -0.037180 255 255 255 1.000000
0.442495 0.011759 0.227140 0.045167 -0.368145 0.928671 255 255 255 1.000000
-0.114519 0.516740 -0.528340 0.120013 0.490276 0.863265 255 255 255 1.000000
0.172826 0.145939 -0.377321 -0.082739 -0.353891 0.931620 255 255 255 1.000000
-0.218877 0.020805 0.513092 0.005946 0.370944 -0.928636 255 255 255 1.000000
0.280407 0.088838 -0.339863 0.008956 0.911246 -0.411765 255 255 255 1.000000
-0.502463 0.015959 -0.199769 0.111094 0.993355 -0.030076 255 255 255 1.000000
0.441474 0.002754 0.156604 0.055331 -0.366705 0.928690 255 255 255 1.000000
-0.244117 0.011559 0.426252 0.010619 0.394229 0.918951 255 255 255 1.000000
-0.534919 0.019690 0.473428 0.111118 0.993327 -0.030877 255 255 255 1.000000
-0.193307 -0.033692 0.030058 -0.066647 -0.916263 0.394994 255 255 255 1.000000
0.195216 -0.054283 0.593715 -0.000974 -0.903696 0.428174 255 255 255 1.000000
0.232443 0.148950 -0.369554 0.122688 0.355975 -0.926407 255 255 255 1.000000
-0.486195 0.401190 -0.387534 -0.859297 -0.172012 -0.481684 255 255 255 1.000000
0.150248 -0.072705 -0.163133 -0.092090 0.913791 -0.395608 255 255 255 1.000000
0.430241 0.383296 -0.417440 0.199336 0.361903 -0.910654 255 255 255 1.000000
0.172671 -0.019287 0.153855 0.051523 -0.927398 -0.370510 255 255 255 1.000000
-0.188441 0.463613 -0.502789 -0.077275 -0.934286 -0.348050 255 255 255 1.000000
-0.339145 0.478293 -0.479058 -0.220346 -0.403955 -0.887844 255 255 255 1.000000
-0.012731 0.143615 -0.386076 -0.000597 0.352238 -0.935910 255 255 255 1.000000
0.483317 0.549503 -0.449885 0.255496 -0.736721 -0.626070 255 255 255 1.000000
0.159569 -0.075948 -0.200255 -0.097437 0.913193 -0.395708 255 255 255 1.000000
-0.009496 0.254226 -0.427825 0.000807 0.412639 0.910894 255 255 255 1.000000
0.078031 -0.036149 0.109230 0.011129 -0.394795 -0.918702 255 255 255 1.000000
0.599082 -0.567279 0.595763 -0.031903 -0.331554 0.942897 255 255 255 1.000000
0.402942 0.236259 -0.360619 -0.198386 -0.361953 0.910842 255 255 255 1.000000
-0.122882 -0.031268 0.108099 0.024496 0.369685 -0.928834 255 255 255 1.000000
-0.577494 -0.568574 0.583435 -0.917508 0.346560 0.195129 255 255 255 1.000000
-0.400034 -0.004292 0.033823 -0.160810 -0.914759 -0.370616 255 255 255 1.000000
0.421770 0.034056 0.544907 -0.004931 0.370986 -0.928625 255 255 255 1.000000
0.272712 0.437313 -0.481940 -0.123959 -0.355693 0.926346 255 255 255 1.000000
-0.598576 -0.579024 -0.010830 0.862881 0.505406 0.000770 255 255 255 1.000000
-0.388330 -0.046984 0.599746 -0.000022 0.221948 -0.975058 255 255 255 1.000000
0.210335 0.022640 0.472756 -0.013416 0.928543 0.370983 255 255 255 1.000000
0.222725 -0.035077 0.592789 -0.001006 0.931877 0.362774 255 255 255 1.000000
-0.498935 0.400684 -0.403516 0.369498 0.330888 0.868323 255 255 255 1.000000
0.196167 -0.016214 0.228410 0.041217 -0.927846 -0.370680 255 255 255 1.000000
0.160873 -0.036738 0.030780 0.067778 -0.916177 0.395000 255 255 255 1.000000
-0.094653 0.024426 0.546168 -0.002254 -0.928624 -0.371015 255 255 255 1.000000
-0.336453 0.520048 -0.490971 0.104225 -0.716194 0.690075 255 255 255 1.000000
-0.283936 0.328461 -0.429595 -0.012040 0.911332 -0.411496 255 255 255 1.000000
-0.164813 -0.035224 0.593018 -0.001104 -0.931879 -0.362768 255 255 255 1.000000
0.098435 -0.002791 0.354712 -0.005935 0.370818 -0.928687 255 255 255 1.000000
0.240872 0.020312 0.512105 -0.013602 0.918886 -0.394289 255 255 255 1.000000
-0.387689 -0.011395 0.027715 0.063594 0.389573 0.918797 255 255 255 1.000000
-0.372236 0.089904 -0.320030 -0.267358 -0.399199 -0.877018 255 255 255 1.000000
0.457716 0.533977 -0.476354 -0.339056 0.482237 0.807767 255 255 255 1.000000
0.263624 -0.035323 0.030929 -0.098286 0.923703 0.370288 255 255 255 1.000000
