ply
format ascii 1.0
element vertex 1261
property float x
property float y
property float z
property uchar red
property uchar green
property uchar blue
end_header
0.319334 -0.801278 0.400995 153 0 76
0.259558 0.320242 -0.217530 204 51 127
-0.003074 0.578818 -0.288191 0 127 127
0.432131 0.594636 -0.127775 0 127 127
-0.201416 0.640842 -0.222813 0 127 127
-0.304026 -0.772713 -0.212298 0 127 127
0.078411 0.598140 -0.288147 0 127 127
0.313625 -0.853614 -0.179100 76 153 0
-0.132782 0.224264 -0.261194 0 255 0
-0.171684 -0.108211 -0.282494 76 0 153
-0.264544 -0.167037 0.335063 76 0 153
-0.212296 -0.044729 -0.165205 127 127 0
-0.297400 -0.079652 0.058178 76 0 153
-0.202668 -0.079652 0.251138 76 0 153
0.298360 -0.587495 0.399565 153 0 76
-0.113174 -0.079652 -0.158661 76 0 153
-0.274875 -0.079652 0.315615 76 0 153
0.032349 -0.167037 -0.160902 76 0 153
0.289086 -0.457783 0.434101 153 0 76
-0.417360 0.561044 -0.043538 0 127 127
-0.111870 -0.167037 0.324787 76 0 153
-0.016894 0.295546 -0.235031 255 0 0
-0.274545 -0.167037 0.209161 76 0 153
-0.284094 -0.753674 0.414030 76 0 153
-0.083772 -0.143605 -0.311280 76 0 153
-0.307898 -0.167037 -0.065871 76 0 153
-0.318437 -0.098679 -0.065287 76 0 153
-0.123357 -0.167037 0.107159 76 0 153
0.049228 0.578147 -0.287352 0 127 127
-0.271416 -0.340442 0.406238 76 0 153
0.292476 -0.334156 0.444085 153 0 76
0.185340 0.089670 -0.241211 0 0 255
-0.263891 0.407501 -0.173338 127 127 0
-0.091894 0.543728 -0.213878 0 127 127
0.358070 -0.111601 0.330168 76 0 153
0.317405 -0.510314 0.396334 153 0 76
0.332369 -0.560855 -0.201881 76 153 0
0.046088 0.170529 -0.231646 255 0 0
0.316526 -0.381785 0.395804 153 0 76
-0.014334 -0.111563 0.467130 76 0 153
0.382400 0.639940 -0.099100 0 127 127
-0.316686 -0.716733 -0.174689 0 127 127
0.148953 0.102761 -0.193953 0 0 255
0.179819 0.261990 -0.206565 0 0 255
-0.179403 -0.167037 0.122653 76 0 153
0.167280 -0.079652 0.372029 76 0 153
0.350409 -0.099240 -0.026389 76 0 153
-0.199882 0.285224 -0.188992 127 127 0
0.344348 -0.203823 0.454259 153 0 76
0.185124 0.492308 -0.215252 0 0 255
0.039035 0.541342 -0.240602 0 127 127
-0.177903 -0.167037 0.447947 76 0 153
0.304003 -0.149719 -0.253969 76 0 153
0.059648 -0.079652 0.217109 76 0 153
-0.019166 0.039061 -0.245593 255 0 0
0.309792 -0.026511 -0.192341 204 51 127
-0.115831 -0.079652 0.188537 76 0 153
-0.064175 -0.167037 0.410782 76 0 153
-0.028508 -0.079652 -0.148918 76 0 153
0.283137 0.281662 -0.152967 204 51 127
0.293701 0.196630 -0.216304 204 51 127
-0.015380 -0.167037 -0.177763 76 0 153
0.029215 0.613501 -0.279713 255 0 0
-0.333724 -0.141540 -0.076395 76 0 153
0.284413 -0.167037 0.196812 76 0 153
-0.116126 -0.167037 0.195308 76 0 153
-0.010348 -0.167037 -0.063234 76 0 153
0.225282 -0.167037 0.224291 76 0 153
-0.244093 0.447786 -0.158340 127 127 0
-0.240742 -0.167037 -0.090923 76 0 153
0.163745 0.470936 -0.261668 0 0 255
0.147650 -0.167037 -0.161478 76 0 153
-0.221248 -0.079652 -0.075612 76 0 153
-0.293856 0.592771 -0.096761 0 127 127
-0.289255 -0.113405 -0.238541 76 0 153
0.274135 0.036591 -0.221546 204 51 127
0.191961 0.632784 -0.177220 0 127 127
-0.297549 -0.864822 0.427970 76 0 153
-0.272085 -0.167037 -0.089318 76 0 153
0.006182 -0.079652 -0.216846 76 0 153
0.118240 0.473729 -0.229946 0 0 255
-0.230777 0.242979 -0.226359 127 127 0
-0.226103 -0.079652 0.380245 76 0 153
0.365349 -0.162400 0.299088 76 0 153
-0.347432 0.553558 -0.165213 0 127 127
-0.009752 0.342683 -0.223892 255 0 0
-0.015755 -0.079652 0.189497 76 0 153
0.024469 0.155330 -0.281287 255 0 0
0.333464 -0.638369 0.418569 153 0 76
0.064142 -0.167037 0.270173 76 0 153
0.365349 -0.136194 -0.058114 76 0 153
0.309978 0.529048 -0.181547 204 51 127
-0.120460 -0.079652 0.416733 76 0 153
0.068067 -0.167037 -0.223201 76 0 153
-0.138195 -0.079652 -0.119645 76 0 153
0.408672 0.614493 -0.165479 0 127 127
0.299810 0.393261 -0.211606 204 51 127
0.206402 -0.079652 0.427606 76 0 153
0.284601 0.576112 -0.231068 0 127 127
0.117023 -0.167037 -0.082692 76 0 153
-0.445128 0.592683 -0.134107 0 127 127
0.427368 0.567936 -0.118816 0 127 127
-0.334277 0.549085 -0.103355 0 127 127
0.281787 0.080101 -0.152676 204 51 127
-0.164777 -0.097375 0.458337 76 0 153
0.246371 0.420207 -0.167717 204 51 127
-0.089249 -0.022973 -0.209161 0 255 0
0.124666 0.270487 -0.249016 0 0 255
0.179062 -0.167037 0.330529 76 0 153
0.339606 -0.252285 -0.205245 76 153 0
-0.080113 -0.167037 -0.287628 76 0 153
-0.221218 -0.079652 0.002276 76 0 153
-0.000055 0.374630 -0.216791 255 0 0
-0.282989 -0.428152 -0.159019 0 127 127
-0.121110 -0.079652 -0.062505 76 0 153
0.318513 -0.108529 -0.236393 76 0 153
-0.008849 -0.167037 0.409597 76 0 153
-0.237884 0.475827 -0.226384 127 127 0
0.309580 0.291924 -0.179436 204 51 127
-0.280089 -0.167037 0.308986 76 0 153
-0.026931 -0.079652 -0.003826 76 0 153
-0.428043 0.629964 -0.047025 0 127 127
-0.324526 -0.178547 -0.174251 0 127 127
0.012059 0.601678 -0.187156 0 127 127
-0.257044 -0.167037 0.387307 76 0 153
-0.216250 -0.167037 -0.045132 76 0 153
-0.267715 -0.079652 -0.155217 76 0 153
-0.005813 0.152333 -0.220242 255 0 0
-0.090108 -0.167037 -0.109326 76 0 153
0.001175 0.629926 -0.275440 0 127 127
-0.286224 -0.573547 -0.208113 0 127 127
-0.028172 -0.167037 -0.020892 76 0 153
-0.235757 0.547047 -0.159152 0 127 127
0.252635 -0.053865 -0.160448 204 51 127
-0.320349 -0.816051 0.426553 76 0 153
0.281269 0.571767 -0.125423 0 127 127
-0.285174 -0.079652 -0.000379 76 0 153
-0.074045 0.622172 -0.188218 0 127 127
-0.222614 -0.167037 -0.214721 76 0 153
-0.333724 -0.136230 0.404784 76 0 153
-0.316221 -0.323310 0.448338 76 0 153
-0.453932 0.548098 -0.095727 0 127 127
-0.333724 -0.147089 -0.027748 76 0 153
-0.102230 0.168699 -0.198528 0 255 0
-0.082544 0.147467 -0.234839 0 255 0
0.231880 -0.167037 -0.190141 76 0 153
-0.088069 -0.050697 -0.210805 0 255 0
-0.144085 0.017684 -0.208057 0 255 0
0.319244 -0.861289 0.403378 153 0 76
0.227366 -0.167037 0.321108 76 0 153
-0.010703 -0.167037 0.185228 76 0 153
-0.016619 0.209502 -0.234142 255 0 0
-0.073252 -0.079652 0.258754 76 0 153
-0.116311 -0.079652 -0.029312 76 0 153
-0.018926 0.106256 -0.253007 255 0 0
-0.266717 -0.402811 -0.182718 0 127 127
-0.311659 -0.167037 0.070792 76 0 153
-0.086782 -0.084410 0.450301 76 0 153
-0.097808 0.017894 -0.259184 0 255 0
-0.329437 0.641812 -0.114279 0 127 127
-0.141743 0.604960 -0.270397 0 127 127
0.119174 0.535755 -0.220575 0 0 255
-0.280352 -0.497292 0.402686 76 0 153
-0.166652 -0.167037 0.206586 76 0 153
-0.027077 0.567317 -0.192141 0 127 127
0.351607 -0.101173 -0.150769 76 0 153
0.307453 0.498014 -0.200497 204 51 127
-0.010511 -0.167037 0.359126 76 0 153
0.282718 0.531694 -0.220874 204 51 127
-0.329372 -0.116323 -0.190485 76 0 153
0.025929 -0.079652 0.397316 76 0 153
0.367907 0.642771 -0.151599 0 127 127
-0.164440 -0.167037 0.078652 76 0 153
-0.085987 0.219071 -0.214751 0 255 0
-0.332985 -0.167037 0.384041 76 0 153
0.340301 -0.208928 0.402406 153 0 76
-0.012265 -0.031503 -0.226748 255 0 0
-0.284608 -0.079652 -0.109957 76 0 153
-0.272925 -0.452472 -0.170537 0 127 127
-0.220287 -0.079652 0.193687 76 0 153
-0.333724 -0.164146 -0.199602 76 0 153
0.267959 0.615170 -0.132370 0 127 127
0.365349 -0.150155 0.273475 76 0 153
-0.269184 -0.079652 0.109626 76 0 153
-0.243865 0.640382 -0.156838 0 127 127
0.028167 -0.167037 0.450815 76 0 153
0.332339 -0.167037 0.121113 76 0 153
-0.274724 -0.447279 -0.201237 0 127 127
-0.224587 0.126653 -0.158489 127 127 0
-0.261199 0.255593 -0.213960 127 127 0
0.138763 0.618098 -0.179300 0 127 127
-0.011540 -0.079652 -0.198611 76 0 153
0.091636 -0.167037 0.134448 76 0 153
-0.333724 -0.163319 0.328926 76 0 153
-0.313963 -0.182765 0.405220 76 0 153
0.099614 0.554356 -0.267482 0 127 127
0.195983 -0.079652 -0.203388 76 0 153
-0.132551 0.325136 -0.199151 0 255 0
-0.205471 -0.167037 0.199069 76 0 153
-0.291456 -0.079652 -0.025801 76 0 153
-0.278904 -0.433919 0.402230 76 0 153
-0.333263 0.600835 -0.193266 0 127 127
-0.104626 -0.167037 0.378951 76 0 153
0.236218 0.642869 -0.215531 0 127 127
0.252017 -0.079652 0.153346 76 0 153
0.132565 -0.079652 -0.116299 76 0 153
0.351058 0.586833 -0.083244 0 127 127
0.220997 -0.167037 -0.234591 76 0 153
-0.102518 0.416972 -0.261670 0 255 0
-0.310996 -0.086673 0.436506 76 0 153
0.337957 -0.507102 0.412776 153 0 76
0.028151 -0.079652 0.071457 76 0 153
-0.267324 0.549760 -0.202078 0 127 127
0.273240 -0.099976 -0.251574 76 0 153
-0.083848 0.589620 -0.240101 0 255 0
0.404317 0.638463 -0.143081 0 127 127
0.245562 -0.079652 0.107059 76 0 153
-0.324183 -0.332042 0.420540 76 0 153
0.202000 -0.079652 0.088487 76 0 153
0.305734 -0.079652 -0.180642 204 51 127
-0.317759 -0.786369 0.400399 76 0 153
0.239592 -0.079652 -0.111336 76 0 153
-0.281299 -0.311761 0.398574 76 0 153
0.247950 0.254793 -0.207941 204 51 127
-0.189740 -0.167037 0.025889 76 0 153
0.032144 -0.079652 0.344738 76 0 153
0.128042 -0.079652 0.148919 76 0 153
-0.201503 -0.167037 0.002809 76 0 153
-0.087930 0.352978 -0.211068 0 255 0
-0.075210 -0.167037 -0.197767 76 0 153
0.290062 -0.765513 -0.203232 76 153 0
0.309451 0.236601 -0.179036 204 51 127
0.361335 -0.167037 0.255131 76 0 153
0.250926 0.610979 -0.245372 0 127 127
0.049416 0.581414 -0.186948 0 127 127
0.165457 -0.079652 0.408799 76 0 153
-0.257796 -0.079652 0.271684 76 0 153
0.318671 -0.557437 -0.162883 76 153 0
0.202301 -0.079652 0.365732 76 0 153
-0.249224 0.641099 -0.202697 0 127 127
-0.050155 -0.079652 -0.221402 76 0 153
-0.269299 0.476568 -0.191143 127 127 0
0.079762 -0.079652 0.374312 76 0 153
-0.278247 -0.529744 -0.201948 0 127 127
-0.101516 0.543379 -0.242218 0 127 127
0.333089 -0.549561 0.435599 153 0 76
-0.051617 -0.079652 -0.168609 76 0 153
0.173663 0.228712 -0.256652 0 0 255
-0.241880 -0.167037 0.037468 76 0 153
0.323109 -0.079652 0.401360 76 0 153
0.361865 -0.167037 -0.075940 76 0 153
0.318879 -0.412929 -0.155220 76 153 0
-0.146000 -0.167037 0.269481 76 0 153
0.270954 0.639268 -0.210176 0 127 127
0.113818 -0.079652 0.226033 76 0 153
0.058221 0.542864 -0.224757 0 127 127
0.195607 0.543696 -0.195698 0 127 127
0.304875 0.202664 -0.168328 204 51 127
-0.015693 0.421851 -0.232194 255 0 0
0.029592 0.116970 -0.215909 255 0 0
-0.100214 -0.167037 -0.034035 76 0 153
-0.019372 0.344308 -0.251026 255 0 0
-0.221522 -0.079652 0.285261 76 0 153
-0.114625 -0.167037 -0.061287 76 0 153
0.170637 -0.079652 -0.198618 76 0 153
0.054042 -0.079652 0.031459 76 0 153
-0.007356 0.068775 -0.221672 255 0 0
-0.107643 -0.079652 -0.248988 76 0 153
0.077933 -0.167037 0.180762 76 0 153
0.047450 0.367700 -0.234229 255 0 0
0.026710 -0.167037 0.096671 76 0 153
0.219032 -0.167037 -0.062128 76 0 153
-0.229728 -0.079652 -0.046490 76 0 153
0.132198 0.493476 -0.256452 0 0 255
-0.106341 -0.167037 0.437660 76 0 153
0.130719 -0.116286 -0.304752 76 0 153
0.302849 -0.167037 -0.220446 76 0 153
-0.127078 0.200197 -0.263322 0 255 0
-0.324279 -0.424331 0.418969 76 0 153
0.248441 0.056850 -0.165075 204 51 127
-0.066229 0.542739 -0.220896 0 127 127
-0.268224 -0.048032 -0.200767 127 127 0
0.287521 -0.532044 -0.180408 76 153 0
-0.006726 -0.079652 0.436272 76 0 153
-0.176656 -0.167037 -0.264885 76 0 153
0.130589 0.585135 -0.255410 0 0 255
0.188958 0.643692 -0.227721 0 127 127
-0.311443 -0.289347 0.401920 76 0 153
-0.135024 -0.167037 0.140391 76 0 153
-0.209355 0.096065 -0.216126 127 127 0
-0.317632 -0.260245 -0.159595 0 127 127
-0.055591 -0.079652 -0.094678 76 0 153
0.036338 0.645282 -0.242933 0 127 127
-0.242253 -0.142125 0.474432 76 0 153
0.183665 -0.064409 -0.244873 0 0 255
0.346184 -0.092423 0.128345 76 0 153
0.027218 -0.079652 0.124855 76 0 153
-0.008548 -0.167037 -0.110375 76 0 153
-0.135661 -0.079652 0.283519 76 0 153
-0.229923 -0.167037 -0.248964 76 0 153
0.085660 -0.167037 0.395097 76 0 153
-0.150926 -0.061898 -0.222417 0 255 0
-0.033636 -0.103099 -0.304547 76 0 153
0.051513 -0.167037 0.317975 76 0 153
0.290910 -0.366919 0.440956 153 0 76
0.158329 0.219121 -0.194103 0 0 255
0.138184 -0.141434 -0.308092 76 0 153
-0.123022 -0.167037 0.024832 76 0 153
-0.280716 -0.284959 -0.151101 0 127 127
0.253807 -0.166135 0.474432 76 0 153
0.011107 -0.167037 -0.004144 76 0 153
-0.298398 -0.784846 0.433472 76 0 153
0.330660 -0.693598 0.418691 153 0 76
0.118559 0.069403 -0.222563 0 0 255
0.299876 -0.167037 0.168749 76 0 153
-0.344147 0.632825 -0.167630 0 127 127
0.114520 -0.167037 -0.160015 76 0 153
0.198309 -0.167037 0.244384 76 0 153
-0.216304 -0.079652 0.127437 76 0 153
0.151433 0.576232 -0.273782 0 127 127
0.365349 -0.132310 -0.105556 76 0 153
0.225882 -0.079652 -0.019641 76 0 153
0.350133 -0.098795 0.427716 76 0 153
-0.126709 -0.079652 0.344684 76 0 153
0.289758 0.244848 -0.218611 204 51 127
-0.333724 -0.150353 0.473243 76 0 153
-0.193405 0.548565 -0.230033 0 127 127
-0.226906 -0.167037 0.460251 76 0 153
-0.164476 -0.079652 -0.032468 76 0 153
0.281989 -0.079652 -0.071383 76 0 153
0.031473 -0.167037 -0.131629 76 0 153
-0.086726 -0.079652 0.285231 76 0 153
0.307671 -0.167037 0.124255 76 0 153
0.132317 0.248405 -0.256526 0 0 255
0.036615 -0.167037 -0.071898 76 0 153
-0.227412 -0.167037 0.312908 76 0 153
-0.314224 -0.616552 -0.169082 0 127 127
0.406405 0.592943 -0.079380 0 127 127
0.292875 0.442353 -0.216837 204 51 127
-0.004443 0.275513 -0.276242 255 0 0
0.286778 -0.793069 0.414534 153 0 76
-0.000927 0.577068 -0.217251 255 0 0
0.124104 -0.079652 0.396978 76 0 153
-0.150690 0.130945 -0.238477 0 255 0
0.201155 -0.086587 0.451650 76 0 153
-0.267918 -0.397154 0.433881 76 0 153
0.123192 0.200975 -0.246396 0 0 255
-0.008805 -0.059356 -0.272635 255 0 0
0.165217 -0.167037 0.003322 76 0 153
0.151126 0.002221 -0.193828 0 0 255
-0.093140 0.511471 -0.255246 0 255 0
-0.211084 0.254579 -0.217608 127 127 0
-0.010329 -0.167037 -0.272091 76 0 153
0.090975 -0.167037 0.077768 76 0 153
0.270505 -0.079652 0.308078 76 0 153
0.180052 -0.167037 -0.031414 76 0 153
-0.333724 -0.146322 0.064473 76 0 153
0.046094 0.288363 -0.264142 255 0 0
-0.009490 -0.148567 0.474432 76 0 153
0.070410 -0.079652 0.398013 76 0 153
-0.288827 -0.079652 -0.079031 76 0 153
-0.324924 -0.677387 0.418449 76 0 153
-0.013896 -0.119137 -0.315400 76 0 153
0.274759 0.025303 -0.152122 204 51 127
-0.332285 -0.121023 0.465672 76 0 153
0.374812 0.584191 -0.187698 0 127 127
-0.100981 -0.167037 -0.240339 76 0 153
0.161819 -0.054456 -0.195041 0 0 255
0.383207 0.541344 -0.127722 0 127 127
0.310352 0.316143 -0.189149 204 51 127
-0.261555 0.493638 -0.170258 127 127 0
-0.223312 0.193806 -0.159009 127 127 0
-0.055040 -0.167037 -0.289465 76 0 153
0.244701 -0.079652 0.428709 76 0 153
-0.258860 0.281415 -0.216877 127 127 0
-0.000806 -0.167037 -0.153575 76 0 153
-0.119898 0.595318 -0.276706 0 127 127
0.028375 -0.079652 -0.262700 255 0 0
-0.148633 0.486050 -0.244543 0 255 0
0.122758 -0.131037 0.474432 76 0 153
-0.170565 0.560037 -0.252012 0 127 127
0.352327 -0.167037 0.042088 76 0 153
-0.200399 0.216636 -0.198738 127 127 0
-0.011886 0.019185 -0.226146 255 0 0
0.273150 0.601632 -0.238500 0 127 127
0.284890 0.632467 -0.138328 0 127 127
-0.150474 -0.079652 0.075597 76 0 153
-0.185174 0.630055 -0.243679 0 127 127
-0.289448 -0.655175 0.437452 76 0 153
0.074672 -0.167037 0.470329 76 0 153
-0.265649 0.587080 -0.207127 127 127 0
-0.121160 0.499644 -0.195548 0 255 0
0.358034 -0.111543 0.036637 76 0 153
-0.333724 -0.127742 0.217980 76 0 153
-0.124348 0.252516 -0.264167 0 255 0
-0.261485 0.389657 -0.213592 127 127 0
-0.161252 0.631783 -0.175833 0 127 127
-0.200885 0.640329 -0.175308 0 127 127
-0.321086 -0.214058 0.444943 76 0 153
0.216830 -0.167037 0.266219 76 0 153
-0.121620 0.643551 -0.208981 0 127 127
-0.054831 -0.146092 -0.315268 76 0 153
0.030917 -0.079652 0.167246 76 0 153
0.295886 -0.508903 -0.205747 76 153 0
0.065185 -0.167037 -0.172217 76 0 153
-0.322926 -0.683936 -0.199159 0 127 127
0.042754 -0.079652 0.193679 76 0 153
0.222205 0.555920 -0.164924 0 127 127
-0.298131 -0.777183 -0.174359 0 127 127
-0.258012 -0.207851 0.436803 76 0 153
0.325495 -0.161306 -0.243034 76 0 153
0.032392 0.426380 -0.217531 255 0 0
-0.213486 -0.136294 -0.278540 76 0 153
-0.267475 -0.235977 0.406456 76 0 153
0.136506 -0.079652 -0.159906 76 0 153
-0.046265 0.541339 -0.238415 0 127 127
0.073379 -0.119332 0.471945 76 0 153
0.184760 0.580364 -0.243087 0 0 255
-0.099437 0.611590 -0.200286 0 255 0
-0.324321 -0.528582 -0.181454 0 127 127
0.112144 -0.162723 -0.311728 76 0 153
0.287104 -0.436837 -0.187209 76 153 0
-0.011121 -0.079652 -0.285986 76 0 153
-0.333724 -0.151936 0.255978 76 0 153
-0.279584 -0.537742 0.438025 76 0 153
0.121242 0.382382 -0.242701 0 0 255
0.006776 0.314365 -0.214232 255 0 0
0.043307 -0.167037 0.469512 76 0 153
0.184175 0.398606 -0.213454 0 0 255
-0.211834 0.514943 -0.218189 127 127 0
0.100792 -0.167037 0.020531 76 0 153
-0.320333 -0.564201 -0.173213 0 127 127
0.302105 -0.079652 0.135037 76 0 153
-0.333724 -0.146484 0.106322 76 0 153
-0.312527 -0.816711 -0.211102 0 127 127
-0.333724 -0.140776 -0.151259 76 0 153
0.331902 -0.589153 -0.201157 76 153 0
0.048578 -0.058013 -0.237287 255 0 0
-0.313637 -0.167037 -0.135920 76 0 153
0.195730 -0.167037 0.372788 76 0 153
0.197349 -0.079652 0.275584 76 0 153
0.052026 -0.167037 -0.250235 76 0 153
0.007126 0.412370 -0.281509 255 0 0
-0.048528 -0.167037 0.103186 76 0 153
-0.006981 -0.167037 0.454027 76 0 153
-0.286173 -0.352308 0.455183 76 0 153
-0.324331 -0.508079 0.417282 76 0 153
-0.083764 -0.079652 -0.264083 76 0 153
-0.287426 0.566129 -0.108868 0 127 127
0.026349 0.008508 -0.280859 255 0 0
0.317155 -0.381592 0.454869 153 0 76
-0.320953 -0.597974 -0.201296 0 127 127
-0.233892 0.300108 -0.226787 127 127 0
-0.147013 0.541511 -0.210427 0 127 127
-0.035028 0.629079 -0.274647 0 127 127
0.293637 -0.271256 0.447687 153 0 76
0.307984 -0.079652 -0.036284 76 0 153
0.150200 -0.079652 0.022768 76 0 153
-0.333724 -0.124761 -0.112177 76 0 153
-0.314552 -0.238348 0.452950 76 0 153
-0.280124 -0.632234 0.428588 76 0 153
-0.214129 0.542140 -0.183395 0 127 127
-0.204228 0.594031 -0.253473 0 127 127
-0.200080 0.567162 -0.187548 127 127 0
0.297346 -0.079652 0.237036 76 0 153
-0.166279 -0.167037 -0.057060 76 0 153
-0.293039 -0.121721 0.473426 76 0 153
0.256002 -0.019495 -0.158144 204 51 127
0.187507 0.191110 -0.224159 0 0 255
0.034869 -0.079652 0.428634 76 0 153
-0.306372 -0.372377 0.452934 76 0 153
0.250765 -0.167037 0.224117 76 0 153
0.259651 -0.079652 0.409427 76 0 153
0.181745 0.517901 -0.208847 0 0 255
-0.122857 0.210352 -0.195933 0 255 0
-0.082340 0.408118 -0.229507 0 255 0
-0.144541 -0.167037 0.429176 76 0 153
-0.252786 0.333002 -0.221485 127 127 0
-0.083173 -0.079652 0.371926 76 0 153
-0.233387 0.111310 -0.226718 127 127 0
-0.262398 -0.071668 -0.212415 127 127 0
0.164648 0.524677 -0.261463 0 0 255
0.311419 -0.711596 -0.212003 76 153 0
-0.065592 -0.167037 -0.053886 76 0 153
-0.017380 -0.079652 0.267930 76 0 153
0.170649 -0.115434 0.469529 76 0 153
0.422686 0.578155 -0.160279 0 127 127
0.341926 -0.167037 -0.150182 76 0 153
0.125117 0.605529 -0.280335 0 127 127
0.288128 -0.280260 -0.171179 76 153 0
0.187393 -0.167037 0.427417 76 0 153
0.094771 -0.079652 -0.266125 76 0 153
-0.315059 -0.212865 -0.202521 0 127 127
0.130125 0.140708 -0.254909 0 0 255
0.319665 -0.167037 0.363716 76 0 153
-0.042815 -0.097299 0.458290 76 0 153
-0.293871 0.627128 -0.200572 0 127 127
0.308460 -0.141576 0.474432 76 0 153
0.339506 -0.167037 -0.032609 76 0 153
0.290517 0.019066 -0.218358 204 51 127
-0.046471 -0.167037 0.301185 76 0 153
0.274274 -0.167037 -0.201452 76 0 153
-0.040227 -0.079652 -0.056509 76 0 153
-0.261357 0.015234 -0.213757 127 127 0
0.110194 -0.167037 -0.248559 76 0 153
0.009102 0.322394 -0.282120 255 0 0
-0.309776 -0.439214 0.399116 76 0 153
-0.260308 -0.256994 -0.173482 0 127 127
-0.285818 -0.167037 0.162493 76 0 153
-0.281188 -0.693899 -0.192855 0 127 127
0.310159 0.031589 -0.185218 204 51 127
0.280794 -0.079652 0.063810 76 0 153
0.138527 -0.167037 0.189821 76 0 153
0.035948 0.246651 -0.276036 255 0 0
0.299165 -0.167037 0.441842 153 0 76
0.028341 0.502641 -0.280174 255 0 0
-0.405258 0.541509 -0.089196 0 127 127
-0.300486 -0.830713 0.396809 76 0 153
-0.107309 0.076759 -0.263477 0 255 0
0.046490 0.223507 -0.232408 255 0 0
-0.314193 0.542612 -0.131763 0 127 127
0.333148 -0.631068 -0.194519 76 153 0
0.047543 0.593006 -0.261257 255 0 0
-0.081396 -0.079652 -0.031591 76 0 153
0.136068 0.585392 -0.198316 0 0 255
-0.106988 0.645344 -0.227747 0 127 127
-0.316422 -0.268773 -0.201686 0 127 127
-0.168719 -0.079652 0.279816 76 0 153
0.126482 -0.016961 -0.250976 0 0 255
0.343661 -0.167037 -0.126387 76 0 153
0.344114 -0.412936 -0.180231 76 153 0
-0.286856 -0.705262 0.403324 76 0 153
-0.050523 0.635691 -0.203914 0 127 127
-0.130057 0.111872 -0.197834 0 255 0
-0.300115 -0.478746 0.449786 76 0 153
0.343125 -0.258594 -0.157404 76 153 0
-0.236522 0.577125 -0.130045 0 127 127
0.121893 0.087909 -0.243935 0 0 255
0.042299 -0.079652 -0.085997 76 0 153
0.319927 -0.718535 -0.173710 76 153 0
-0.325474 -0.110033 0.391612 76 0 153
-0.445842 0.643871 -0.080507 0 127 127
-0.162502 -0.167037 0.339715 76 0 153
0.039689 -0.167037 -0.024657 76 0 153
-0.100262 -0.100512 -0.294722 76 0 153
0.273706 -0.027694 -0.221567 204 51 127
0.272461 -0.079652 0.032937 76 0 153
0.303235 0.173831 -0.165784 204 51 127
-0.086335 -0.167037 -0.137101 76 0 153
-0.241075 0.347731 -0.157814 127 127 0
0.240730 0.286974 -0.183796 204 51 127
0.047266 0.315459 -0.233880 255 0 0
-0.076381 -0.079652 0.331854 76 0 153
-0.302426 -0.167037 -0.237793 76 0 153
-0.233437 0.387409 -0.157087 127 127 0
0.108509 -0.167037 -0.002316 76 0 153
-0.014528 0.131251 -0.265286 255 0 0
0.302211 0.079413 -0.164196 204 51 127
-0.290256 -0.550700 -0.163591 0 127 127
-0.165072 -0.140661 -0.294498 76 0 153
-0.086042 0.614696 -0.245952 0 255 0
-0.333724 -0.149307 -0.051096 76 0 153
-0.082554 0.060235 -0.235126 0 255 0
-0.207513 0.501126 -0.170091 127 127 0
-0.150971 -0.079652 0.032871 76 0 153
0.106660 -0.079652 0.171066 76 0 153
0.049969 0.458404 -0.251504 255 0 0
0.052914 0.629301 -0.199755 0 127 127
0.211725 -0.167037 0.124453 76 0 153
0.160621 0.441592 -0.194670 0 0 255
-0.223624 -0.025237 -0.158882 127 127 0
0.027859 -0.167037 0.294347 76 0 153
-0.260118 -0.031617 -0.215353 127 127 0
-0.312398 -0.491309 -0.208123 0 127 127
0.153050 0.015791 -0.263261 0 0 255
-0.011505 -0.167037 0.236126 76 0 153
0.058493 -0.167037 0.167483 76 0 153
0.123383 -0.064606 -0.246759 0 0 255
0.113697 -0.167037 0.431047 76 0 153
0.323306 -0.079652 -0.106432 76 0 153
0.239525 -0.079652 -0.195676 76 0 153
0.284223 0.366673 -0.153202 204 51 127
-0.155690 -0.167037 0.005727 76 0 153
0.181454 -0.167037 0.292021 76 0 153
0.179050 0.308249 -0.251660 0 0 255
0.091629 -0.079652 0.281888 76 0 153
-0.255821 -0.167037 0.075645 76 0 153
-0.382903 0.612720 -0.053365 0 127 127
-0.235891 -0.079652 0.319105 76 0 153
-0.020133 -0.079652 0.078563 76 0 153
-0.269271 0.184902 -0.190918 127 127 0
-0.332182 -0.120856 0.322834 76 0 153
0.132572 0.625374 -0.270047 0 127 127
-0.303957 -0.667201 -0.167730 0 127 127
0.138836 -0.167037 0.290857 76 0 153
0.274316 -0.079652 -0.025821 76 0 153
-0.051467 -0.079652 0.384066 76 0 153
0.294286 -0.702693 0.401190 153 0 76
-0.031020 -0.079652 0.226387 76 0 153
0.000454 0.197498 -0.279324 255 0 0
0.308089 -0.608942 0.396141 153 0 76
-0.118204 -0.061059 -0.195427 0 255 0
-0.306280 -0.437167 -0.210511 0 127 127
0.323041 -0.839202 -0.198966 76 153 0
-0.324374 -0.424285 -0.188506 0 127 127
0.334443 -0.192335 -0.209367 76 153 0
0.158497 -0.079652 0.444261 76 0 153
-0.295668 -0.695113 -0.211004 0 127 127
0.159578 -0.079652 -0.153712 76 0 153
-0.000808 -0.079652 0.038025 76 0 153
-0.308873 -0.635834 0.397099 76 0 153
0.001867 0.363956 -0.279882 255 0 0
-0.327634 -0.113518 0.073028 76 0 153
-0.045020 -0.167037 -0.252338 76 0 153
0.365349 -0.155293 0.148807 76 0 153
0.300189 0.520375 -0.162351 204 51 127
0.382705 0.625055 -0.078118 0 127 127
0.132582 0.069364 -0.200228 0 0 255
-0.015520 0.447917 -0.263407 255 0 0
0.269845 -0.079652 -0.145719 76 0 153
-0.001605 -0.079652 0.378818 76 0 153
0.318342 -0.096631 0.457876 76 0 153
0.286780 -0.633427 -0.188531 76 153 0
0.000351 -0.167037 0.099291 76 0 153
-0.067935 0.601191 -0.180457 0 127 127
0.334616 -0.363086 0.449820 153 0 76
0.323067 -0.079652 0.059380 76 0 153
0.166485 -0.079652 0.314016 76 0 153
0.158529 0.129415 -0.262855 0 0 255
0.325332 -0.443836 -0.210143 76 153 0
-0.061176 -0.079652 0.035050 76 0 153
0.307814 0.447057 -0.199794 204 51 127
-0.128002 -0.079652 0.369586 76 0 153
-0.318792 -0.557192 0.437216 76 0 153
0.302019 0.143518 -0.209168 204 51 127
0.056614 -0.167037 0.013174 76 0 153
0.057235 -0.116430 -0.313184 76 0 153
0.286285 -0.079652 -0.120787 76 0 153
0.246058 -0.167037 0.020426 76 0 153
-0.102077 -0.167037 -0.275967 76 0 153
-0.314381 -0.167037 0.422927 76 0 153
0.258719 0.152229 -0.217100 204 51 127
0.118011 -0.167037 -0.121150 76 0 153
-0.063182 -0.079652 0.414366 76 0 153
0.145512 -0.042692 -0.262545 0 0 255
-0.226280 -0.167037 0.425863 76 0 153
-0.261281 -0.079652 -0.112742 76 0 153
-0.186727 -0.079652 0.298027 76 0 153
-0.222904 0.631640 -0.228793 0 127 127
0.015426 -0.167037 -0.234966 76 0 153
0.340575 -0.220476 -0.152286 76 153 0
0.312573 -0.167037 -0.067698 76 0 153
-0.249902 -0.167037 -0.049909 76 0 153
-0.256570 -0.116389 0.470121 76 0 153
-0.034798 -0.079652 -0.027599 76 0 153
0.334664 -0.328538 -0.207143 76 153 0
0.310183 -0.315816 0.396815 153 0 76
0.169747 -0.167037 0.400672 76 0 153
0.019764 0.395415 -0.213288 255 0 0
-0.290864 -0.167037 0.417429 76 0 153
-0.240209 -0.167037 0.248580 76 0 153
-0.135441 -0.167037 0.330736 76 0 153
-0.226164 0.000779 -0.158004 127 127 0
-0.173013 -0.079652 -0.185056 76 0 153
-0.142026 -0.167037 0.469490 76 0 153
-0.151717 0.244998 -0.229960 0 255 0
0.290771 -0.820007 -0.205047 76 153 0
-0.107325 0.011318 -0.196883 0 255 0
-0.258927 0.208469 -0.216826 127 127 0
-0.134404 -0.079652 0.151080 76 0 153
0.049853 0.208796 -0.253789 255 0 0
0.255922 0.208788 -0.215663 204 51 127
0.307138 -0.167037 0.392414 76 0 153
0.187704 0.273191 -0.227232 0 0 255
-0.455584 0.615248 -0.123258 0 127 127
0.340025 -0.082487 0.102414 76 0 153
-0.198934 -0.079652 0.341481 76 0 153
0.301891 -0.436638 -0.159350 76 153 0
0.213903 -0.150490 -0.288868 76 0 153
-0.279990 -0.079652 0.341321 76 0 153
-0.008100 0.475156 -0.273396 255 0 0
0.136141 0.299123 -0.198277 0 0 255
0.354726 -0.106205 -0.198972 76 0 153
0.171043 -0.167037 0.356397 76 0 153
-0.069071 -0.167037 0.349615 76 0 153
-0.324727 -0.108827 0.277136 76 0 153
-0.113264 0.568917 -0.177840 0 127 127
0.245177 0.365204 -0.203641 204 51 127
0.023415 -0.103827 0.462335 76 0 153
-0.324672 -0.476925 0.425377 76 0 153
0.241272 -0.010874 -0.181289 204 51 127
0.141444 0.552802 -0.195662 0 0 255
-0.036055 -0.167037 -0.129478 76 0 153
-0.244025 0.053331 -0.225412 127 127 0
0.179079 0.420487 -0.251634 0 0 255
0.365349 -0.154125 0.205628 76 0 153
0.174093 0.048432 -0.256253 0 0 255
-0.082491 0.198884 -0.225812 0 255 0
-0.070915 0.543798 -0.248536 0 127 127
0.042326 0.074715 -0.270125 255 0 0
-0.266829 0.321021 -0.204320 127 127 0
-0.134370 0.176413 -0.260195 0 255 0
-0.211359 -0.167037 -0.234564 76 0 153
0.242256 0.166616 -0.176728 204 51 127
0.262259 -0.154705 -0.272157 76 0 153
-0.304288 -0.589283 0.396294 76 0 153
0.241072 -0.167037 0.455143 76 0 153
0.120924 0.619421 -0.220717 0 0 255
0.343837 -0.167037 0.425419 153 0 76
0.153109 -0.079652 0.174541 76 0 153
-0.216422 -0.167037 0.077540 76 0 153
-0.290476 -0.617432 0.398405 76 0 153
-0.248576 -0.167037 0.179940 76 0 153
-0.321418 -0.167037 -0.103063 76 0 153
-0.057291 -0.079652 0.060530 76 0 153
0.150004 0.424932 -0.263145 0 0 255
0.287759 -0.400776 0.417221 153 0 76
0.184826 0.541384 -0.215586 0 127 127
-0.025315 -0.079652 0.165538 76 0 153
0.282584 0.331033 -0.152848 204 51 127
-0.151735 0.361212 -0.233890 0 255 0
-0.291492 -0.079652 0.105272 76 0 153
0.238037 -0.167037 0.430007 76 0 153
-0.140293 -0.167037 0.184987 76 0 153
0.325590 -0.167037 0.266081 76 0 153
0.295425 -0.227886 -0.201210 76 153 0
-0.135063 -0.023409 -0.200477 0 255 0
-0.333393 0.608151 -0.078192 0 127 127
-0.337657 0.629416 -0.089880 0 127 127
-0.294080 -0.149940 0.474432 76 0 153
-0.018006 0.063788 -0.257052 255 0 0
-0.121565 0.363844 -0.195640 0 255 0
0.124945 0.565146 -0.208052 0 0 255
-0.328268 -0.114541 0.013194 76 0 153
0.334883 -0.591630 0.413618 153 0 76
-0.088872 -0.079652 0.209568 76 0 153
-0.240853 0.052386 -0.157783 127 127 0
0.071767 -0.079652 -0.224703 76 0 153
-0.040389 -0.079652 0.344737 76 0 153
-0.133109 -0.079652 0.002277 76 0 153
0.254806 -0.167037 0.382781 76 0 153
-0.149050 0.086296 -0.243754 0 255 0
-0.195110 0.568294 -0.152766 0 127 127
-0.019273 -0.079652 -0.120925 76 0 153
-0.057944 -0.167037 -0.099510 76 0 153
0.178361 -0.079652 0.287900 76 0 153
0.000060 -0.079652 -0.009865 76 0 153
0.288808 -0.475804 -0.175298 76 153 0
0.102075 -0.079652 0.107757 76 0 153
-0.262889 -0.174094 0.451607 76 0 153
-0.263354 -0.022583 -0.172630 127 127 0
-0.333724 -0.150247 0.151168 76 0 153
0.365148 -0.123019 -0.155545 76 0 153
0.251430 -0.167037 -0.013555 76 0 153
-0.034147 -0.167037 -0.048418 76 0 153
0.354328 -0.105562 0.272301 76 0 153
0.048604 0.038818 -0.237403 255 0 0
-0.260036 0.561599 -0.219854 0 127 127
-0.212556 0.148926 -0.218750 127 127 0
0.310314 0.471714 -0.188382 204 51 127
-0.339687 0.579530 -0.188037 0 127 127
0.225095 -0.079652 0.051648 76 0 153
0.008758 -0.167037 0.279989 76 0 153
-0.092166 -0.167037 0.408520 76 0 153
0.240709 0.565298 -0.148659 0 127 127
0.272848 0.402130 -0.221609 204 51 127
-0.288925 -0.167037 -0.166861 0 127 127
-0.214386 -0.167037 -0.085879 76 0 153
0.030860 -0.167037 -0.300235 76 0 153
-0.104577 0.039095 -0.262756 0 255 0
0.154524 -0.079652 0.088080 76 0 153
0.118989 0.320514 -0.221175 0 0 255
0.045291 0.148062 -0.230135 255 0 0
-0.131978 0.591886 -0.198848 0 255 0
-0.291678 -0.079652 -0.190529 76 0 153
0.058192 0.641148 -0.258664 0 127 127
-0.309459 -0.167037 -0.209943 76 0 153
0.328270 -0.163430 0.474432 76 0 153
0.240727 0.555792 -0.184440 204 51 127
-0.012190 0.645354 -0.238768 0 127 127
-0.201409 0.461747 -0.202602 127 127 0
-0.130592 0.619421 -0.238138 0 255 0
-0.276666 -0.167037 -0.198149 0 127 127
0.029997 0.617846 -0.192456 0 127 127
0.286347 -0.079652 0.424954 76 0 153
-0.261530 -0.167037 -0.233631 76 0 153
0.339537 -0.103228 0.461964 76 0 153
0.268316 -0.167037 -0.129959 76 0 153
-0.202754 0.338177 -0.205902 127 127 0
0.141506 0.391888 -0.195647 0 0 255
-0.324231 -0.613709 0.425259 76 0 153
0.122944 -0.167037 0.206445 76 0 153
0.023516 -0.020088 -0.281503 255 0 0
-0.260662 0.087151 -0.169080 127 127 0
0.186313 -0.079652 0.051638 76 0 153
-0.100158 -0.079652 -0.111033 76 0 153
-0.306575 -0.228065 0.399569 76 0 153
0.031388 0.285435 -0.216900 255 0 0
0.287282 -0.545928 0.425659 153 0 76
0.074216 -0.079652 0.131101 76 0 153
-0.011791 0.018566 -0.269413 255 0 0
-0.204233 0.564458 -0.209374 127 127 0
-0.111320 -0.167037 -0.167459 76 0 153
0.153728 0.528303 -0.193927 0 0 255
-0.243926 -0.167037 0.225551 76 0 153
0.094082 -0.079652 -0.106047 76 0 153
0.177278 0.357020 -0.253302 0 0 255
0.012402 0.035581 -0.282367 255 0 0
0.288401 -0.167037 -0.103377 76 0 153
-0.244248 -0.079652 -0.095957 76 0 153
0.187737 0.295568 -0.226353 0 0 255
-0.253061 0.606656 -0.162451 127 127 0
-0.089381 0.175782 -0.251258 0 255 0
-0.281940 -0.490391 0.444036 76 0 153
-0.272760 -0.208903 -0.150158 0 127 127
0.357933 -0.111380 0.397483 76 0 153
-0.106712 0.400459 -0.197073 0 255 0
-0.304192 -0.346904 -0.153298 0 127 127
0.166013 -0.079652 0.239632 76 0 153
-0.089837 -0.031304 -0.251984 0 255 0
-0.317349 -0.360900 0.406181 76 0 153
0.229352 -0.079652 0.185951 76 0 153
-0.193117 -0.112705 -0.278335 76 0 153
0.297432 0.274197 -0.213898 204 51 127
-0.379459 0.581381 -0.167499 0 127 127
0.326126 -0.244512 0.460983 153 0 76
0.298003 -0.167037 0.050053 76 0 153
0.279987 -0.079652 0.139655 76 0 153
0.025383 0.354410 -0.281079 255 0 0
-0.078691 0.613215 -0.280187 0 127 127
0.328252 -0.079652 0.037739 76 0 153
0.321963 -0.429006 0.451715 153 0 76
-0.240023 0.170474 -0.157669 127 127 0
0.263136 0.426135 -0.154366 204 51 127
0.205975 0.645309 -0.211972 0 127 127
0.277026 0.475583 -0.221404 204 51 127
0.145326 -0.167037 -0.212669 76 0 153
-0.279005 -0.652447 -0.190661 0 127 127
0.253303 0.400370 -0.159885 204 51 127
0.285581 0.597346 -0.219954 204 51 127
0.101200 -0.079652 0.036531 76 0 153
-0.043834 -0.165344 -0.316642 76 0 153
0.124786 -0.079652 0.246851 76 0 153
0.049981 -0.006397 -0.251179 255 0 0
0.337687 -0.290659 0.402431 153 0 76
-0.192033 -0.167037 0.470324 76 0 153
0.342879 -0.312097 0.445913 153 0 76
-0.222462 -0.079652 0.031968 76 0 153
0.334175 -0.556543 0.408524 153 0 76
-0.306884 -0.080039 0.142697 76 0 153
0.166016 0.287379 -0.260879 0 0 255
-0.015007 -0.167037 0.430901 76 0 153
0.305991 0.613096 -0.220938 0 127 127
-0.213471 0.380387 -0.219460 127 127 0
0.262086 0.571080 -0.238551 0 127 127
-0.114461 -0.163034 0.474432 76 0 153
0.018797 0.277319 -0.282577 255 0 0
0.289814 -0.640943 0.407381 153 0 76
-0.134186 -0.161439 -0.301673 76 0 153
-0.176462 -0.167037 0.309090 76 0 153
0.050106 0.492043 -0.247889 255 0 0
0.255460 0.610201 -0.158494 204 51 127
-0.231612 0.014632 -0.226474 127 127 0
-0.328095 0.565078 -0.087905 0 127 127
-0.310217 -0.085417 -0.120199 76 0 153
0.174213 0.359258 -0.201000 0 0 255
0.187388 -0.077328 -0.223635 0 0 255
-0.302346 0.579600 -0.207910 0 127 127
0.365349 -0.150373 -0.121936 76 0 153
0.342676 -0.167037 0.101568 76 0 153
0.244435 0.130625 -0.171488 204 51 127
-0.027559 -0.167037 0.068130 76 0 153
-0.388385 0.634611 -0.141977 0 127 127
0.365168 -0.123053 0.105398 76 0 153
-0.204218 0.171293 -0.209354 127 127 0
-0.039000 -0.079652 0.205786 76 0 153
0.360655 -0.115770 0.306792 76 0 153
-0.094813 -0.079652 0.013297 76 0 153
-0.088271 0.643423 -0.215743 0 127 127
0.078335 -0.079652 0.418617 76 0 153
0.121893 0.158365 -0.243936 0 0 255
-0.159774 -0.167037 0.293040 76 0 153
0.200086 -0.079652 -0.154165 76 0 153
0.317843 0.567574 -0.108605 0 127 127
-0.320346 -0.841953 0.425689 76 0 153
-0.129697 -0.167037 0.377774 76 0 153
0.229573 0.607636 -0.146724 0 127 127
0.271316 -0.079652 0.174169 76 0 153
0.182762 0.635832 -0.247343 0 127 127
-0.313095 -0.090060 0.315803 76 0 153
-0.003025 0.433652 -0.218358 255 0 0
0.027954 -0.148658 -0.318812 76 0 153
0.118812 -0.167037 0.452507 76 0 153
0.101619 -0.167037 -0.046438 76 0 153
-0.088294 -0.079652 0.164940 76 0 153
0.007532 0.619421 -0.223628 255 0 0
0.155913 -0.079652 0.055563 76 0 153
-0.050329 -0.079652 -0.146225 76 0 153
0.307316 -0.349024 -0.153461 76 153 0
0.161600 0.043985 -0.194973 0 0 255
-0.195621 -0.167037 0.137478 76 0 153
0.164486 -0.025370 -0.261500 0 0 255
-0.204863 -0.068395 -0.210204 127 127 0
-0.106830 -0.167037 -0.004190 76 0 153
0.312099 -0.211516 0.396901 153 0 76
-0.212329 0.080139 -0.165180 127 127 0
-0.138221 0.634941 -0.251776 0 127 127
0.187668 0.318077 -0.228172 0 0 255
-0.311222 -0.265449 0.454496 76 0 153
0.335301 -0.167037 0.296306 76 0 153
-0.218632 -0.167037 -0.138512 76 0 153
-0.264704 -0.079652 0.165359 76 0 153
-0.316178 -0.167037 -0.016621 76 0 153
0.250017 -0.079652 0.238024 76 0 153
0.064375 -0.079652 -0.137070 76 0 153
0.281181 -0.167037 -0.179593 76 0 153
-0.225352 0.035604 -0.225615 127 127 0
0.110861 -0.079652 -0.194709 76 0 153
0.309335 0.584035 -0.194457 204 51 127
-0.217128 0.190816 -0.222188 127 127 0
-0.127865 -0.167037 -0.090333 76 0 153
-0.053129 -0.167037 0.205479 76 0 153
-0.251344 0.619421 -0.204798 127 127 0
-0.007933 0.546296 -0.260316 0 127 127
0.273062 0.544734 -0.162081 0 127 127
-0.019323 -0.011462 -0.249719 255 0 0
0.329237 0.645086 -0.163057 0 127 127
0.051394 -0.167037 0.216141 76 0 153
-0.333724 -0.145654 0.358147 76 0 153
0.310175 -0.549695 -0.212137 76 153 0
-0.278764 -0.592075 -0.199230 0 127 127
-0.198730 -0.079652 0.387988 76 0 153
-0.396817 0.561002 -0.054504 0 127 127
-0.443686 0.547071 -0.076451 0 127 127
-0.268936 -0.382111 0.412138 76 0 153
0.300500 -0.491676 0.399259 153 0 76
0.294280 -0.584133 -0.205480 76 153 0
0.286933 -0.680975 -0.188557 76 153 0
-0.001360 0.516658 -0.217479 255 0 0
-0.324809 -0.108960 0.441142 76 0 153
0.024655 -0.090079 -0.298324 76 0 153
0.296841 -0.167037 0.346326 76 0 153
0.008504 0.467854 -0.213839 255 0 0
0.187625 0.113598 -0.229308 0 0 255
0.204337 -0.167037 -0.080669 76 0 153
0.309902 -0.460394 0.396383 153 0 76
0.226439 -0.167037 -0.159380 76 0 153
0.287013 -0.590935 0.417837 153 0 76
0.032881 0.534426 -0.217839 255 0 0
0.217716 -0.167037 0.340906 76 0 153
-0.262609 -0.145969 -0.258225 76 0 153
-0.347655 0.578909 -0.070467 0 127 127
0.175691 0.613547 -0.167466 0 127 127
-0.248753 -0.167037 0.114208 76 0 153
-0.019068 0.256949 -0.243025 255 0 0
0.293652 -0.295159 0.408174 153 0 76
0.358069 -0.111599 0.128000 76 0 153
0.097640 -0.167037 -0.266313 76 0 153
-0.164874 -0.167037 -0.157980 76 0 153
0.295353 -0.603989 -0.170223 76 153 0
-0.213133 0.473232 -0.164570 127 127 0
0.321967 -0.616200 0.440331 153 0 76
-0.150236 0.199727 -0.220187 0 255 0
0.072196 -0.079652 -0.258661 76 0 153
-0.301121 -0.207139 0.397486 76 0 153
-0.274575 -0.485459 -0.199246 0 127 127
0.334616 -0.500296 0.438392 153 0 76
-0.458521 0.572562 -0.104360 0 127 127
0.350407 -0.271170 0.419783 153 0 76
0.281164 -0.103238 0.461970 76 0 153
0.256775 -0.089359 0.453369 76 0 153
0.089718 0.627152 -0.193859 0 127 127
-0.295999 -0.594402 -0.164456 0 127 127
-0.262629 0.545747 -0.147715 0 127 127
-0.130565 0.340160 -0.262244 0 255 0
0.280302 0.500368 -0.152355 204 51 127
0.125843 -0.167037 0.070427 76 0 153
-0.268114 -0.211556 -0.203212 0 127 127
-0.081029 -0.079652 -0.194885 76 0 153
0.399690 0.645459 -0.110921 0 127 127
0.268639 0.173210 -0.152598 204 51 127
0.049986 -0.167037 0.428656 76 0 153
-0.324543 -0.398326 0.421622 76 0 153
0.190550 -0.167037 -0.278376 76 0 153
0.128163 0.111891 -0.204323 0 0 255
-0.216382 0.619421 -0.182116 127 127 0
0.407490 0.617062 -0.081421 0 127 127
-0.333724 -0.162011 0.432882 76 0 153
-0.039938 -0.079652 -0.259224 76 0 153
0.040662 -0.167037 0.138330 76 0 153
0.049598 -0.167037 0.249796 76 0 153
-0.234265 -0.079652 0.139465 76 0 153
-0.367353 0.561823 -0.163780 0 127 127
0.304511 0.619421 -0.184475 204 51 127
0.183496 0.602795 -0.245141 0 0 255
0.231238 -0.079652 -0.246749 76 0 153
-0.261570 -0.258023 0.417792 76 0 153
0.182912 0.182082 -0.246069 0 0 255
0.398048 0.547471 -0.144709 0 127 127
-0.044127 -0.167037 0.277975 76 0 153
-0.114685 -0.167037 0.147618 76 0 153
-0.247275 0.160035 -0.224087 127 127 0
-0.088806 0.186067 -0.209640 0 255 0
0.317382 -0.259855 -0.147406 76 153 0
0.305510 -0.534101 0.396842 153 0 76
0.175078 -0.167037 0.468136 76 0 153
-0.254278 -0.079652 0.081133 76 0 153
-0.228560 -0.079652 -0.142147 76 0 153
0.052983 -0.167037 0.397962 76 0 153
-0.320922 -0.759316 -0.204029 0 127 127
0.353561 0.544383 -0.161549 0 127 127
0.167557 0.619421 -0.247750 0 0 255
-0.004136 0.431006 -0.276435 255 0 0
0.049250 0.263044 -0.240245 255 0 0
-0.005622 0.543824 -0.220065 255 0 0
-0.035631 -0.167037 0.013502 76 0 153
0.205508 -0.167037 0.099063 76 0 153
0.234829 -0.167037 0.175694 76 0 153
0.283243 0.606746 -0.152990 204 51 127
0.266234 0.586863 -0.128327 0 127 127
-0.278922 -0.167037 -0.128134 76 0 153
-0.200768 0.488445 -0.201030 127 127 0
0.184035 -0.131045 -0.297439 76 0 153
-0.150472 -0.079652 0.322346 76 0 153
-0.328627 -0.115120 -0.019267 76 0 153
-0.152904 -0.134814 0.474432 76 0 153
-0.028992 0.543891 -0.221082 0 127 127
0.321557 -0.371498 -0.211763 76 153 0
0.212378 -0.167037 0.077726 76 0 153
0.437030 0.615595 -0.136990 0 127 127
0.203201 -0.167037 -0.119768 76 0 153
0.021042 0.465140 -0.282066 255 0 0
-0.284278 -0.731583 0.423954 76 0 153
-0.075207 0.562380 -0.189154 0 127 127
-0.333724 -0.140415 0.021722 76 0 153
0.254220 -0.167037 0.293005 76 0 153
0.295327 -0.424052 0.444661 153 0 76
0.278364 0.171903 -0.221338 204 51 127
0.009484 0.090161 -0.282238 255 0 0
0.301339 -0.791226 -0.174362 76 153 0
-0.180143 -0.079652 0.009845 76 0 153
0.272510 -0.167037 0.464017 76 0 153
0.158426 -0.167037 -0.098462 76 0 153
0.165512 -0.079652 -0.078823 76 0 153
0.149091 -0.079652 -0.218649 76 0 153
-0.106881 -0.167037 0.038912 76 0 153
0.147658 -0.167037 -0.273900 76 0 153
0.170859 0.601631 -0.198889 0 0 255
0.249584 -0.079652 -0.225991 76 0 153
-0.333724 -0.126691 0.296628 76 0 153
-0.284494 -0.167037 0.013880 76 0 153
0.031073 0.592201 -0.278732 255 0 0
0.262865 -0.079652 0.206275 76 0 153
0.343271 -0.173497 -0.204391 76 153 0
-0.134939 0.385861 -0.259836 0 255 0
0.345726 -0.310668 -0.195864 76 153 0
-0.265319 -0.327933 0.437841 76 0 153
0.073636 -0.167037 -0.298503 76 0 153
0.296151 -0.774317 0.432229 153 0 76
0.341092 -0.277453 -0.203480 76 153 0
0.305394 0.234498 -0.204506 204 51 127
0.272799 -0.167037 0.149747 76 0 153
-0.055341 -0.167037 0.031111 76 0 153
-0.324756 -0.859246 -0.196474 0 127 127
-0.084129 0.094489 -0.218614 0 255 0
0.145557 0.324808 -0.262559 0 0 255
-0.276078 -0.579513 -0.181839 0 127 127
-0.313307 -0.090403 0.169133 76 0 153
0.092513 -0.167037 -0.167922 76 0 153
0.045908 -0.079652 0.085759 76 0 153
-0.356062 0.627071 -0.077338 0 127 127
0.322849 -0.842802 0.418575 153 0 76
0.320678 -0.180658 -0.143268 76 153 0
0.325157 -0.665122 -0.173702 76 153 0
0.152698 -0.079652 -0.109297 76 0 153
0.342812 0.541520 -0.138555 0 127 127
0.200739 -0.167037 -0.159246 76 0 153
0.145979 -0.167037 0.247176 76 0 153
-0.112351 0.529174 -0.195651 0 255 0
-0.323322 -0.343594 -0.172468 0 127 127
0.070916 -0.097844 -0.301027 76 0 153
-0.353728 0.644968 -0.114832 0 127 127
-0.273363 -0.423557 -0.200581 0 127 127
-0.143809 -0.167037 0.083801 76 0 153
0.118399 0.236880 -0.225796 0 0 255
-0.267258 0.562168 -0.180527 127 127 0
-0.151467 0.612659 -0.224167 0 255 0
0.187460 -0.000014 -0.233622 0 0 255
-0.306859 -0.472148 -0.159616 0 127 127
0.102682 -0.167037 0.110728 76 0 153
-0.268891 0.060363 -0.187898 127 127 0
0.288227 0.112467 -0.219103 204 51 127
0.197770 -0.079652 -0.178712 76 0 153
-0.142299 -0.167037 0.118047 76 0 153
-0.080506 -0.167037 0.457113 76 0 153
0.062951 -0.079652 0.005796 76 0 153
-0.024747 -0.079652 0.033170 76 0 153
0.166659 0.196935 -0.196538 0 0 255
-0.324322 -0.382650 -0.187862 0 127 127
0.138468 0.065964 -0.260367 0 0 255
-0.220547 -0.079652 0.415324 76 0 153
0.317740 -0.455891 -0.157356 76 153 0
-0.286502 -0.167037 0.226846 76 0 153
0.169810 -0.167037 0.052992 76 0 153
0.295230 -0.845507 0.398677 153 0 76
0.330252 -0.265175 0.458618 153 0 76
0.160332 -0.167037 0.422568 76 0 153
-0.260513 0.570925 -0.120172 0 127 127
0.308465 -0.046749 -0.198490 204 51 127
0.212963 -0.079652 0.261261 76 0 153
-0.285766 -0.602927 0.438557 76 0 153
-0.089196 0.391204 -0.209219 0 255 0
0.240841 0.404550 -0.183284 204 51 127
-0.014872 0.321590 -0.264635 255 0 0
0.083920 -0.167037 0.228079 76 0 153
0.013873 0.562511 -0.213064 255 0 0
0.345148 0.551554 -0.180881 0 127 127
0.156388 0.250456 -0.263342 0 0 255
0.301077 -0.825886 0.432177 153 0 76
-0.283767 -0.595157 0.402480 76 0 153
-0.260698 0.349193 -0.169127 127 127 0
0.291123 -0.048312 -0.155826 204 51 127
-0.307186 -0.468661 -0.210401 0 127 127
-0.120505 0.102279 -0.264699 0 255 0
0.263260 0.289577 -0.219432 204 51 127
-0.235334 -0.167037 0.290515 76 0 153
0.004802 -0.167037 0.138970 76 0 153
-0.268149 0.231550 -0.201184 127 127 0
-0.192381 -0.167037 -0.068678 76 0 153
-0.214461 -0.167037 0.176062 76 0 153
0.018019 -0.167037 0.253024 76 0 153
0.158190 -0.162529 -0.303444 76 0 153
0.156479 0.151101 -0.263321 0 0 255
-0.007579 0.156741 -0.273958 255 0 0
-0.052620 -0.079652 0.133849 76 0 153
-0.135514 0.434920 -0.259475 0 255 0
0.344976 -0.398280 0.427237 153 0 76
0.102100 -0.144660 0.474432 76 0 153
0.160932 0.643092 -0.205348 0 127 127
0.124324 -0.167037 0.390718 76 0 153
0.385082 0.555230 -0.163975 0 127 127
0.194829 -0.167037 0.038258 76 0 153
0.129417 -0.079652 0.352775 76 0 153
0.301480 0.437567 -0.163521 204 51 127
-0.199907 -0.167037 0.331299 76 0 153
0.282093 0.548149 -0.206618 0 127 127
0.099690 -0.167037 -0.224575 76 0 153
-0.271827 -0.079652 -0.033454 76 0 153
-0.401599 0.605028 -0.040915 0 127 127
-0.237086 -0.167037 0.351012 76 0 153
0.243684 0.530973 -0.172951 204 51 127
-0.235456 -0.079652 0.222590 76 0 153
0.262330 -0.008746 -0.218954 204 51 127
0.091848 -0.079652 0.349543 76 0 153
-0.095794 -0.167037 -0.193473 76 0 153
0.127244 -0.079652 0.202647 76 0 153
0.026733 -0.079652 -0.240184 76 0 153
-0.313967 -0.320555 -0.204740 0 127 127
0.365349 -0.129972 0.067734 76 0 153
0.279588 -0.167037 0.258558 76 0 153
-0.287589 -0.827178 0.413008 76 0 153
-0.185673 -0.079652 -0.148204 76 0 153
0.346088 -0.349891 0.417040 153 0 76
0.013207 -0.079652 -0.124818 76 0 153
-0.031059 0.599167 -0.185063 0 127 127
0.255505 0.641889 -0.168656 0 127 127
-0.235226 0.222307 -0.226719 127 127 0
0.204367 0.577580 -0.156831 0 127 127
0.016376 0.547395 -0.282519 255 0 0
0.034713 0.456819 -0.218992 255 0 0
0.046293 0.559003 -0.232036 255 0 0
0.210050 -0.167037 0.289531 76 0 153
0.301093 -0.649799 0.439638 153 0 76
-0.150040 -0.017309 -0.241335 0 255 0
0.118296 -0.055804 -0.228478 0 0 255
0.156502 0.572306 -0.173297 0 127 127
0.288395 -0.742238 0.424036 153 0 76
-0.356128 0.543118 -0.137595 0 127 127
0.011559 -0.124877 -0.319173 76 0 153
0.122026 0.508578 -0.212691 0 0 255
-0.109222 0.463669 -0.263912 0 255 0
-0.033849 0.555506 -0.272517 0 127 127
0.305248 -0.312793 -0.209396 76 153 0
0.160769 0.167828 -0.194716 0 0 255
0.049130 -0.079652 -0.120818 76 0 153
0.301693 -0.254964 -0.206946 76 153 0
-0.428542 0.579598 -0.047963 0 127 127
0.126725 0.619421 -0.250930 0 0 255
-0.148004 0.066733 -0.214284 0 255 0
-0.105678 -0.079652 0.293935 76 0 153
0.185456 0.221956 -0.240837 0 0 255
-0.083406 -0.065669 -0.238672 0 255 0
0.313765 -0.187814 -0.211437 76 153 0
0.272466 0.151417 -0.152235 204 51 127
-0.291194 -0.167037 0.091980 76 0 153
0.173242 0.472191 -0.200389 0 0 255
0.012979 -0.167037 0.016941 76 0 153
0.310045 0.364074 -0.182910 204 51 127
0.128449 -0.072190 -0.204059 0 0 255
-0.185186 -0.167037 -0.199621 76 0 153
-0.010227 0.619421 -0.245367 255 0 0
-0.123938 0.471871 -0.196179 0 255 0
-0.175352 -0.167037 0.396226 76 0 153
0.020256 0.429969 -0.282245 255 0 0
0.313028 -0.245309 0.396669 153 0 76
-0.200401 -0.167037 0.364581 76 0 153
-0.045106 -0.167037 0.153053 76 0 153
0.304649 -0.747853 -0.171905 76 153 0
-0.113137 -0.115406 -0.301512 76 0 153
0.233405 -0.079652 -0.085378 76 0 153
0.161613 0.611316 -0.271435 0 127 127
0.293395 0.240851 -0.156993 204 51 127
-0.270422 -0.115658 -0.249624 76 0 153
0.324812 -0.167037 0.452342 76 0 153
0.287054 -0.209588 -0.175851 76 153 0
0.007143 0.644605 -0.248672 0 127 127
0.339573 -0.081757 -0.150979 76 0 153
0.118223 0.420693 -0.230399 0 0 255
-0.018669 0.595274 -0.240771 255 0 0
-0.079169 -0.167037 0.014044 76 0 153
0.327991 -0.422701 0.398902 153 0 76
-0.270757 -0.389579 -0.167275 0 127 127
0.323089 -0.660983 0.436383 153 0 76
0.104718 -0.120105 -0.310725 76 0 153
-0.138696 0.277404 -0.202970 0 255 0
-0.194151 0.609539 -0.148923 0 127 127
0.182655 0.070751 -0.210573 0 0 255
0.296483 0.315052 -0.214510 204 51 127
0.242860 0.030800 -0.198358 204 51 127
0.211251 -0.167037 -0.100539 76 0 153
0.246433 0.561725 -0.205588 204 51 127
-0.269106 0.302854 -0.194342 127 127 0
-0.100213 -0.079652 0.145305 76 0 153
-0.321677 -0.515045 -0.198722 0 127 127
0.187217 0.382853 -0.235141 0 0 255
0.322166 -0.791193 0.426379 153 0 76
0.335976 -0.570793 0.427056 153 0 76
0.049092 0.242029 -0.256250 255 0 0
0.005538 0.014358 -0.281018 255 0 0
0.265824 -0.167037 0.064172 76 0 153
-0.230981 0.605792 -0.226387 127 127 0
-0.267784 -0.167037 0.432552 76 0 153
0.084507 0.542903 -0.247313 0 127 127
0.365349 -0.146818 0.186297 76 0 153
0.104471 0.645237 -0.239334 0 127 127
0.121673 0.524300 -0.243517 0 0 255
0.051974 -0.079652 -0.208532 76 0 153
0.316609 -0.663597 -0.211136 76 153 0
0.093592 -0.167037 -0.125967 76 0 153
-0.061357 -0.152407 0.474432 76 0 153
-0.109558 -0.009192 -0.196193 0 255 0
-0.306767 -0.739851 0.396135 76 0 153
-0.100941 -0.167037 0.274554 76 0 153
0.258943 0.469098 -0.156247 204 51 127
0.346026 -0.318874 0.413856 153 0 76
-0.223789 0.608333 -0.158814 127 127 0
-0.149152 0.320306 -0.216680 0 255 0
-0.278679 -0.305375 -0.208613 0 127 127
-0.132775 0.450724 -0.199269 0 255 0
-0.083383 -0.167037 -0.227969 76 0 153
-0.296350 -0.387099 0.395906 76 0 153
