ply
format ascii 1.0
element vertex 1261
property float x
property float y
property float z
property uchar red
property uchar green
property uchar blue
end_header
-0.317689 -0.753715 0.400756 76 0 153
0.137161 -0.167036 0.182144 76 0 153
-0.209784 -0.079652 0.411929 76 0 153
-0.102091 -0.167036 0.270927 76 0 153
-0.236757 -0.001890 -0.226526 127 127 0
0.062738 -0.079652 0.018819 76 0 153
-0.276123 -0.079652 0.130346 76 0 153
0.311550 -0.079652 0.399674 76 0 153
0.240834 0.138048 -0.186603 204 51 127
-0.230561 -0.167036 -0.211789 76 0 153
0.049179 0.243002 -0.255967 255 0 0
0.328542 0.645343 -0.155790 0 127 127
0.342360 -0.232790 0.404579 153 0 76
-0.142499 -0.079652 -0.077409 76 0 153
0.152139 -0.079652 -0.038655 76 0 153
-0.313817 -0.364202 -0.205416 0 127 127
0.275579 0.310996 -0.221475 204 51 127
0.338603 -0.080192 0.294113 76 0 153
0.131894 0.607481 -0.278939 0 127 127
-0.224961 -0.167036 -0.084795 76 0 153
-0.145078 -0.079652 0.318186 76 0 153
-0.200121 -0.167036 0.216889 76 0 153
0.241005 -0.167036 0.045978 76 0 153
0.099538 -0.079652 0.234753 76 0 153
0.202035 0.546750 -0.185210 0 127 127
-0.301563 -0.167036 0.298981 76 0 153
0.130394 0.060857 -0.202256 0 0 255
-0.169553 0.548531 -0.237633 0 127 127
-0.223745 0.614865 -0.138262 0 127 127
0.317908 -0.167036 -0.057303 76 0 153
-0.016600 -0.079652 0.209791 76 0 153
-0.321661 0.549040 -0.171719 0 127 127
0.061344 -0.079652 -0.222790 76 0 153
-0.105189 -0.167036 -0.233146 76 0 153
-0.229060 0.185199 -0.226124 127 127 0
0.159767 -0.167036 0.420504 76 0 153
-0.020970 -0.079652 0.080777 76 0 153
0.021399 0.071519 -0.213375 255 0 0
-0.109751 -0.167036 0.395330 76 0 153
-0.421937 0.632310 -0.048480 0 127 127
-0.048557 -0.167036 -0.052618 76 0 153
-0.116005 -0.167036 0.103512 76 0 153
0.017161 0.549315 -0.213189 255 0 0
0.241656 -0.167036 0.254506 76 0 153
0.264327 -0.167036 -0.181969 76 0 153
-0.270508 -0.194855 0.402732 76 0 153
-0.318201 -0.098299 -0.134926 76 0 153
-0.132167 -0.079652 -0.171710 76 0 153
0.284327 -0.090133 -0.240088 76 0 153
-0.039853 -0.164545 0.474432 76 0 153
-0.299612 -0.866110 -0.182291 0 127 127
-0.058358 0.643214 -0.218900 0 127 127
-0.250699 -0.167036 0.027778 76 0 153
0.287845 0.604808 -0.231435 0 127 127
-0.314898 -0.198684 -0.154032 0 127 127
-0.096381 0.082467 -0.258250 0 255 0
0.160521 -0.079652 0.163163 76 0 153
0.287226 -0.079652 0.203626 76 0 153
0.238598 -0.079652 0.330320 76 0 153
0.344078 0.576312 -0.089909 0 127 127
-0.282168 -0.693623 -0.183713 0 127 127
0.119062 -0.087451 0.452185 76 0 153
-0.080606 -0.126392 -0.311716 76 0 153
0.305237 -0.558315 0.445161 153 0 76
0.342824 -0.397041 0.413768 153 0 76
0.334997 -0.167036 0.129119 76 0 153
0.026220 -0.090765 0.454239 76 0 153
0.075248 -0.167036 0.352594 76 0 153
-0.277561 -0.537937 -0.200667 0 127 127
0.247287 0.608780 -0.139597 0 127 127
-0.179772 -0.079652 0.127406 76 0 153
0.301910 -0.313999 -0.207865 76 153 0
0.144712 -0.079652 0.317485 76 0 153
-0.138877 -0.046992 -0.257358 0 255 0
0.159381 0.197431 -0.194287 0 0 255
0.050064 -0.167036 0.165101 76 0 153
-0.002676 -0.079652 -0.160757 76 0 153
0.381404 0.577105 -0.181881 0 127 127
0.006586 -0.081968 -0.293273 76 0 153
-0.110571 0.599034 -0.278883 0 127 127
0.150598 0.439901 -0.193808 0 0 255
0.307989 -0.034229 -0.174487 204 51 127
0.301669 0.465989 -0.209553 204 51 127
-0.297625 -0.079652 0.443733 76 0 153
0.144483 -0.167036 -0.115825 76 0 153
-0.256291 -0.087814 -0.236956 76 0 153
0.065116 -0.167036 -0.260239 76 0 153
-0.081015 -0.079652 -0.015699 76 0 153
0.365349 -0.149833 0.383356 76 0 153
-0.319688 -0.100698 -0.015737 76 0 153
-0.391559 0.599094 -0.162719 0 127 127
-0.304887 -0.352582 0.454374 76 0 153
0.364476 -0.167036 -0.140001 76 0 153
0.021823 0.500361 -0.281889 255 0 0
-0.216996 0.432773 -0.161640 127 127 0
0.198889 -0.093821 -0.274561 76 0 153
-0.121965 -0.167036 0.188201 76 0 153
0.365349 -0.161011 0.289579 76 0 153
0.048835 0.395644 -0.257080 255 0 0
-0.294571 -0.167036 0.138648 76 0 153
0.041512 -0.079652 0.294872 76 0 153
-0.232245 0.339351 -0.157237 127 127 0
0.229001 -0.079652 -0.078799 76 0 153
-0.152010 0.582381 -0.162242 0 127 127
0.149984 -0.167036 0.001888 76 0 153
-0.215537 0.048321 -0.162747 127 127 0
0.182049 -0.167036 0.102552 76 0 153
-0.023395 -0.167036 0.301908 76 0 153
0.152972 -0.079652 -0.207907 0 0 255
0.019715 -0.167036 -0.096866 76 0 153
0.065399 -0.079652 -0.063022 76 0 153
-0.287389 0.575052 -0.103587 0 127 127
0.230293 -0.167036 0.381627 76 0 153
0.203875 0.575283 -0.260471 0 127 127
-0.247446 0.473223 -0.224017 127 127 0
0.119917 0.560634 -0.188850 0 127 127
-0.071340 -0.079652 0.143094 76 0 153
-0.333724 -0.156915 0.371667 76 0 153
-0.248492 0.296523 -0.223591 127 127 0
0.052482 0.625662 -0.278571 0 127 127
0.355037 -0.106707 -0.014393 76 0 153
-0.009846 -0.079652 0.383904 76 0 153
-0.131223 -0.079652 0.396773 76 0 153
0.287716 0.351756 -0.154076 204 51 127
-0.086954 0.204208 -0.212919 0 255 0
0.158644 0.241033 -0.262829 0 0 255
0.241603 0.009976 -0.179754 204 51 127
0.027949 0.113488 -0.280380 255 0 0
-0.321849 -0.240330 0.442325 76 0 153
0.242219 -0.079652 0.138547 76 0 153
-0.243972 -0.139732 0.474432 76 0 153
0.110164 -0.079652 0.085643 76 0 153
0.187071 0.325788 -0.235612 0 0 255
-0.130139 0.489346 -0.197878 0 255 0
-0.266625 -0.079652 -0.075405 76 0 153
-0.224280 -0.079652 0.335439 76 0 153
-0.315082 -0.093267 0.280257 76 0 153
0.328341 -0.567866 -0.206060 76 153 0
-0.028192 -0.167036 -0.246914 76 0 153
-0.295885 -0.079652 0.053577 76 0 153
0.406002 0.541284 -0.119227 0 127 127
-0.001986 0.284629 -0.217810 255 0 0
-0.434495 0.542995 -0.066307 0 127 127
-0.214190 0.142640 -0.163768 127 127 0
-0.070213 -0.079652 -0.126676 76 0 153
-0.161398 -0.079652 -0.001522 76 0 153
-0.186392 -0.167036 -0.150771 76 0 153
-0.086839 -0.167036 0.029590 76 0 153
-0.003948 -0.028307 -0.218845 255 0 0
-0.286408 -0.079652 0.204013 76 0 153
0.265888 -0.094304 0.456433 76 0 153
-0.138259 0.378490 -0.257746 0 255 0
0.190922 -0.123899 0.474432 76 0 153
-0.120294 0.278491 -0.195351 0 255 0
-0.009697 -0.079652 0.002937 76 0 153
0.255437 0.278394 -0.158508 204 51 127
-0.103166 0.523351 -0.262012 0 255 0
0.248190 0.490467 -0.165353 204 51 127
0.299051 -0.167036 0.410203 153 0 76
0.127031 -0.167036 0.254925 76 0 153
0.079040 0.557121 -0.273136 0 127 127
-0.271401 -0.167036 0.231572 76 0 153
-0.355893 0.633928 -0.085491 0 127 127
-0.298233 -0.239428 -0.211564 0 127 127
0.086440 -0.167036 -0.165903 76 0 153
0.312681 -0.167036 0.237074 76 0 153
0.162089 -0.167036 -0.273834 76 0 153
0.310254 0.119759 -0.187145 204 51 127
0.329886 -0.217813 -0.210951 76 153 0
-0.271539 -0.478195 0.430663 76 0 153
-0.199266 -0.079652 0.196413 76 0 153
-0.205561 -0.079652 0.060571 76 0 153
-0.168982 -0.167036 0.051165 76 0 153
0.249087 0.207736 -0.209576 204 51 127
0.259121 -0.167036 -0.110663 76 0 153
0.264430 -0.079652 0.066332 76 0 153
-0.129994 -0.105517 0.463383 76 0 153
0.037728 -0.167036 0.092630 76 0 153
-0.101372 0.424102 -0.199068 0 255 0
-0.054586 -0.167036 -0.180773 76 0 153
0.337977 -0.457703 -0.170032 76 153 0
0.258706 0.074531 -0.156400 204 51 127
0.146909 0.625774 -0.182203 0 127 127
-0.314687 -0.589064 0.439782 76 0 153
0.323528 -0.354997 -0.152749 76 153 0
0.344932 -0.090405 -0.195057 76 0 153
0.056310 -0.167036 0.022099 76 0 153
0.175819 0.068751 -0.254654 0 0 255
-0.190997 -0.079652 -0.213742 76 0 153
0.124847 -0.009829 -0.208207 0 0 255
0.145944 0.129001 -0.194638 0 0 255
-0.206412 -0.167036 0.407204 76 0 153
-0.097739 0.152658 -0.259148 0 255 0
-0.015260 -0.167036 0.231512 76 0 153
-0.100076 0.011219 -0.260381 0 255 0
0.133686 0.351885 -0.199572 0 0 255
0.296138 -0.256127 0.451445 153 0 76
-0.018096 0.225821 -0.256657 255 0 0
0.002647 0.613067 -0.190022 0 127 127
-0.011840 0.381114 -0.226072 255 0 0
0.187672 0.489419 -0.224884 0 0 255
-0.097159 -0.079652 0.262051 76 0 153
-0.097048 0.317011 -0.258784 0 255 0
-0.007651 0.052882 -0.273881 255 0 0
-0.248155 -0.014965 -0.160049 127 127 0
0.300882 -0.438735 0.448349 153 0 76
0.335862 -0.079652 0.045922 76 0 153
0.049155 0.173863 -0.256044 255 0 0
-0.273347 -0.389921 0.406051 76 0 153
0.261290 0.531471 -0.218420 204 51 127
-0.323808 -0.167036 -0.000509 76 0 153
0.299263 -0.683345 -0.210039 76 153 0
0.203352 -0.167036 -0.152199 76 0 153
0.212717 -0.079652 -0.004939 76 0 153
0.319109 -0.296042 0.395867 153 0 76
-0.258927 0.200649 -0.167004 127 127 0
-0.047249 -0.167036 0.096978 76 0 153
0.307940 0.396915 -0.199548 204 51 127
0.365349 -0.123397 0.088097 76 0 153
0.315759 -0.809648 0.430852 153 0 76
0.271753 -0.079652 0.268732 76 0 153
-0.193567 0.611223 -0.253883 0 127 127
-0.415195 0.640560 -0.116545 0 127 127
0.055765 -0.129149 -0.317542 76 0 153
-0.204003 0.095098 -0.208963 127 127 0
-0.080956 -0.167036 0.334734 76 0 153
0.141522 -0.079652 0.390354 76 0 153
0.300423 -0.164922 -0.255528 76 0 153
-0.253994 -0.167036 -0.150173 76 0 153
0.287651 -0.799756 -0.187633 76 153 0
-0.151547 0.207351 -0.225501 0 255 0
0.048484 0.329699 -0.236874 255 0 0
-0.173392 -0.167036 0.277104 76 0 153
-0.265009 0.540294 -0.208648 127 127 0
-0.400190 0.546373 -0.124507 0 127 127
0.142290 -0.079652 0.027450 76 0 153
0.012994 -0.167036 -0.029956 76 0 153
0.198444 -0.167036 0.205361 76 0 153
0.177329 -0.079652 -0.124312 76 0 153
-0.322780 -0.490942 -0.195568 0 127 127
-0.320775 -0.298811 -0.196484 0 127 127
0.330885 -0.202020 0.462263 153 0 76
-0.286923 -0.810308 0.417075 76 0 153
0.267908 -0.167036 -0.015472 76 0 153
0.286708 -0.693828 0.417537 153 0 76
-0.037137 0.542772 -0.248626 0 127 127
-0.220177 0.645300 -0.195742 0 127 127
0.000325 0.432864 -0.279243 255 0 0
-0.230000 -0.143769 -0.272433 76 0 153
-0.072175 -0.079652 0.365840 76 0 153
-0.272517 -0.167036 -0.039658 76 0 153
0.282866 0.436123 -0.152909 204 51 127
-0.120511 0.084463 -0.195400 0 255 0
0.345613 -0.295777 -0.164258 76 153 0
-0.047114 -0.167036 -0.117116 76 0 153
0.279332 -0.167036 0.097470 76 0 153
0.227285 -0.167036 0.316857 76 0 153
0.153654 0.451322 -0.263285 0 0 255
-0.318198 -0.696856 0.433110 76 0 153
-0.307464 -0.080976 -0.195352 76 0 153
-0.209702 -0.167036 -0.021624 76 0 153
-0.173791 -0.167036 -0.240292 76 0 153
-0.286453 -0.392078 -0.155352 0 127 127
-0.161824 -0.167036 -0.078335 76 0 153
-0.100617 0.615473 -0.179151 0 127 127
0.272246 0.645332 -0.185289 0 127 127
0.281103 -0.079652 -0.114858 76 0 153
0.208692 -0.167036 -0.225051 76 0 153
-0.327828 -0.113831 0.118109 76 0 153
-0.205061 -0.079652 -0.061263 76 0 153
0.364358 0.635351 -0.099476 0 127 127
-0.163925 -0.079652 0.257921 76 0 153
0.123705 0.190765 -0.247371 0 0 255
0.296998 -0.354962 0.403570 153 0 76
0.042317 -0.167036 0.409944 76 0 153
-0.007261 -0.079652 0.143000 76 0 153
-0.286355 -0.167036 -0.245765 76 0 153
0.306597 -0.597797 0.396373 153 0 76
0.051064 -0.079652 -0.128472 76 0 153
0.339032 -0.091721 0.454832 76 0 153
-0.235461 -0.167036 0.285193 76 0 153
-0.324724 -0.300753 0.425424 76 0 153
-0.319014 0.608630 -0.198651 0 127 127
0.041524 -0.079652 0.079504 76 0 153
0.287904 0.167751 -0.154173 204 51 127
-0.001062 0.643463 -0.252277 0 127 127
0.127653 0.314748 -0.252240 0 0 255
0.074773 -0.079652 -0.284964 76 0 153
-0.096889 -0.033923 -0.201890 0 255 0
0.185511 0.389897 -0.215987 0 0 255
0.134685 -0.149804 0.474432 76 0 153
0.339820 -0.082156 0.170632 76 0 153
-0.123055 -0.167036 -0.292797 76 0 153
0.253606 -0.043667 -0.213672 204 51 127
-0.151738 0.319933 -0.230513 0 255 0
0.396889 0.597939 -0.061479 0 127 127
-0.323585 -0.424787 -0.192284 0 127 127
-0.269178 0.036929 -0.190183 127 127 0
-0.110913 -0.167036 0.459705 76 0 153
-0.150003 0.057778 -0.241499 0 255 0
0.365349 -0.132038 -0.072196 76 0 153
0.310517 -0.079652 -0.061595 76 0 153
-0.259206 0.237002 -0.216529 127 127 0
0.134492 0.024415 -0.257895 0 0 255
0.021363 0.209965 -0.213364 255 0 0
-0.264968 -0.167036 0.349278 76 0 153
0.129953 -0.048233 -0.254723 0 0 255
-0.200365 0.583759 -0.198469 127 127 0
0.101655 -0.167036 0.133304 76 0 153
-0.263510 -0.338001 -0.181324 0 127 127
0.301195 0.612178 -0.113433 0 127 127
-0.192704 -0.109704 0.465978 76 0 153
0.290821 -0.418913 -0.169083 76 153 0
0.347676 -0.094831 0.354529 76 0 153
0.176510 0.021376 -0.202993 0 0 255
-0.204877 0.339656 -0.210223 127 127 0
0.038865 -0.079652 0.231685 76 0 153
0.254523 0.087199 -0.214503 204 51 127
0.299005 0.172858 -0.212493 204 51 127
0.108282 0.645227 -0.239390 0 127 127
-0.264681 0.590689 -0.174378 127 127 0
-0.272902 -0.167036 0.083247 76 0 153
0.340203 -0.082773 0.234909 76 0 153
0.081009 -0.167036 -0.106882 76 0 153
-0.333724 -0.123574 0.427103 76 0 153
0.363219 -0.167036 -0.019394 76 0 153
-0.139739 -0.167036 0.330611 76 0 153
-0.269022 0.428328 -0.188940 127 127 0
0.392516 0.631341 -0.160349 0 127 127
0.101176 -0.167036 0.415533 76 0 153
0.043945 0.497436 -0.227590 255 0 0
0.142681 -0.167036 -0.057150 76 0 153
-0.172955 -0.167036 0.159158 76 0 153
0.306978 -0.143603 0.474432 76 0 153
-0.276696 -0.195718 0.460952 76 0 153
-0.322869 -0.105831 -0.077087 76 0 153
0.017513 -0.146741 0.474432 76 0 153
0.309488 0.286422 -0.179151 204 51 127
-0.246134 -0.167036 0.171160 76 0 153
0.254619 -0.079652 0.387171 76 0 153
0.241954 0.593711 -0.195539 204 51 127
0.310492 -0.188916 -0.145481 76 153 0
-0.258466 -0.221611 -0.173407 0 127 127
0.193402 0.597109 -0.157956 0 127 127
0.084694 -0.167036 0.215502 76 0 153
-0.141732 -0.167036 -0.187305 76 0 153
0.339030 0.613857 -0.202899 0 127 127
-0.082293 0.479152 -0.228263 0 255 0
0.240856 0.346185 -0.187049 204 51 127
-0.265401 -0.079652 0.396030 76 0 153
-0.018875 0.101546 -0.241436 255 0 0
-0.199667 -0.027179 -0.190561 127 127 0
0.164821 0.542965 -0.233349 0 127 127
-0.071682 -0.167036 0.221374 76 0 153
0.301394 -0.167036 0.180896 76 0 153
0.186312 0.269989 -0.218906 0 0 255
-0.202819 0.204202 -0.177741 127 127 0
-0.324027 -0.183350 0.423050 76 0 153
0.119911 0.105035 -0.239474 0 0 255
0.020825 0.557486 -0.276559 0 127 127
0.186791 -0.079652 0.355803 76 0 153
-0.101000 -0.081811 -0.282919 76 0 153
-0.083647 0.387636 -0.239454 0 255 0
0.047680 0.052908 -0.260814 255 0 0
0.043013 0.124020 -0.226584 255 0 0
-0.101176 -0.167036 -0.074134 76 0 153
-0.151556 0.423790 -0.225752 0 255 0
-0.333724 -0.126075 0.322723 76 0 153
-0.204887 0.511630 -0.210237 127 127 0
-0.290892 -0.167036 -0.106549 76 0 153
-0.061780 -0.079652 0.041380 76 0 153
0.011820 0.276449 -0.282345 255 0 0
-0.324371 -0.498308 0.427127 76 0 153
-0.211639 0.429404 -0.218038 127 127 0
0.348154 -0.275920 0.441227 153 0 76
0.073545 0.544607 -0.217613 0 127 127
0.031196 -0.167036 0.316280 76 0 153
0.183553 0.192554 -0.245050 0 0 255
0.322502 -0.504703 0.447008 153 0 76
-0.143243 0.112839 -0.252864 0 255 0
0.440401 0.575913 -0.150130 0 127 127
0.186838 -0.167036 0.265937 76 0 153
0.231691 -0.079652 0.193542 76 0 153
-0.072757 -0.079652 0.210480 76 0 153
-0.323584 -0.731200 -0.184517 0 127 127
0.038718 0.012075 -0.221949 255 0 0
-0.124147 -0.079652 0.122631 76 0 153
0.351755 0.541455 -0.137732 0 127 127
0.046604 0.592387 -0.232625 255 0 0
0.095978 -0.167036 -0.310778 76 0 153
-0.207012 0.257634 -0.213038 127 127 0
0.293391 -0.079652 0.339703 76 0 153
-0.266721 0.645041 -0.161419 0 127 127
0.286341 0.256319 -0.219709 204 51 127
-0.070572 -0.079652 -0.070758 76 0 153
0.007738 -0.079652 -0.236997 76 0 153
0.103856 -0.079652 0.168804 76 0 153
0.290688 -0.001493 -0.218247 204 51 127
0.308550 -0.380214 0.453947 153 0 76
0.207540 -0.167036 -0.001290 76 0 153
-0.319366 -0.255777 -0.161705 0 127 127
0.098351 -0.167036 0.302248 76 0 153
-0.006664 -0.079652 0.264133 76 0 153
-0.317286 -0.560020 -0.169299 0 127 127
0.295463 0.025651 -0.158068 204 51 127
0.131333 -0.167036 0.369292 76 0 153
0.207073 -0.079652 -0.218685 76 0 153
-0.268392 0.155833 -0.199548 127 127 0
-0.342791 0.541629 -0.120423 0 127 127
-0.333724 -0.141315 -0.166197 76 0 153
0.323189 -0.535425 0.398257 153 0 76
0.142181 0.507669 -0.195494 0 0 255
0.150677 -0.079652 0.255652 76 0 153
-0.332380 -0.167036 0.253819 76 0 153
0.296709 -0.459362 -0.205743 76 153 0
-0.061563 -0.167036 0.424640 76 0 153
-0.267717 -0.044561 -0.202211 127 127 0
-0.064114 0.626705 -0.273713 0 127 127
-0.077120 -0.125223 0.474432 76 0 153
-0.310663 -0.350995 0.400531 76 0 153
-0.407435 0.580591 -0.038216 0 127 127
-0.292577 -0.167036 -0.192051 76 0 153
-0.312059 -0.339994 -0.157119 0 127 127
0.184489 -0.167036 0.048569 76 0 153
-0.206527 -0.096035 -0.263013 76 0 153
-0.280950 -0.641456 -0.199676 0 127 127
-0.268407 0.342750 -0.199436 127 127 0
0.090846 -0.079652 0.318895 76 0 153
0.302599 0.595996 -0.164797 204 51 127
-0.083910 0.117797 -0.219575 0 255 0
-0.200372 0.387446 -0.185420 127 127 0
-0.273690 0.543992 -0.147868 0 127 127
-0.261553 0.296199 -0.170255 127 127 0
-0.294536 -0.243236 0.396133 76 0 153
0.288698 -0.364720 -0.192480 76 153 0
0.100680 -0.079652 -0.019177 76 0 153
-0.008750 -0.030550 -0.272695 255 0 0
-0.132274 0.548385 -0.199005 0 255 0
0.296431 -0.260868 -0.202983 76 153 0
0.046506 0.455036 -0.263487 255 0 0
-0.179124 -0.079652 -0.116488 76 0 153
0.244931 0.556419 -0.154801 0 127 127
0.004615 -0.167036 0.135135 76 0 153
0.364755 -0.122386 0.145809 76 0 153
0.162342 0.619421 -0.233046 0 0 255
-0.071578 -0.167036 -0.277997 76 0 153
-0.262001 0.479195 -0.170846 127 127 0
0.114773 -0.079652 -0.083105 76 0 153
0.215131 -0.167036 0.436217 76 0 153
-0.013437 0.025443 -0.228610 255 0 0
-0.048269 -0.081904 -0.290245 76 0 153
-0.271210 -0.252064 0.453621 76 0 153
0.116110 -0.167036 -0.244924 76 0 153
-0.177022 0.630007 -0.168830 0 127 127
0.334244 -0.500238 -0.202291 76 153 0
0.345987 -0.338509 0.415682 153 0 76
0.177101 0.087033 -0.203632 0 0 255
-0.082281 0.261076 -0.227957 0 255 0
-0.115689 -0.079652 -0.222690 0 255 0
0.118339 0.239513 -0.227367 0 0 255
0.282751 -0.079652 -0.184695 76 0 153
0.317990 -0.167036 -0.193305 76 153 0
0.002116 0.177896 -0.279960 255 0 0
-0.243112 -0.087530 0.452234 76 0 153
-0.017473 0.591365 -0.236902 255 0 0
-0.050236 0.597446 -0.182759 0 127 127
-0.082546 0.590991 -0.234906 0 255 0
-0.023911 -0.114551 0.468982 76 0 153
0.254007 0.223324 -0.159430 204 51 127
0.120457 0.572472 -0.241215 0 0 255
-0.268843 -0.079652 0.301535 76 0 153
0.249294 -0.114220 -0.271198 76 0 153
-0.071688 -0.079652 -0.179327 76 0 153
-0.208063 0.041509 -0.214423 127 127 0
-0.149177 0.002897 -0.243513 0 255 0
-0.009334 0.505110 -0.223505 255 0 0
0.195917 -0.079652 0.299653 76 0 153
-0.276606 -0.590563 -0.182214 0 127 127
0.118478 0.426717 -0.233173 0 0 255
0.292858 -0.167036 0.030620 76 0 153
0.156136 -0.079652 0.110452 76 0 153
0.070311 -0.114574 0.468997 76 0 153
-0.208368 0.566029 -0.148523 0 127 127
-0.174251 -0.079652 0.361473 76 0 153
0.349668 -0.221658 -0.162599 76 153 0
0.247234 0.458995 -0.206831 204 51 127
-0.323839 -0.819818 -0.187757 0 127 127
-0.285885 0.626115 -0.113520 0 127 127
-0.277385 -0.404877 -0.205522 0 127 127
0.195254 -0.167036 0.153262 76 0 153
-0.163948 -0.167036 0.377012 76 0 153
-0.117141 0.200564 -0.264828 0 255 0
0.300412 0.488056 -0.162553 204 51 127
-0.146654 0.492529 -0.248294 0 255 0
0.070529 -0.079652 0.429719 76 0 153
-0.249105 0.389874 -0.160449 127 127 0
0.258669 -0.032968 -0.156424 204 51 127
0.104899 -0.079652 -0.188020 76 0 153
-0.318834 -0.099320 0.166947 76 0 153
0.011406 -0.079652 0.336883 76 0 153
0.320894 0.564041 -0.206803 0 127 127
-0.150680 0.594360 -0.221620 0 255 0
0.289072 -0.167036 0.283672 76 0 153
-0.324927 -0.665883 -0.189476 0 127 127
-0.084776 0.054399 -0.217046 0 255 0
-0.226525 -0.079652 0.148210 76 0 153
0.305960 -0.431025 0.397509 153 0 76
0.256586 -0.167036 0.205407 76 0 153
0.172569 -0.029421 -0.199965 0 0 255
0.342137 -0.345715 -0.199280 76 153 0
0.365197 -0.167036 0.170329 76 0 153
-0.254478 -0.079652 0.084266 76 0 153
-0.235631 0.095165 -0.157066 127 127 0
-0.302317 -0.539764 0.446643 76 0 153
-0.085045 -0.167036 0.144720 76 0 153
-0.109405 0.642396 -0.243816 0 127 127
0.307576 0.344399 -0.200256 204 51 127
-0.039403 -0.167036 -0.002664 76 0 153
0.295229 -0.579659 -0.169410 76 153 0
0.240222 0.620499 -0.244088 0 127 127
-0.068965 0.570110 -0.279713 0 127 127
-0.285047 -0.306081 0.457577 76 0 153
-0.288687 -0.506070 -0.161480 0 127 127
0.291505 -0.224705 0.412147 153 0 76
-0.089664 -0.037382 -0.251708 0 255 0
0.365349 -0.134443 -0.179028 76 0 153
-0.094761 -0.079652 0.316042 76 0 153
0.355048 -0.180642 0.423592 153 0 76
-0.294422 -0.605312 0.396638 76 0 153
-0.091767 -0.167036 -0.020512 76 0 153
-0.442748 0.591908 -0.074688 0 127 127
-0.203182 0.299864 -0.176877 127 127 0
0.362011 -0.117959 0.263453 76 0 153
-0.272700 -0.079652 -0.158959 76 0 153
0.165768 0.579918 -0.196262 0 0 255
-0.276409 -0.430125 0.444297 76 0 153
0.364424 -0.167036 0.239774 76 0 153
-0.072588 -0.079652 0.090361 76 0 153
-0.028225 -0.120318 -0.315477 76 0 153
-0.151566 -0.167036 0.229331 76 0 153
-0.165393 -0.079652 0.434983 76 0 153
0.049103 -0.033478 -0.239597 255 0 0
0.270571 0.371892 -0.221161 204 51 127
0.046687 0.645457 -0.233157 0 127 127
-0.333724 -0.142569 -0.113140 76 0 153
-0.228789 0.134688 -0.226086 127 127 0
0.296987 -0.303733 -0.157796 76 153 0
0.303285 -0.712878 -0.170444 76 153 0
0.354058 -0.167036 0.338294 76 0 153
0.184120 0.154270 -0.213350 0 0 255
-0.264660 -0.343133 0.419113 76 0 153
-0.006306 0.384156 -0.275070 255 0 0
0.020185 -0.079652 -0.038739 76 0 153
0.000571 0.334360 -0.216461 255 0 0
-0.368056 0.642772 -0.134705 0 127 127
-0.286653 -0.444596 0.397939 76 0 153
0.287647 -0.215207 -0.185819 76 153 0
0.026358 -0.079652 0.180949 76 0 153
0.016503 -0.167036 -0.267384 76 0 153
-0.224854 0.562786 -0.235495 0 127 127
-0.290317 -0.119211 0.471870 76 0 153
0.364839 -0.122522 0.031624 76 0 153
-0.296017 -0.167036 0.189117 76 0 153
0.063181 -0.167036 -0.209100 76 0 153
-0.156210 -0.167036 0.425426 76 0 153
0.341715 -0.457270 0.428568 153 0 76
-0.143238 0.376737 -0.207178 0 255 0
0.292709 -0.079652 0.153517 76 0 153
0.325868 -0.115773 -0.237475 76 0 153
0.355305 -0.107140 0.404867 76 0 153
0.044825 -0.167036 -0.140387 76 0 153
0.027258 0.409443 -0.215187 255 0 0
-0.145517 -0.036414 -0.210331 0 255 0
0.298680 0.563700 -0.121216 0 127 127
0.169872 -0.127290 -0.300729 76 0 153
0.323402 -0.833350 -0.189952 76 153 0
0.276740 0.120302 -0.152025 204 51 127
0.230253 -0.167036 0.096905 76 0 153
-0.326995 -0.112487 0.034627 76 0 153
0.251179 0.571662 -0.243541 0 127 127
0.315276 -0.615846 -0.211805 76 153 0
-0.319691 -0.100703 0.232484 76 0 153
0.304837 0.514126 -0.205590 204 51 127
-0.016094 -0.079652 0.433530 76 0 153
-0.247104 0.068311 -0.224157 127 127 0
0.005351 -0.167036 0.185270 76 0 153
0.190076 -0.167036 -0.100030 76 0 153
-0.001842 -0.167036 0.435247 76 0 153
0.104459 -0.167036 0.023955 76 0 153
-0.179986 -0.079652 -0.165799 76 0 153
0.056364 0.577983 -0.187490 0 127 127
-0.333724 -0.165983 0.110699 76 0 153
0.324978 -0.542194 -0.164533 76 153 0
0.183358 -0.167036 0.371343 76 0 153
-0.028042 0.558076 -0.198925 0 127 127
0.365349 -0.123812 0.320601 76 0 153
0.256376 0.037883 -0.215896 204 51 127
0.335009 -0.167036 -0.102174 76 0 153
-0.163879 -0.167036 0.104490 76 0 153
0.187655 0.435996 -0.228514 0 0 255
-0.234693 -0.079652 -0.194362 76 0 153
-0.151729 0.269928 -0.230274 0 255 0
0.049579 -0.079652 -0.176507 76 0 153
0.144271 -0.079652 0.208364 76 0 153
0.166235 -0.081499 0.448496 76 0 153
0.276659 0.128834 -0.221422 204 51 127
0.346564 -0.261649 -0.197468 76 153 0
-0.277796 -0.079652 -0.028012 76 0 153
-0.292621 -0.456686 -0.211816 0 127 127
0.329245 -0.714598 0.413026 153 0 76
-0.272951 -0.296997 -0.204800 0 127 127
-0.283052 -0.727821 0.420407 76 0 153
0.257746 -0.167036 -0.234980 76 0 153
-0.324914 -0.636921 0.419539 76 0 153
-0.015945 0.474039 -0.262601 255 0 0
-0.200606 0.471093 -0.183715 127 127 0
0.243458 0.256918 -0.200220 204 51 127
0.264862 -0.167036 -0.063986 76 0 153
-0.369554 0.557802 -0.158442 0 127 127
-0.199356 -0.079652 0.295702 76 0 153
0.318903 -0.079652 -0.154881 76 0 153
0.182203 -0.079652 -0.076609 76 0 153
0.224024 0.635795 -0.169987 0 127 127
0.332875 -0.400532 -0.159841 76 153 0
0.028297 -0.167036 0.362979 76 0 153
-0.052109 -0.167036 0.263839 76 0 153
-0.333724 -0.158921 0.162887 76 0 153
-0.122635 0.228875 -0.195883 0 255 0
0.329149 -0.665571 -0.178705 76 153 0
-0.087093 0.310224 -0.212655 0 255 0
0.300537 -0.609057 0.441110 153 0 76
-0.153748 0.580577 -0.267401 0 127 127
-0.045624 -0.166231 -0.316538 76 0 153
0.184514 -0.079652 -0.173785 76 0 153
-0.125231 -0.079652 -0.034339 76 0 153
0.290028 -0.641684 0.407075 153 0 76
-0.324997 0.589510 -0.080138 0 127 127
-0.223685 -0.167036 0.065358 76 0 153
0.153963 -0.080677 -0.277275 76 0 153
-0.021876 -0.079652 -0.118667 76 0 153
-0.250180 -0.167036 0.436728 76 0 153
0.018246 -0.079652 0.039924 76 0 153
-0.275263 -0.569321 0.424220 76 0 153
-0.163365 -0.079652 0.078523 76 0 153
0.166566 0.286107 -0.260589 0 0 255
-0.444952 0.551335 -0.110758 0 127 127
0.028886 -0.079652 0.408263 76 0 153
0.201391 -0.079652 0.117091 76 0 153
0.305189 0.078235 -0.168814 204 51 127
-0.085822 0.008793 -0.215064 0 255 0
-0.155715 -0.086365 -0.273141 76 0 153
-0.292529 -0.121928 -0.242770 76 0 153
0.286790 -0.516638 0.421353 153 0 76
0.263510 0.390349 -0.154246 204 51 127
-0.130836 -0.079652 -0.121443 76 0 153
-0.294310 -0.167036 0.040895 76 0 153
0.156172 0.242847 -0.194021 0 0 255
-0.448802 0.644111 -0.086077 0 127 127
-0.050617 -0.079652 0.252452 76 0 153
-0.147657 0.163025 -0.246393 0 255 0
0.125494 0.169829 -0.207179 0 0 255
0.322518 -0.167036 0.077928 76 0 153
-0.059067 -0.167036 0.374443 76 0 153
-0.148806 0.625764 -0.258854 0 127 127
0.026860 0.164780 -0.215064 255 0 0
-0.190479 -0.165423 -0.286154 76 0 153
0.243535 0.181160 -0.173240 204 51 127
-0.018864 -0.167036 -0.153063 76 0 153
0.164279 0.315620 -0.195801 0 0 255
0.281472 0.426428 -0.221185 204 51 127
-0.247644 0.574421 -0.124892 0 127 127
0.157072 0.571031 -0.270527 0 127 127
-0.181294 0.544381 -0.187641 0 127 127
-0.126834 -0.123441 -0.303381 76 0 153
0.286768 -0.299521 0.426946 153 0 76
0.069714 -0.079652 0.198093 76 0 153
0.042210 0.286492 -0.225717 255 0 0
-0.024861 -0.079652 -0.204493 76 0 153
-0.084236 0.432456 -0.241360 0 255 0
-0.242381 -0.079652 0.212187 76 0 153
0.221195 -0.092270 0.455172 76 0 153
0.325386 -0.167036 0.372875 76 0 153
0.179073 -0.167036 0.473400 76 0 153
-0.099583 0.163219 -0.200195 0 255 0
0.134288 0.398607 -0.199255 0 0 255
-0.288405 -0.686956 0.401207 76 0 153
0.396073 0.556091 -0.077068 0 127 127
0.227502 -0.079652 0.041258 76 0 153
-0.307845 -0.572749 -0.210996 0 127 127
-0.124500 -0.167036 0.059745 76 0 153
0.035825 -0.167036 0.217726 76 0 153
-0.291192 0.576058 -0.212684 0 127 127
0.018009 0.224000 -0.282581 255 0 0
-0.263727 0.635901 -0.205820 0 127 127
0.150607 -0.167036 0.139754 76 0 153
0.105399 -0.079652 -0.235159 76 0 153
0.121151 0.609209 -0.214181 0 0 255
-0.230403 -0.079652 -0.101379 76 0 153
-0.426732 0.577756 -0.141186 0 127 127
-0.353649 0.623915 -0.172021 0 127 127
0.025606 -0.079652 -0.090240 76 0 153
-0.280371 -0.079652 0.255230 76 0 153
-0.018379 0.425765 -0.239834 255 0 0
0.219720 0.545895 -0.226664 0 127 127
0.261716 -0.079652 -0.049447 76 0 153
0.188427 -0.079652 0.201015 76 0 153
0.156314 -0.167036 -0.160000 76 0 153
0.287616 -0.397010 0.418085 153 0 76
-0.204210 -0.167036 0.021782 76 0 153
0.256763 -0.167036 0.421417 76 0 153
0.365349 -0.125934 -0.122687 76 0 153
0.032258 -0.045402 -0.278107 255 0 0
0.100671 -0.079652 0.040690 76 0 153
-0.097420 -0.167036 -0.188953 76 0 153
0.365349 -0.166983 0.089068 76 0 153
-0.377376 0.607529 -0.054608 0 127 127
-0.246812 -0.079652 0.038468 76 0 153
-0.011757 0.135559 -0.269449 255 0 0
-0.324474 -0.382250 0.429253 76 0 153
0.031649 0.361827 -0.278428 255 0 0
0.031176 0.366138 -0.216767 255 0 0
0.122020 0.473185 -0.212700 0 0 255
-0.262972 0.248793 -0.172126 127 127 0
-0.039590 -0.079652 0.172923 76 0 153
0.047923 0.527832 -0.260028 255 0 0
-0.313072 -0.090024 0.404520 76 0 153
-0.190017 -0.167036 -0.196301 76 0 153
0.290901 -0.197050 0.446163 153 0 76
0.158124 0.343646 -0.262947 0 0 255
0.324347 -0.079652 -0.000166 76 0 153
-0.283759 -0.747486 -0.190192 0 127 127
0.157984 -0.167036 0.224746 76 0 153
0.008689 -0.167036 0.267753 76 0 153
0.186029 0.109920 -0.238984 0 0 255
-0.226519 -0.051392 -0.225775 127 127 0
-0.308826 -0.083174 0.094423 76 0 153
-0.132276 -0.167036 0.145523 76 0 153
0.290417 -0.544257 -0.199991 76 153 0
0.044739 -0.167036 -0.300832 76 0 153
0.113104 -0.079652 0.358289 76 0 153
0.299271 -0.735554 0.435324 153 0 76
0.141759 -0.167036 0.046831 76 0 153
0.238164 -0.079652 -0.248621 76 0 153
-0.159555 -0.079652 0.165050 76 0 153
0.040023 0.307311 -0.272260 255 0 0
0.247311 -0.079652 0.233277 76 0 153
0.335973 -0.573092 0.415001 153 0 76
-0.307284 -0.777069 0.434892 76 0 153
-0.305730 -0.460708 0.449524 76 0 153
0.168460 0.504959 -0.259590 0 0 255
-0.209193 -0.167036 0.457261 76 0 153
0.096256 -0.079652 0.125884 76 0 153
-0.319701 -0.200343 -0.196272 0 127 127
-0.089644 -0.079652 0.405594 76 0 153
0.077550 -0.079652 0.272397 76 0 153
0.214226 -0.130782 -0.288761 76 0 153
-0.110853 -0.079652 0.021082 76 0 153
0.299048 -0.052081 -0.212446 204 51 127
0.310113 -0.167036 -0.011828 76 0 153
-0.277228 -0.387244 0.448131 76 0 153
0.318015 -0.673301 0.397753 153 0 76
0.255665 0.166341 -0.215531 204 51 127
0.022827 0.598099 -0.290899 0 127 127
0.130203 0.066407 -0.254993 0 0 255
-0.292421 -0.491642 0.396517 76 0 153
0.083093 0.597996 -0.287517 0 127 127
0.331899 -0.601057 -0.176016 76 153 0
0.013874 -0.119397 -0.316829 76 0 153
0.271647 -0.167036 0.373578 76 0 153
-0.097076 0.515086 -0.201772 0 255 0
-0.316383 -0.462692 -0.164991 0 127 127
0.183869 0.026442 -0.244547 0 0 255
0.258735 0.320254 -0.156381 204 51 127
-0.031758 -0.079652 -0.032851 76 0 153
0.404207 0.635571 -0.078554 0 127 127
-0.274458 -0.492101 -0.198607 0 127 127
-0.263622 -0.257218 -0.195436 0 127 127
0.279555 0.635120 -0.144283 0 127 127
-0.333724 -0.138679 -0.037902 76 0 153
-0.006652 -0.167036 0.086827 76 0 153
0.117329 -0.079652 0.285953 76 0 153
-0.315916 -0.833866 0.398415 76 0 153
-0.256987 0.130043 -0.165499 127 127 0
0.242602 0.301886 -0.197554 204 51 127
-0.201607 -0.079652 0.018591 76 0 153
-0.017602 0.294403 -0.258827 255 0 0
-0.287966 -0.079652 0.012622 76 0 153
-0.295094 -0.167036 0.383644 76 0 153
-0.211866 0.006892 -0.165531 127 127 0
0.294477 -0.759001 -0.176661 76 153 0
-0.111972 0.575545 -0.174788 0 127 127
0.092093 -0.167036 0.174502 76 0 153
-0.331537 -0.167036 0.329971 76 0 153
0.142581 -0.079652 -0.166366 76 0 153
0.287253 -0.786293 0.411160 153 0 76
0.182636 -0.060715 -0.246507 0 0 255
-0.295927 -0.308273 0.396105 76 0 153
-0.154062 -0.167036 -0.119178 76 0 153
0.139191 -0.167036 0.097625 76 0 153
-0.243681 -0.167036 0.384881 76 0 153
-0.251604 -0.167036 0.123098 76 0 153
0.354975 -0.183402 -0.184193 76 153 0
0.295576 0.216176 -0.215094 204 51 127
-0.124036 -0.079652 0.353874 76 0 153
-0.054185 -0.167036 0.055039 76 0 153
0.107030 -0.167036 -0.204584 76 0 153
0.347947 -0.095267 -0.053544 76 0 153
0.139898 -0.158653 -0.307693 76 0 153
0.218366 -0.079652 -0.118738 76 0 153
0.193289 0.615184 -0.262255 0 127 127
0.294821 -0.469215 -0.165599 76 153 0
-0.018580 -0.167036 -0.081020 76 0 153
0.043871 -0.167036 -0.057890 76 0 153
0.287713 -0.126118 -0.261067 76 0 153
-0.151018 -0.079652 0.038271 76 0 153
-0.202352 0.162289 -0.204914 127 127 0
-0.285150 -0.238183 -0.146930 0 127 127
-0.268776 -0.079652 -0.116427 76 0 153
0.235315 -0.125692 0.474432 76 0 153
0.101788 -0.079652 0.403085 76 0 153
-0.063134 -0.167036 -0.225342 76 0 153
0.294984 -0.167036 0.140354 76 0 153
-0.304603 -0.298818 -0.151466 0 127 127
0.296031 -0.824918 0.398334 153 0 76
-0.048445 -0.079652 0.399248 76 0 153
0.024250 -0.167036 -0.225427 76 0 153
-0.263753 -0.079652 0.169322 76 0 153
-0.013823 0.010386 -0.266622 255 0 0
0.278315 -0.079652 0.110226 76 0 153
-0.031828 -0.079652 0.348550 76 0 153
-0.333724 -0.127150 0.262507 76 0 153
0.304787 -0.079652 0.072488 76 0 153
-0.211320 -0.079652 0.100966 76 0 153
-0.318104 -0.570417 0.403671 76 0 153
0.297155 -0.079652 0.030216 76 0 153
-0.004005 -0.167036 0.337748 76 0 153
0.021721 0.251773 -0.213475 255 0 0
0.096211 0.592763 -0.180747 0 127 127
0.246333 0.447435 -0.167792 204 51 127
-0.283134 -0.167036 0.000867 76 0 153
0.187895 -0.167036 -0.189768 76 0 153
-0.281472 -0.201125 -0.211013 0 127 127
0.235252 -0.079652 0.094831 76 0 153
0.290148 -0.475825 0.436107 153 0 76
-0.076410 0.541280 -0.237528 0 127 127
0.116041 -0.167036 -0.020113 76 0 153
0.323855 -0.167036 0.304314 76 0 153
-0.126705 0.318394 -0.196809 0 255 0
-0.260536 -0.235908 0.418125 76 0 153
0.150996 -0.079652 0.070351 76 0 153
0.350666 0.550943 -0.177010 0 127 127
-0.272807 -0.518282 0.425845 76 0 153
0.187477 0.232219 -0.233179 0 0 255
-0.014049 0.514218 -0.266194 255 0 0
0.121024 0.353319 -0.242289 0 0 255
0.182230 -0.079652 0.021558 76 0 153
-0.269109 -0.079652 0.341860 76 0 153
-0.164754 -0.079652 -0.042303 76 0 153
0.349408 -0.233021 0.444544 153 0 76
0.295230 -0.167036 -0.090521 76 0 153
-0.118632 0.048272 -0.264771 0 255 0
-0.312132 -0.697791 -0.210282 0 127 127
-0.038808 -0.079652 0.118143 76 0 153
0.321831 -0.167036 0.444743 76 0 153
0.011631 -0.079652 0.107596 76 0 153
-0.116701 -0.079652 0.435732 76 0 153
0.028908 -0.167036 0.051409 76 0 153
0.294430 -0.264448 0.407672 153 0 76
0.320594 -0.199562 0.395821 153 0 76
-0.136764 0.295701 -0.258688 0 255 0
0.324656 -0.784581 -0.185431 76 153 0
0.050075 0.091467 -0.248724 255 0 0
-0.097568 -0.079652 0.173265 76 0 153
-0.225718 0.628095 -0.231311 0 127 127
0.312362 -0.079652 0.264071 76 0 153
0.052518 -0.079652 0.337175 76 0 153
0.339465 -0.167036 0.207558 76 0 153
-0.304121 -0.787201 -0.173653 0 127 127
0.057027 -0.079652 -0.023759 76 0 153
0.076734 -0.167036 0.100368 76 0 153
0.173390 0.354022 -0.200482 0 0 255
-0.194867 -0.167036 -0.110709 76 0 153
-0.321664 -0.380446 -0.169550 0 127 127
0.128034 0.275044 -0.252652 0 0 255
0.003199 0.121342 -0.215074 255 0 0
-0.332073 -0.120681 0.470951 76 0 153
0.114682 -0.167036 -0.085242 76 0 153
0.320023 -0.848399 0.423630 153 0 76
0.365349 -0.142529 0.429918 76 0 153
-0.328434 -0.114809 0.377695 76 0 153
0.420008 0.577109 -0.104968 0 127 127
-0.128274 0.543849 -0.238118 0 127 127
0.114236 -0.079652 -0.282043 76 0 153
-0.157028 -0.079652 -0.234003 76 0 153
0.400671 0.645237 -0.123847 0 127 127
0.203723 -0.079652 0.156538 76 0 153
-0.290675 -0.167036 0.436574 76 0 153
0.333640 -0.437485 -0.205221 76 153 0
-0.115502 0.409965 -0.264890 0 255 0
0.273994 0.517276 -0.152160 204 51 127
-0.197377 -0.079652 0.236960 76 0 153
0.335904 -0.420976 0.444420 153 0 76
0.405957 0.557473 -0.155516 0 127 127
0.243968 -0.079652 -0.200807 76 0 153
-0.087849 0.221493 -0.248824 0 255 0
0.171600 0.413239 -0.257933 0 0 255
0.413111 0.597841 -0.168047 0 127 127
-0.226513 0.541669 -0.196998 0 127 127
-0.396158 0.544887 -0.079251 0 127 127
0.241366 0.525935 -0.180855 204 51 127
0.121784 0.151723 -0.243730 0 0 255
0.201636 -0.167036 -0.268956 76 0 153
0.050356 -0.167036 -0.017958 76 0 153
-0.019741 -0.167036 -0.208604 76 0 153
0.289963 0.260167 -0.155230 204 51 127
-0.319493 -0.793975 0.401754 76 0 153
-0.267577 -0.004067 -0.202544 127 127 0
0.172389 -0.167036 -0.030158 76 0 153
-0.240629 0.512390 -0.226038 127 127 0
-0.301209 -0.644799 -0.166458 0 127 127
-0.229230 -0.079652 0.374172 76 0 153
0.292804 -0.726271 -0.206105 76 153 0
-0.290177 -0.831899 -0.203268 0 127 127
0.187691 0.588460 -0.227565 0 0 255
-0.266452 0.200057 -0.205217 127 127 0
0.285859 0.563879 -0.223796 0 127 127
-0.221541 -0.167036 -0.171624 76 0 153
0.270613 0.486578 -0.221170 204 51 127
0.323672 -0.499195 -0.161332 76 153 0
-0.150257 0.464717 -0.220253 0 255 0
-0.302940 -0.079652 -0.097921 76 0 153
-0.292706 -0.167036 -0.146868 0 127 127
-0.206804 -0.167036 0.255153 76 0 153
0.294896 0.095068 -0.215533 204 51 127
-0.209540 0.217298 -0.216370 127 127 0
0.294358 -0.079652 0.434550 76 0 153
-0.136573 0.630821 -0.182635 0 127 127
-0.398562 0.641968 -0.077852 0 127 127
-0.133035 0.182770 -0.199406 0 255 0
-0.280741 -0.607460 0.432780 76 0 153
-0.240155 0.340040 -0.226097 127 127 0
0.127747 -0.048245 -0.204708 0 0 255
0.152181 -0.112124 0.467478 76 0 153
0.356931 -0.167036 -0.057512 76 0 153
-0.014397 0.639080 -0.212936 0 127 127
0.042794 -0.079652 -0.263331 255 0 0
-0.352419 0.582783 -0.182330 0 127 127
-0.319572 -0.528827 -0.201918 0 127 127
-0.266071 0.516904 -0.177616 127 127 0
-0.125906 0.342051 -0.263685 0 255 0
-0.083623 -0.167036 0.184501 76 0 153
0.191892 -0.079652 -0.037341 76 0 153
0.339599 -0.307129 -0.203888 76 153 0
-0.307041 -0.080294 -0.053047 76 0 153
-0.250662 0.428072 -0.222706 127 127 0
0.241131 -0.167036 -0.145197 76 0 153
-0.084370 0.349055 -0.241793 0 255 0
0.043732 0.441948 -0.227360 255 0 0
-0.188508 0.599446 -0.148663 0 127 127
-0.121488 -0.167036 0.013163 76 0 153
0.084976 -0.079652 -0.110612 76 0 153
0.305370 0.631892 -0.206073 0 127 127
0.107618 -0.167036 0.453288 76 0 153
0.364820 0.645329 -0.137316 0 127 127
0.152479 -0.167036 0.283535 76 0 153
-0.176059 -0.167036 -0.040650 76 0 153
-0.127357 -0.079652 0.238178 76 0 153
0.184266 0.633563 -0.180542 0 127 127
-0.140994 -0.141750 0.474432 76 0 153
-0.084096 -0.167036 0.078739 76 0 153
-0.149631 0.093784 -0.218228 0 255 0
-0.061627 -0.167036 0.301847 76 0 153
0.318492 -0.768321 0.431866 153 0 76
-0.312818 -0.089614 0.318150 76 0 153
-0.273450 -0.167036 0.269647 76 0 153
0.122039 0.318042 -0.212669 0 0 255
0.316426 -0.682496 0.438511 153 0 76
-0.449753 0.624925 -0.120110 0 127 127
-0.016711 0.062937 -0.234438 255 0 0
-0.211547 -0.167036 -0.248604 76 0 153
-0.262781 -0.167036 -0.076460 76 0 153
-0.312992 -0.275838 0.452751 76 0 153
-0.308614 -0.402296 0.398946 76 0 153
-0.150116 0.517482 -0.219798 0 255 0
0.350862 -0.099971 -0.149592 76 0 153
-0.320541 -0.465340 0.408588 76 0 153
0.366586 0.548801 -0.103525 0 127 127
-0.322529 0.638269 -0.110692 0 127 127
-0.302245 -0.328501 -0.211260 0 127 127
0.181579 0.369608 -0.248186 0 0 255
-0.139387 -0.167036 -0.256359 76 0 153
0.118749 0.025035 -0.221948 0 0 255
-0.282496 -0.156268 0.474432 76 0 153
0.016186 0.619421 -0.224903 255 0 0
0.137833 0.540090 -0.259997 0 0 255
0.309298 0.445031 -0.178559 204 51 127
0.240915 0.058670 -0.188257 204 51 127
-0.165608 -0.079652 0.216325 76 0 153
0.330241 0.635935 -0.118620 0 127 127
0.049008 0.208168 -0.239179 255 0 0
-0.042094 -0.167036 0.340595 76 0 153
-0.306231 -0.207406 0.399600 76 0 153
-0.237395 -0.167036 0.210560 76 0 153
-0.226621 0.182547 -0.157946 127 127 0
0.288941 -0.555270 0.411236 153 0 76
0.119875 0.537020 -0.218307 0 0 255
-0.256924 -0.185712 -0.184988 0 127 127
-0.305950 0.544687 -0.127987 0 127 127
-0.014734 -0.066935 -0.264896 255 0 0
-0.313994 -0.201047 0.454768 76 0 153
-0.239112 -0.079652 -0.045133 76 0 153
0.017049 -0.079652 -0.200489 76 0 153
0.236535 -0.079652 0.292713 76 0 153
-0.131709 -0.167036 -0.052100 76 0 153
0.291581 -0.666216 -0.176315 76 153 0
0.018005 0.578718 -0.189013 0 127 127
0.099878 0.628078 -0.271823 0 127 127
-0.247353 -0.167036 -0.011675 76 0 153
0.251924 -0.079652 0.424710 76 0 153
0.241808 0.101264 -0.178805 204 51 127
-0.100325 0.562244 -0.260513 0 255 0
0.106748 -0.167036 -0.134276 76 0 153
-0.002620 0.089957 -0.277390 255 0 0
0.337880 -0.356144 0.447834 153 0 76
-0.137215 -0.167036 0.287151 76 0 153
-0.253180 0.062491 -0.162544 127 127 0
0.175957 0.522298 -0.202397 0 0 255
0.019984 -0.167036 0.006822 76 0 153
-0.308729 -0.167036 0.224809 76 0 153
-0.104115 0.462458 -0.197876 0 255 0
-0.114165 -0.167036 0.229688 76 0 153
0.173136 -0.167036 -0.238122 76 0 153
-0.267468 0.271923 -0.202803 127 127 0
-0.232828 -0.167036 0.322447 76 0 153
-0.121876 0.619421 -0.217176 0 255 0
-0.043387 -0.079652 -0.154993 76 0 153
-0.308308 -0.425144 -0.158260 0 127 127
0.439562 0.616515 -0.147794 0 127 127
0.218224 -0.079652 0.379046 76 0 153
-0.089888 -0.165342 -0.310437 76 0 153
0.150519 0.096579 -0.263165 0 0 255
0.162274 0.475277 -0.195181 0 0 255
-0.191432 0.642978 -0.219363 0 127 127
-0.208910 -0.167036 0.169514 76 0 153
-0.101807 -0.079652 -0.150114 76 0 153
0.258060 0.034281 -0.156817 204 51 127
0.299014 0.399044 -0.161286 204 51 127
-0.025744 -0.167036 -0.283994 76 0 153
0.340907 -0.083909 0.082530 76 0 153
-0.190756 0.574189 -0.254193 0 127 127
-0.050759 -0.079652 0.005838 76 0 153
0.118805 -0.167036 0.333242 76 0 153
0.145315 -0.014435 -0.262485 0 0 255
-0.324456 -0.108391 0.072128 76 0 153
0.276352 -0.079652 0.306744 76 0 153
-0.210996 0.303829 -0.217539 127 127 0
-0.327587 -0.113442 -0.189850 76 0 153
-0.269303 0.385295 -0.191174 127 127 0
-0.309521 -0.717375 0.396691 76 0 153
0.283493 -0.060442 -0.153044 204 51 127
0.296765 -0.413292 -0.205196 76 153 0
-0.084993 0.183849 -0.243805 0 255 0
-0.105128 -0.079652 -0.084019 76 0 153
0.118232 0.388786 -0.232092 0 0 255
0.329904 -0.698402 -0.195769 76 153 0
-0.300413 0.640044 -0.178532 0 127 127
-0.204467 0.004617 -0.209683 127 127 0
0.137495 0.589150 -0.173155 0 127 127
0.139346 0.643897 -0.213551 0 127 127
-0.175243 -0.079652 0.398449 76 0 153
-0.103529 0.484845 -0.262203 0 255 0
0.334315 -0.612979 0.416219 153 0 76
0.344985 -0.313106 0.443078 153 0 76
0.317807 -0.083505 -0.219085 76 0 153
-0.019820 -0.079652 0.043912 76 0 153
-0.074139 -0.167036 -0.142197 76 0 153
0.298639 0.316584 -0.160946 204 51 127
-0.074055 -0.167036 0.460334 76 0 153
-0.121935 -0.079652 0.289508 76 0 153
-0.115948 -0.167036 0.359025 76 0 153
-0.257065 -0.118473 -0.257348 76 0 153
0.362004 -0.117948 -0.215466 76 0 153
0.100479 -0.136232 0.474432 76 0 153
-0.244090 -0.051480 -0.158339 127 127 0
0.351301 -0.100680 0.113530 76 0 153
0.001010 0.541516 -0.245250 0 127 127
0.114214 0.575312 -0.280130 0 127 127
0.298730 -0.381223 -0.159345 76 153 0
0.338833 -0.501445 0.414340 153 0 76
0.300029 -0.774467 -0.211106 76 153 0
-0.273690 -0.365198 -0.203687 0 127 127
-0.167675 -0.167036 0.013036 76 0 153
0.028749 -0.079652 -0.000446 76 0 153
-0.310521 -0.167036 -0.037504 76 0 153
-0.014526 0.251048 -0.230340 255 0 0
-0.333724 -0.166562 -0.194446 76 0 153
0.309989 0.156303 -0.181767 204 51 127
-0.307479 -0.407619 0.451009 76 0 153
0.249255 -0.079652 0.010641 76 0 153
0.124827 0.206358 -0.208239 0 0 255
-0.208165 -0.056649 -0.169251 127 127 0
0.156228 0.173782 -0.263378 0 0 255
-0.279232 -0.201142 -0.146529 0 127 127
-0.317585 -0.269459 0.408013 76 0 153
-0.240438 0.619421 -0.179838 127 127 0
-0.014585 0.568042 -0.265178 255 0 0
-0.250619 0.032006 -0.222724 127 127 0
0.310308 0.010522 -0.189953 204 51 127
0.264930 0.577902 -0.131537 0 127 127
0.087582 -0.167036 0.257666 76 0 153
0.272357 -0.125336 0.474432 76 0 153
0.032336 0.149586 -0.278066 255 0 0
-0.228023 0.479913 -0.157769 127 127 0
0.334731 -0.536723 0.434731 153 0 76
-0.163703 -0.167036 0.194340 76 0 153
0.041411 -0.167036 0.448359 76 0 153
0.051898 -0.167036 0.126892 76 0 153
-0.111359 0.119618 -0.195688 0 255 0
0.063226 -0.167036 0.063203 76 0 153
0.130448 -0.079652 0.137905 76 0 153
0.147183 -0.079652 -0.104244 76 0 153
0.288950 -0.010609 -0.154710 204 51 127
0.040482 -0.092993 -0.299408 76 0 153
-0.002581 -0.079652 0.300058 76 0 153
-0.205333 -0.080338 0.447776 76 0 153
-0.067002 -0.167036 -0.085854 76 0 153
0.315294 -0.287466 0.459223 153 0 76
-0.095042 0.278272 -0.257009 0 255 0
-0.094948 0.642417 -0.210317 0 127 127
0.294617 -0.646775 -0.206542 76 153 0
0.288889 -0.341872 0.437038 153 0 76
-0.019146 0.343798 -0.245085 255 0 0
-0.171504 -0.167036 0.313723 76 0 153
0.286378 -0.167036 -0.210472 76 0 153
-0.235417 -0.167036 -0.119209 76 0 153
-0.305412 -0.662313 0.440504 76 0 153
0.305763 -0.103283 0.461998 76 0 153
-0.070559 -0.079652 0.287577 76 0 153
0.195728 -0.167036 0.405983 76 0 153
0.259812 -0.167036 0.332095 76 0 153
-0.324634 -0.534983 0.418914 76 0 153
0.289279 -0.336670 -0.170062 76 153 0
0.309746 0.253124 -0.192556 204 51 127
0.342897 -0.269441 0.406316 153 0 76
0.074224 -0.079652 0.094227 76 0 153
-0.203688 0.350776 -0.175674 127 127 0
-0.014972 0.200935 -0.231049 255 0 0
0.034331 0.421860 -0.277013 255 0 0
0.339374 -0.257311 -0.154119 76 153 0
0.223392 -0.167036 -0.185435 76 0 153
0.235284 -0.167036 -0.030118 76 0 153
0.027347 -0.047996 -0.215215 255 0 0
0.143365 -0.079652 -0.242340 0 0 255
0.357475 0.635199 -0.174115 0 127 127
0.264450 0.619421 -0.208857 204 51 127
-0.108711 -0.167036 0.312412 76 0 153
0.123303 0.459611 -0.246608 0 0 255
-0.317043 -0.737532 0.432462 76 0 153
0.033132 -0.079652 0.372925 76 0 153
0.230966 -0.167036 -0.088895 76 0 153
-0.203999 0.110425 -0.174935 127 127 0
-0.229753 0.218635 -0.157551 127 127 0
-0.289205 -0.849014 0.418534 76 0 153
0.062952 -0.167036 0.296913 76 0 153
0.365349 -0.134034 -0.036730 76 0 153
0.296482 -0.586094 -0.207195 76 153 0
-0.107912 0.387056 -0.196702 0 255 0
-0.250223 0.447233 -0.160919 127 127 0
0.333296 -0.167036 0.270117 76 0 153
0.013560 -0.079652 -0.123588 76 0 153
0.289365 -0.832988 -0.203467 76 153 0
0.200435 -0.167036 0.339984 76 0 153
-0.271844 -0.079652 -0.199591 127 127 0
-0.284311 -0.543087 -0.166282 0 127 127
-0.193024 -0.167036 0.083078 76 0 153
-0.212581 0.476369 -0.218769 127 127 0
-0.243098 0.563031 -0.158092 127 127 0
0.365349 -0.150514 0.121489 76 0 153
-0.110018 0.117324 -0.264093 0 255 0
-0.269358 -0.167036 0.313568 76 0 153
0.283989 0.202821 -0.153151 204 51 127
-0.289010 -0.776319 0.403849 76 0 153
-0.036012 0.641238 -0.258094 0 127 127
0.083419 -0.167036 -0.005651 76 0 153
0.049164 0.566111 -0.256017 255 0 0
0.339480 0.611294 -0.092793 0 127 127
-0.156111 -0.079652 -0.197560 76 0 153
0.288756 -0.271502 -0.169406 76 153 0
-0.148229 0.236286 -0.245309 0 255 0
0.037574 0.620571 -0.193763 0 127 127
-0.333724 -0.129355 -0.000946 76 0 153
0.340983 -0.121595 0.473348 76 0 153
-0.251390 -0.167036 -0.257027 76 0 153
-0.231017 -0.167036 -0.049581 76 0 153
0.334268 -0.167036 -0.159297 76 153 0
0.323496 -0.079652 0.204168 76 0 153
0.283876 0.543428 -0.193824 0 127 127
0.137998 0.636694 -0.255985 0 127 127
0.255802 -0.167036 0.296420 76 0 153
0.283693 -0.167036 -0.151247 76 0 153
0.257130 0.151251 -0.157417 204 51 127
0.245328 0.559823 -0.203875 204 51 127
0.164102 0.053340 -0.195747 0 0 255
-0.211729 0.392847 -0.218108 127 127 0
-0.224336 0.596307 -0.246344 0 127 127
-0.307086 -0.656239 0.396446 76 0 153
0.029988 0.077420 -0.279304 255 0 0
-0.014296 0.260151 -0.265727 255 0 0
-0.317521 -0.164886 -0.230046 76 0 153
-0.298260 -0.613717 -0.212052 0 127 127
0.024466 0.036693 -0.281288 255 0 0
0.151324 0.547963 -0.197431 0 0 255
0.346094 -0.375609 -0.180442 76 153 0
-0.141535 0.050799 -0.205600 0 255 0
-0.091692 -0.079652 -0.249339 0 255 0
0.086009 -0.113835 -0.309380 76 0 153
-0.206735 -0.079652 -0.021666 76 0 153
-0.156640 -0.158499 -0.296456 76 0 153
0.321126 -0.786617 0.402339 153 0 76
0.217448 -0.167036 0.472765 76 0 153
0.140181 -0.079652 0.425470 76 0 153
0.314119 -0.079652 -0.098547 76 0 153
-0.317785 -0.698286 -0.174829 0 127 127
-0.186283 -0.079652 0.328844 76 0 153
0.123818 -0.167036 0.218296 76 0 153
0.335833 -0.534953 -0.197813 76 153 0
-0.333724 -0.151460 0.299012 76 0 153
-0.297249 -0.167036 0.335461 76 0 153
-0.001916 0.623851 -0.280887 255 0 0
0.299825 -0.505129 -0.208698 76 153 0
0.365349 -0.148022 0.059804 76 0 153
0.103564 0.637201 -0.203801 0 127 127
0.211978 0.567897 -0.158932 0 127 127
-0.333724 -0.154684 0.030241 76 0 153
-0.268749 -0.420041 -0.175676 0 127 127
-0.326007 -0.167036 -0.137748 76 0 153
0.227858 -0.079652 -0.042911 76 0 153
0.120586 -0.167036 -0.172879 76 0 153
-0.246132 0.102775 -0.224553 127 127 0
-0.287958 0.612778 -0.213912 0 127 127
0.317154 -0.365476 -0.212362 76 153 0
0.025013 0.619421 -0.258789 255 0 0
-0.030808 -0.167036 0.132677 76 0 153
-0.240424 -0.167036 0.247879 76 0 153
0.243095 0.496835 -0.199090 204 51 127
0.114953 -0.167036 -0.279283 76 0 153
0.150535 -0.079652 0.357192 76 0 153
0.102607 0.544542 -0.251553 0 127 127
0.014533 0.037889 -0.213089 255 0 0
-0.399109 0.627201 -0.144549 0 127 127
0.173704 -0.167036 0.181620 76 0 153
-0.257560 -0.205797 0.434188 76 0 153
0.229481 -0.167036 0.184459 76 0 153
-0.133610 0.436861 -0.199709 0 255 0
0.268124 -0.079652 -0.083036 76 0 153
0.245622 -0.167036 0.012112 76 0 153
0.193321 -0.167036 0.299490 76 0 153
0.074806 -0.167036 0.386764 76 0 153
-0.254813 0.615194 -0.122563 0 127 127
0.240762 -0.028384 -0.185144 204 51 127
0.278530 -0.167036 0.236847 76 0 153
