ply
format ascii 1.0
element vertex 1253
property float x
property float y
property float z
property uchar red
property uchar green
property uchar blue
end_header
-0.366964 -0.420028 0.414078 0 0 255
0.354518 -0.401454 -0.283304 127 127 0
-0.009565 -0.037318 0.162087 204 51 127
0.401755 0.512941 -0.451055 127 127 0
-0.407504 0.017110 -0.378858 127 127 0
0.046803 0.421691 -0.553305 127 127 0
-0.321088 -0.238732 0.641177 204 51 127
0.340422 0.054802 0.315852 255 0 0
-0.315723 0.012010 0.343988 204 51 127
0.408032 0.077510 -0.403822 127 127 0
-0.324818 0.104877 0.250317 0 0 255
0.018248 -0.420028 -0.111714 204 51 127
0.184791 0.031132 0.550519 204 51 127
0.488258 -0.070153 0.359367 255 0 0
-0.039332 -0.420028 0.386357 204 51 127
0.208062 -0.297557 0.637121 204 51 127
-0.308467 0.049089 -0.090985 127 127 0
-0.474247 0.013137 0.214017 0 0 255
-0.344064 -0.059958 0.653507 204 51 127
-0.178809 0.226821 -0.489386 127 127 0
0.338827 -0.149885 -0.365822 127 127 0
-0.072636 -0.410766 0.629313 204 51 127
0.314149 -0.021533 0.091268 255 0 0
0.012448 -0.399124 -0.284069 127 127 0
0.157942 -0.412309 0.629207 204 51 127
-0.505254 -0.027953 0.508682 0 0 255
-0.058986 0.050663 -0.431604 127 127 0
-0.408975 0.272283 -0.365794 127 127 0
0.429834 -0.256957 -0.020972 255 0 0
0.319219 0.302982 -0.241573 255 0 0
0.447093 0.207104 -0.056847 255 0 0
-0.458874 -0.281868 0.285134 0 0 255
0.313371 0.181996 -0.179295 255 0 0
0.419313 0.336954 -0.303617 127 127 0
-0.430181 0.218686 -0.177418 0 0 255
-0.415199 -0.275176 -0.279605 127 127 0
-0.480505 -0.247559 0.640569 0 0 255
-0.270693 -0.420028 0.622266 204 51 127
0.469411 0.098075 0.141410 255 0 0
-0.004875 0.007100 0.637564 204 51 127
-0.037007 0.114501 -0.452543 127 127 0
-0.136717 0.246402 -0.495808 127 127 0
-0.078208 0.424247 -0.554144 127 127 0
-0.030288 0.290087 -0.360373 127 127 0
-0.427002 0.283108 -0.205659 0 0 255
0.304514 -0.054051 0.653914 204 51 127
0.200915 0.459709 -0.437873 127 127 0
-0.505353 -0.072776 0.542828 0 0 255
-0.283055 -0.072298 -0.075608 127 127 0
0.320476 0.709049 -0.630251 127 127 0
-0.304865 -0.090661 -0.065949 127 127 0
-0.430694 0.152353 -0.172867 0 0 255
-0.105751 -0.403883 -0.282507 127 127 0
-0.047547 0.565613 -0.462524 127 127 0
-0.156928 0.458598 -0.437542 127 127 0
0.401271 -0.420028 0.541427 204 51 127
0.509959 -0.074084 0.555054 255 0 0
0.388319 0.167984 0.309558 255 0 0
-0.025169 -0.420028 0.187364 204 51 127
-0.332796 0.521044 -0.452737 127 127 0
-0.140268 0.398542 -0.415688 127 127 0
0.062939 0.520043 -0.452530 127 127 0
-0.064423 -0.196377 -0.350572 127 127 0
-0.409802 -0.134417 -0.331410 127 127 0
-0.173743 -0.029769 0.185206 204 51 127
-0.116508 -0.256554 0.639948 204 51 127
0.403554 0.308478 -0.443608 127 127 0
-0.303095 -0.054590 0.113618 204 51 127
-0.089843 -0.044724 -0.091306 127 127 0
0.380750 -0.289631 0.637667 204 51 127
0.303960 0.604353 -0.613220 127 127 0
-0.103942 -0.020021 0.216761 204 51 127
-0.188670 -0.061739 0.095392 204 51 127
0.236906 -0.087825 0.032415 204 51 127
0.038094 0.554396 -0.596834 127 127 0
0.409154 0.291540 -0.393861 127 127 0
0.311639 -0.322976 -0.309046 127 127 0
-0.121252 -0.420028 0.287221 204 51 127
-0.027080 -0.020094 0.216513 204 51 127
-0.371777 0.698997 -0.559947 127 127 0
0.424262 0.049643 -0.259654 127 127 0
-0.194820 0.022351 0.593862 204 51 127
-0.508518 -0.088488 0.636352 0 0 255
-0.489577 0.050143 0.350194 0 0 255
0.276632 0.386983 -0.541920 127 127 0
-0.308685 0.102623 -0.046778 0 0 255
-0.407807 -0.225138 0.642115 0 0 255
0.090431 -0.027895 0.190947 204 51 127
-0.173687 0.037321 -0.146518 127 127 0
-0.463861 -0.238252 0.297056 0 0 255
-0.079893 -0.420028 0.243174 204 51 127
-0.210394 0.031439 0.548417 204 51 127
0.511396 0.013512 0.514363 255 0 0
0.218736 0.501404 -0.448594 127 127 0
0.314497 0.223552 -0.270172 255 0 0
-0.295809 -0.311624 -0.312769 127 127 0
-0.153532 -0.420028 0.550686 204 51 127
0.450104 -0.380604 0.315396 255 0 0
-0.326398 -0.120356 -0.375507 127 127 0
-0.278059 0.161350 -0.260354 127 127 0
-0.205429 0.341853 -0.389504 127 127 0
-0.055560 -0.022750 0.207500 204 51 127
-0.259845 0.229010 -0.318377 127 127 0
0.449035 -0.395912 0.359655 255 0 0
-0.218231 -0.082217 0.045573 204 51 127
0.172204 -0.104263 0.650451 204 51 127
0.265060 -0.102548 0.000451 204 51 127
0.298666 0.033483 0.479626 204 51 127
-0.308259 0.149215 -0.248124 127 127 0
0.118043 -0.376575 0.631671 204 51 127
-0.424997 0.012847 0.623201 0 0 255
0.500793 -0.024792 0.655932 255 0 0
0.195424 -0.052654 0.654010 204 51 127
0.234235 0.624323 -0.483475 127 127 0
0.289565 0.030486 0.554933 204 51 127
0.329169 0.119377 0.256832 255 0 0
0.235640 0.156381 -0.466280 127 127 0
0.372425 -0.420028 0.372493 204 51 127
0.465047 -0.044270 0.133974 255 0 0
-0.025986 -0.420028 -0.011461 204 51 127
-0.303304 0.356181 -0.396807 127 127 0
0.435410 -0.059597 -0.117914 255 0 0
-0.360323 -0.420028 0.128444 204 51 127
0.360876 0.243511 -0.026622 255 0 0
0.140436 0.227006 -0.489446 127 127 0
0.252210 0.146506 -0.245395 127 127 0
-0.423197 -0.361177 -0.115476 0 0 255
0.352974 0.455692 -0.564458 127 127 0
-0.324255 0.347214 -0.280130 0 0 255
-0.462284 0.102916 0.107756 0 0 255
-0.389232 0.638849 -0.541178 127 127 0
-0.095572 -0.420028 -0.171410 204 51 127
-0.075334 0.024296 0.410427 204 51 127
0.050638 -0.420028 0.315557 204 51 127
-0.365027 0.634719 -0.489182 127 127 0
0.320288 0.115771 0.186437 255 0 0
-0.112242 -0.037388 -0.095695 127 127 0
0.265293 0.174834 -0.272909 127 127 0
-0.431217 0.029798 0.559638 0 0 255
0.193501 0.307264 -0.370650 127 127 0
-0.380396 -0.436005 0.512947 76 0 153
-0.044132 0.401586 -0.546710 127 127 0
-0.312363 0.174810 0.124873 0 0 255
0.425391 -0.398547 -0.174360 255 0 0
0.507891 -0.102376 0.592026 255 0 0
-0.281141 0.432364 -0.556806 127 127 0
-0.429067 -0.140894 -0.084269 0 0 255
0.230894 0.213204 -0.484919 127 127 0
0.322172 0.322636 -0.354447 127 127 0
0.051793 -0.420028 0.506619 204 51 127
0.004215 0.411952 -0.550111 127 127 0
0.340186 0.670691 -0.634980 127 127 0
0.259439 -0.309548 0.636294 204 51 127
0.362639 -0.460377 -0.154491 76 0 153
-0.438701 0.045227 -0.101735 0 0 255
0.422461 -0.266119 -0.162523 255 0 0
0.459265 -0.361168 0.479173 255 0 0
0.366844 -0.420028 0.153106 204 51 127
0.235725 0.651697 -0.500487 127 127 0
-0.013924 -0.300562 0.636913 204 51 127
0.149705 -0.420028 0.180097 204 51 127
0.394233 0.387588 -0.526399 127 127 0
-0.485549 0.060024 0.314417 0 0 255
-0.388577 0.104266 -0.449186 127 127 0
0.171422 -0.420028 -0.106063 204 51 127
-0.076420 0.014696 -0.419806 127 127 0
-0.004748 0.203937 -0.481879 127 127 0
-0.391407 0.357102 -0.295598 0 0 255
0.493691 0.115305 0.438326 255 0 0
0.480068 -0.193915 0.644268 255 0 0
0.126558 -0.420028 -0.235807 204 51 127
-0.414768 -0.038352 -0.287401 127 127 0
-0.419693 -0.259911 -0.142046 0 0 255
-0.386583 0.227504 -0.489610 127 127 0
0.428171 -0.413556 -0.106685 255 0 0
-0.408298 0.378219 -0.371806 127 127 0
0.483093 -0.043560 0.293749 255 0 0
0.444012 0.112279 0.448812 255 0 0
0.114556 -0.163580 0.646360 204 51 127
0.490390 0.108508 0.327768 255 0 0
0.444897 -0.068839 -0.026789 255 0 0
-0.392258 -0.393564 -0.285892 127 127 0
-0.253850 0.523877 -0.453321 127 127 0
0.161535 -0.120968 -0.051127 127 127 0
0.147069 -0.233634 0.641529 204 51 127
-0.285100 0.382342 -0.540398 127 127 0
0.117984 0.154448 -0.465646 127 127 0
0.143555 -0.051148 -0.398209 127 127 0
0.384839 -0.420028 -0.018932 204 51 127
-0.127490 0.348940 -0.393116 127 127 0
-0.461106 0.051490 0.097288 0 0 255
-0.331890 0.219002 0.107017 0 0 255
0.340422 -0.420028 0.279307 204 51 127
0.157886 0.032944 0.534498 204 51 127
-0.337967 -0.442549 0.549440 76 0 153
-0.016817 0.000594 0.292903 204 51 127
0.505118 -0.108917 0.545640 255 0 0
0.422385 -0.415039 -0.270835 127 127 0
0.283591 0.014260 0.619244 204 51 127
0.164455 -0.420028 0.236051 204 51 127
-0.107676 -0.420028 0.555237 204 51 127
0.098169 -0.420028 0.122005 204 51 127
0.000836 0.428178 -0.427194 127 127 0
0.317645 -0.420028 -0.161762 204 51 127
-0.125313 -0.420028 0.033675 204 51 127
0.313174 0.174746 -0.217085 255 0 0
0.477563 -0.265480 0.529872 255 0 0
0.412827 -0.079455 -0.303785 127 127 0
0.047150 0.373321 -0.404718 127 127 0
0.472064 -0.069598 0.215105 255 0 0
-0.314420 -0.420028 -0.244744 127 127 0
-0.475585 0.100053 0.225904 0 0 255
-0.120707 -0.158058 -0.363141 127 127 0
-0.073433 -0.118881 -0.033075 127 127 0
-0.400880 0.180290 -0.437708 127 127 0
-0.138266 0.375461 -0.538141 127 127 0
-0.354042 0.151798 -0.464777 127 127 0
0.124231 -0.420028 -0.091209 204 51 127
0.188893 0.080005 -0.181308 127 127 0
-0.401859 0.284374 -0.429005 127 127 0
0.441718 0.246221 -0.040950 255 0 0
0.038751 -0.420028 -0.167455 204 51 127
-0.341104 -0.146158 -0.367044 127 127 0
-0.424901 -0.155857 -0.110172 0 0 255
0.367987 -0.422200 -0.205155 76 0 153
0.183438 0.215463 -0.485660 127 127 0
0.320784 0.015778 0.191445 127 127 0
-0.418241 0.199245 -0.283481 0 0 255
-0.269210 -0.420028 -0.053342 204 51 127
-0.460685 -0.336581 0.493760 0 0 255
0.160837 -0.285934 -0.321196 127 127 0
-0.314354 -0.239062 -0.336571 127 127 0
-0.256583 0.530835 -0.589105 127 127 0
-0.203228 -0.190499 0.644504 204 51 127
-0.051224 -0.051597 -0.398061 127 127 0
-0.195518 0.010447 0.629478 204 51 127
-0.420559 0.220889 0.096066 0 0 255
-0.179951 -0.420028 0.477620 204 51 127
-0.211916 -0.296162 -0.317841 127 127 0
-0.185542 0.259233 -0.500017 127 127 0
0.163835 -0.074993 0.062525 204 51 127
0.455066 -0.123179 0.103877 255 0 0
0.428175 -0.394991 -0.093328 255 0 0
0.318231 0.360940 -0.533378 127 127 0
-0.473545 -0.240300 0.388328 0 0 255
-0.161558 0.410614 -0.420517 127 127 0
0.426080 0.233281 -0.243506 255 0 0
0.345770 0.310452 -0.213807 255 0 0
-0.282525 -0.420028 -0.102219 204 51 127
-0.318482 0.062414 0.201441 0 0 255
0.313558 0.156104 0.074035 255 0 0
0.120683 0.710251 -0.624221 127 127 0
-0.001906 0.328463 -0.522725 127 127 0
-0.431365 -0.420028 0.584682 0 0 255
0.385896 0.594006 -0.600460 127 127 0
0.182466 0.277110 -0.352197 127 127 0
-0.261872 -0.305134 -0.314898 127 127 0
0.391336 0.122327 0.427300 255 0 0
0.214008 -0.420028 -0.232773 204 51 127
-0.365843 0.546941 -0.594388 127 127 0
-0.092468 -0.420028 0.207270 204 51 127
-0.191685 0.514149 -0.583632 127 127 0
-0.312954 0.113173 0.135055 0 0 255
-0.429946 -0.390000 0.054235 0 0 255
-0.220534 -0.420028 -0.182716 204 51 127
-0.338873 0.214466 0.132925 0 0 255
0.423463 -0.379809 -0.215327 255 0 0
-0.223371 -0.339608 -0.303591 127 127 0
0.176168 0.150793 -0.249715 127 127 0
-0.188753 -0.420028 0.552343 204 51 127
-0.394524 0.542133 -0.457128 127 127 0
0.034271 0.064595 -0.436174 127 127 0
0.067941 -0.420028 -0.066953 204 51 127
0.088315 0.382976 -0.540606 127 127 0
-0.117500 -0.420028 -0.005558 204 51 127
0.200842 0.259948 -0.340758 127 127 0
0.030488 0.464705 -0.567414 127 127 0
-0.258627 0.348775 -0.529388 127 127 0
-0.284081 -0.420028 0.232667 204 51 127
-0.413470 -0.194779 -0.271036 127 127 0
0.007343 0.596999 -0.610808 127 127 0
-0.089265 0.404652 -0.547716 127 127 0
0.385789 0.248214 -0.047118 255 0 0
-0.056714 -0.420028 -0.156876 204 51 127
-0.243582 0.677149 -0.524394 127 127 0
0.049343 0.275380 -0.505313 127 127 0
0.426366 -0.373387 -0.128914 255 0 0
0.169596 -0.151187 -0.365395 127 127 0
0.460485 0.014115 0.062116 255 0 0
0.257388 -0.248871 -0.333353 127 127 0
0.205361 0.026679 0.425872 204 51 127
0.321942 0.314849 -0.518260 127 127 0
0.124103 -0.414140 -0.279143 127 127 0
-0.127646 -0.045474 0.138898 204 51 127
-0.420583 -0.218756 -0.101847 0 0 255
0.018546 -0.064711 -0.393760 127 127 0
0.438077 0.211572 -0.136938 255 0 0
-0.430402 -0.420028 0.230850 0 0 255
-0.397997 -0.420028 0.194497 0 0 255
0.367433 0.410937 -0.549777 127 127 0
-0.446373 -0.128388 0.060173 0 0 255
0.456787 -0.141626 0.132852 255 0 0
0.440197 0.019295 0.604115 255 0 0
-0.314286 0.134638 0.154898 0 0 255
0.023356 -0.420028 0.059950 204 51 127
-0.393102 -0.278830 -0.323526 127 127 0
-0.028739 0.389242 -0.411942 127 127 0
0.478277 -0.113292 0.302722 255 0 0
-0.238914 -0.204663 -0.347854 127 127 0
-0.287415 -0.000305 -0.414886 127 127 0
0.045804 0.691089 -0.641671 127 127 0
-0.180429 0.013014 0.348956 204 51 127
0.312187 -0.034390 0.002568 255 0 0
-0.062869 0.179048 -0.276786 127 127 0
-0.330476 -0.400884 -0.283491 127 127 0
-0.440031 -0.012584 -0.082111 0 0 255
-0.386012 0.182704 -0.474914 127 127 0
-0.219577 0.220995 -0.487474 127 127 0
-0.479157 -0.168524 0.381186 0 0 255
0.479438 0.028435 0.230479 255 0 0
0.354361 -0.420028 0.352806 204 51 127
0.381935 0.327286 -0.246712 255 0 0
0.026911 -0.036559 0.164412 204 51 127
-0.008988 -0.175188 0.645560 204 51 127
0.414861 0.133441 -0.343166 127 127 0
0.322331 0.415340 -0.422407 127 127 0
-0.308825 0.117999 -0.085554 127 127 0
0.500001 0.062132 0.413144 255 0 0
0.279605 -0.420028 0.574505 204 51 127
0.419689 -0.317192 0.635766 255 0 0
0.303514 0.430076 -0.556055 127 127 0
-0.386587 0.243540 -0.026762 0 0 255
-0.315626 0.042302 0.171825 0 0 255
-0.145364 0.675805 -0.636657 127 127 0
-0.099463 -0.420028 0.508624 204 51 127
0.191237 -0.420028 0.508385 204 51 127
-0.147462 0.401688 -0.546744 127 127 0
0.266060 0.019507 -0.421384 127 127 0
-0.453954 0.047217 0.033754 0 0 255
0.027270 0.002894 0.302799 204 51 127
0.420738 0.338564 -0.266442 127 127 0
-0.025157 -0.330616 -0.306540 127 127 0
-0.185799 -0.419146 -0.277501 127 127 0
0.105506 -0.095544 -0.383646 127 127 0
0.420317 -0.211098 -0.183750 255 0 0
0.103817 -0.420028 0.341584 204 51 127
-0.314385 0.289249 -0.324320 0 0 255
-0.425125 0.235253 0.016135 0 0 255
-0.507805 0.006380 0.512114 0 0 255
0.440344 0.073876 -0.116794 255 0 0
-0.108161 -0.341288 0.634105 204 51 127
0.407499 -0.008208 -0.403991 127 127 0
-0.387176 0.527741 -0.559437 127 127 0
0.134686 -0.093159 0.651217 204 51 127
-0.045717 0.521615 -0.452855 127 127 0
0.427366 -0.333348 -0.072177 255 0 0
-0.357592 0.355556 -0.531612 127 127 0
-0.186524 -0.103370 -0.001332 204 51 127
0.290338 0.451833 -0.435432 127 127 0
0.230560 -0.420028 0.567435 204 51 127
0.485834 0.102780 0.287295 255 0 0
0.438469 -0.338355 0.116145 255 0 0
0.330882 0.459892 -0.565835 127 127 0
0.026456 -0.166377 -0.360412 127 127 0
-0.376781 -0.360421 0.632785 0 0 255
-0.130116 -0.420028 -0.145782 204 51 127
-0.413615 0.180556 -0.324576 127 127 0
-0.332442 0.565279 -0.600404 127 127 0
0.232175 0.458566 -0.437532 127 127 0
0.323165 0.150360 0.213298 255 0 0
-0.464753 0.077394 0.129688 0 0 255
0.213116 0.032476 0.468867 204 51 127
-0.310258 0.189955 -0.260729 127 127 0
0.471884 0.141452 0.383204 255 0 0
-0.295749 0.492166 -0.446814 127 127 0
-0.336321 0.173434 0.292573 0 0 255
-0.037558 -0.191060 0.644465 204 51 127
0.485400 -0.226480 0.561223 255 0 0
0.212388 -0.420028 -0.096254 204 51 127
0.050797 -0.420028 0.140228 204 51 127
0.136979 0.546549 -0.594260 127 127 0
0.176358 0.424696 -0.554291 127 127 0
-0.143241 -0.121718 -0.375061 127 127 0
-0.078012 -0.009679 0.253008 204 51 127
-0.254891 -0.420028 0.006936 204 51 127
-0.501486 0.060041 0.455988 0 0 255
0.316997 0.115462 0.146002 255 0 0
-0.342801 0.128311 -0.457073 127 127 0
-0.085835 -0.420028 0.550159 204 51 127
-0.129608 -0.420028 0.515622 204 51 127
0.430216 -0.142122 -0.102807 255 0 0
0.164265 0.448258 -0.434187 127 127 0
0.007643 0.012395 0.345894 204 51 127
0.456123 -0.311979 0.253396 255 0 0
0.124205 -0.085770 -0.068464 127 127 0
-0.462609 -0.127927 0.204056 0 0 255
0.469917 -0.273583 0.353717 255 0 0
-0.160178 0.537970 -0.591446 127 127 0
-0.308895 -0.003870 0.006832 0 0 255
0.244954 -0.420028 0.332211 204 51 127
-0.458889 -0.337698 0.448559 0 0 255
-0.419002 -0.420028 0.339666 0 0 255
-0.074991 0.037362 -0.146549 127 127 0
-0.390555 0.418726 -0.529423 127 127 0
-0.284234 0.026684 0.425902 204 51 127
-0.432804 -0.168685 -0.030453 0 0 255
0.405542 0.430434 -0.425942 127 127 0
-0.317008 -0.216344 -0.344022 127 127 0
0.010307 -0.118875 -0.033061 127 127 0
-0.068561 0.482055 -0.444534 127 127 0
-0.423426 0.131804 -0.237425 0 0 255
0.449942 -0.020613 -0.017769 255 0 0
-0.220118 0.096004 -0.446476 127 127 0
0.145640 0.134885 -0.233628 127 127 0
0.305988 -0.008320 -0.412257 127 127 0
-0.338910 0.021858 0.396245 0 0 255
-0.078221 0.340843 -0.388989 127 127 0
0.040861 -0.420028 0.010315 204 51 127
-0.319150 0.310917 -0.214764 0 0 255
0.125630 0.464776 -0.567437 127 127 0
0.271478 -0.420028 0.060095 204 51 127
0.071202 0.153765 -0.465422 127 127 0
-0.144829 -0.098405 0.009439 204 51 127
-0.309001 0.132356 -0.010090 0 0 255
-0.051583 0.686059 -0.536241 127 127 0
0.165716 0.587713 -0.468730 127 127 0
-0.470537 0.004814 0.181063 0 0 255
-0.322867 0.136011 0.236943 0 0 255
-0.219047 -0.101615 -0.060316 127 127 0
0.256814 -0.059795 0.100348 204 51 127
0.221091 -0.230125 -0.339502 127 127 0
-0.078742 -0.188324 0.644654 204 51 127
0.483288 -0.073148 0.317439 255 0 0
0.260355 0.497026 -0.578016 127 127 0
-0.044636 -0.420028 0.103953 204 51 127
0.422939 -0.420028 -0.203494 255 0 0
-0.476240 -0.112412 0.313629 0 0 255
0.381470 -0.339393 -0.303661 127 127 0
0.436820 -0.372897 0.631925 255 0 0
-0.423414 0.304357 -0.237536 0 0 255
-0.432111 0.244097 -0.029403 0 0 255
0.027062 -0.377012 0.631641 204 51 127
-0.415755 -0.209028 -0.216769 0 0 255
-0.423891 -0.054844 -0.194113 0 0 255
-0.102432 0.068929 -0.171971 127 127 0
-0.282060 -0.420028 0.374720 204 51 127
-0.152648 0.708106 -0.634984 127 127 0
0.050427 -0.420028 0.560099 204 51 127
0.115664 -0.018983 0.220282 204 51 127
-0.302912 0.592178 -0.470179 127 127 0
-0.310265 -0.010333 0.250526 204 51 127
-0.460953 -0.214351 0.253492 0 0 255
0.274986 -0.420028 0.357993 204 51 127
-0.283354 -0.260913 0.639648 204 51 127
-0.198884 -0.420028 0.281852 204 51 127
-0.105065 0.283337 -0.356120 127 127 0
0.444134 -0.052426 -0.045748 255 0 0
0.065964 0.621889 -0.482255 127 127 0
0.342924 -0.053226 -0.397527 127 127 0
-0.158830 -0.030286 0.655553 204 51 127
0.391275 0.457413 -0.552683 127 127 0
0.165521 0.133518 -0.458781 127 127 0
0.465605 0.182498 0.217576 255 0 0
-0.206737 -0.091531 -0.384962 127 127 0
0.098772 0.023569 0.406201 204 51 127
-0.432002 0.054097 0.543668 0 0 255
0.464042 0.034390 0.093718 255 0 0
-0.146467 0.555463 -0.460082 127 127 0
0.263701 -0.420028 0.126677 204 51 127
-0.310163 0.006918 0.072170 0 0 255
0.301704 -0.178886 -0.356309 127 127 0
0.447741 -0.094166 0.017278 255 0 0
-0.420216 -0.023598 -0.249949 127 127 0
0.145244 0.445789 -0.561209 127 127 0
0.011437 0.404683 -0.418144 127 127 0
-0.236859 0.429424 -0.427628 127 127 0
0.311901 0.082573 -0.040451 255 0 0
-0.003950 -0.420028 0.352391 204 51 127
0.232622 -0.056859 0.107835 204 51 127
-0.486720 -0.189054 0.510637 0 0 255
-0.307623 -0.420028 0.305318 204 51 127
0.372159 -0.420028 0.583304 204 51 127
-0.405730 0.032346 0.540723 0 0 255
-0.432595 -0.398450 0.122870 0 0 255
0.209687 -0.035318 0.168213 204 51 127
-0.151342 -0.420028 0.122209 204 51 127
0.414888 0.090021 -0.342925 127 127 0
0.035309 -0.116119 -0.027514 127 127 0
-0.308701 0.104666 -0.185186 127 127 0
0.010897 -0.072716 0.067867 204 51 127
-0.287549 0.552105 -0.459316 127 127 0
-0.146075 -0.110160 -0.056254 127 127 0
0.033508 -0.420028 0.537378 204 51 127
-0.506556 0.042377 0.501025 0 0 255
0.348077 -0.170474 -0.359068 127 127 0
-0.503448 -0.066419 0.521186 0 0 255
0.193975 -0.010139 0.251261 204 51 127
-0.289415 0.682159 -0.530726 127 127 0
-0.075179 0.658318 -0.505721 127 127 0
-0.134774 0.040156 -0.428157 127 127 0
0.035172 0.206747 -0.300778 127 127 0
-0.144219 0.013301 0.621928 204 51 127
0.072627 -0.420028 0.542337 204 51 127
-0.118592 0.708774 -0.631630 127 127 0
-0.413118 -0.069592 -0.278867 127 127 0
0.460460 -0.283579 0.270837 255 0 0
-0.446938 -0.259445 0.162461 0 0 255
0.300703 0.388322 -0.542359 127 127 0
-0.286121 0.291953 -0.361548 127 127 0
-0.434056 -0.398672 0.151355 0 0 255
0.427673 -0.420028 0.135083 255 0 0
0.165401 -0.261991 0.639573 204 51 127
0.500921 -0.097868 0.492415 255 0 0
0.153191 0.166838 -0.469710 127 127 0
0.325930 -0.420028 -0.108107 204 51 127
0.319973 0.192730 0.183063 255 0 0
-0.477942 -0.007183 0.250649 0 0 255
0.311857 0.005514 -0.038227 255 0 0
-0.417973 -0.368182 -0.267711 127 127 0
0.377705 -0.208114 -0.346722 127 127 0
-0.408782 -0.063502 -0.321905 127 127 0
0.440331 0.079536 0.516060 255 0 0
0.313636 0.111912 0.076495 255 0 0
0.042537 0.323046 -0.520948 127 127 0
0.273039 -0.420028 -0.187742 204 51 127
0.218865 -0.420028 0.529782 204 51 127
0.276637 -0.083974 -0.069388 127 127 0
0.287604 0.212888 -0.305935 127 127 0
0.345020 0.710060 -0.596125 127 127 0
-0.399816 -0.018704 -0.408850 127 127 0
-0.140376 0.177250 -0.275132 127 127 0
0.369069 0.177803 0.278688 255 0 0
-0.352888 -0.358431 0.632922 204 51 127
0.077142 0.427736 -0.555288 127 127 0
0.168754 -0.420028 0.519863 204 51 127
0.496412 -0.055226 0.420717 255 0 0
0.314094 -0.420028 0.162520 204 51 127
0.066108 -0.420028 0.072562 204 51 127
0.193821 0.372903 -0.537302 127 127 0
0.464858 0.062409 0.550319 255 0 0
-0.155129 -0.021163 -0.105803 127 127 0
0.080632 -0.084118 -0.069313 127 127 0
0.311792 0.030223 -0.081132 127 127 0
0.266683 0.146860 -0.463157 127 127 0
0.418751 -0.420028 0.343610 255 0 0
-0.215654 -0.034372 0.171112 204 51 127
0.406859 -0.357748 0.632969 204 51 127
-0.159270 0.609136 -0.614789 127 127 0
-0.027047 0.062114 -0.166235 127 127 0
-0.325397 -0.420028 0.285349 204 51 127
0.368433 -0.250210 -0.332914 127 127 0
-0.381970 -0.351273 -0.299764 127 127 0
-0.449922 0.004335 0.643998 0 0 255
-0.484273 0.130825 0.315076 0 0 255
0.419503 -0.100689 -0.228720 255 0 0
-0.319561 -0.420028 0.489359 204 51 127
0.006771 0.674908 -0.636363 127 127 0
-0.414069 -0.420028 -0.099228 0 0 255
-0.359705 0.411875 -0.550085 127 127 0
-0.328739 0.446484 -0.561437 127 127 0
-0.499811 -0.114308 0.524421 0 0 255
-0.283817 -0.420028 -0.024492 204 51 127
0.440514 -0.255255 0.072635 255 0 0
-0.147592 -0.126515 0.648917 204 51 127
0.193258 -0.359821 0.632827 204 51 127
-0.227930 -0.101099 0.003594 204 51 127
-0.338056 0.294416 -0.178297 0 0 255
-0.103542 0.698990 -0.559932 127 127 0
0.208754 -0.420028 0.394470 204 51 127
0.147150 0.190308 -0.286976 127 127 0
-0.072725 0.009251 0.330329 204 51 127
-0.502871 0.011716 0.468287 0 0 255
0.225293 -0.420028 0.043925 204 51 127
0.421984 0.154767 -0.279886 127 127 0
0.464096 -0.226383 0.260683 255 0 0
0.327828 -0.195739 -0.350781 127 127 0
0.321890 0.063602 0.202085 255 0 0
-0.366354 0.147794 0.367197 0 0 255
0.315250 0.248695 -0.200722 255 0 0
0.109984 0.233693 -0.491640 127 127 0
-0.439400 0.242925 -0.095416 0 0 255
0.489543 -0.095864 0.389862 255 0 0
-0.416045 -0.316799 -0.285420 127 127 0
0.281293 0.173281 -0.471824 127 127 0
0.246878 -0.190288 -0.352569 127 127 0
-0.313507 0.274055 -0.128652 0 0 255
-0.310167 0.186777 0.001461 0 0 255
-0.013291 0.637916 -0.624229 127 127 0
-0.452007 -0.154609 0.129685 0 0 255
-0.104789 -0.420028 -0.141499 204 51 127
0.416356 0.061493 -0.329881 127 127 0
0.064103 0.693167 -0.547973 127 127 0
0.404624 0.171226 -0.434097 127 127 0
0.107599 0.563117 -0.599694 127 127 0
-0.308850 0.120236 -0.132781 127 127 0
0.237077 -0.093993 -0.064235 127 127 0
0.165237 0.025804 -0.138024 127 127 0
-0.420330 0.091457 -0.264930 0 0 255
0.482576 -0.222347 0.461546 255 0 0
0.255231 -0.420028 -0.111196 204 51 127
0.157741 0.026617 0.425434 204 51 127
0.099508 0.138031 -0.236840 127 127 0
-0.238616 -0.420028 0.211032 204 51 127
-0.235125 -0.420028 -0.008015 204 51 127
-0.424189 0.016916 -0.230653 0 0 255
0.284456 0.125437 -0.223978 127 127 0
-0.036237 0.478550 -0.443490 127 127 0
0.310275 -0.156322 0.646861 204 51 127
0.464468 0.162354 0.097501 255 0 0
0.030303 -0.420028 0.148265 204 51 127
-0.440980 0.091863 -0.081492 0 0 255
-0.411750 0.021802 -0.341146 127 127 0
0.157201 0.034318 0.510325 204 51 127
-0.456452 0.196359 0.154139 0 0 255
0.219910 -0.217456 0.642645 204 51 127
-0.033331 -0.076156 0.059795 204 51 127
0.319822 -0.010262 0.181448 204 51 127
-0.069473 0.381449 -0.540105 127 127 0
0.153727 -0.420028 0.583611 204 51 127
0.352565 0.136783 0.363432 255 0 0
-0.030644 -0.015581 -0.409875 127 127 0
0.098569 -0.420028 0.270182 204 51 127
-0.003582 -0.420028 0.030643 204 51 127
-0.310944 -0.010260 0.094745 0 0 255
0.495430 -0.146933 0.480057 255 0 0
0.434145 -0.282833 0.036533 255 0 0
-0.442643 -0.252153 0.118895 0 0 255
0.167376 -0.063327 0.091344 204 51 127
-0.229719 -0.003710 0.657386 204 51 127
0.336999 0.228977 0.050633 255 0 0
0.000667 0.306022 -0.515364 127 127 0
-0.407488 -0.141130 0.647909 0 0 255
0.207185 0.546222 -0.458012 127 127 0
0.500954 -0.064054 0.467619 255 0 0
-0.237643 0.642162 -0.493804 127 127 0
0.378851 -0.420028 0.319685 204 51 127
-0.194784 -0.018384 0.656374 204 51 127
-0.266556 0.591614 -0.469990 127 127 0
0.082587 -0.413883 0.629098 204 51 127
-0.470050 -0.299735 0.578669 0 0 255
0.471973 0.078861 0.164165 255 0 0
0.094974 0.652575 -0.629037 127 127 0
0.403361 0.085602 0.491079 255 0 0
0.185080 0.629989 -0.486486 127 127 0
0.043097 0.088386 -0.188835 127 127 0
0.096763 0.567055 -0.462887 127 127 0
-0.310860 0.211724 -0.128798 0 0 255
0.191279 0.018774 0.378306 204 51 127
0.315612 0.217383 0.116416 255 0 0
-0.176801 -0.420028 -0.202152 204 51 127
0.258886 -0.097683 -0.062338 127 127 0
0.137320 0.006338 0.639406 204 51 127
-0.471089 -0.152899 0.297917 0 0 255
-0.330613 0.225632 0.069144 0 0 255
0.447577 0.125015 -0.052545 255 0 0
-0.289401 0.627080 -0.484910 127 127 0
-0.515907 0.021158 0.584087 0 0 255
0.410175 -0.066146 -0.366302 127 127 0
-0.338011 -0.070529 -0.391851 127 127 0
-0.376339 0.300335 -0.513499 127 127 0
0.342718 0.251072 -0.058262 255 0 0
0.409485 0.115598 -0.390923 127 127 0
0.386484 -0.034351 -0.403718 127 127 0
-0.453506 0.150780 0.029773 0 0 255
-0.464222 -0.283853 0.337211 0 0 255
-0.146767 -0.420028 0.200286 204 51 127
-0.072527 -0.029569 0.185819 204 51 127
-0.429463 -0.420028 0.537255 0 0 255
-0.421926 0.265022 -0.250748 0 0 255
0.411521 0.293187 -0.175443 255 0 0
0.271642 0.545911 -0.594051 127 127 0
0.089833 -0.420028 -0.064890 204 51 127
-0.434335 0.070202 -0.140518 0 0 255
0.437163 -0.133063 -0.047816 255 0 0
0.393487 0.513919 -0.533029 127 127 0
0.189280 -0.231157 -0.339163 127 127 0
-0.257543 -0.157401 -0.363356 127 127 0
-0.143755 0.198138 -0.293550 127 127 0
-0.114545 -0.106330 -0.380108 127 127 0
0.196576 -0.420028 0.248486 204 51 127
0.310520 -0.106387 -0.007878 204 51 127
0.323671 0.017850 0.608896 204 51 127
-0.452147 -0.123078 0.107525 0 0 255
0.486987 0.132356 0.335231 255 0 0
-0.428857 -0.047859 -0.155189 0 0 255
-0.031085 0.332335 -0.523995 127 127 0
0.085429 0.335263 -0.524956 127 127 0
-0.142168 -0.420028 0.494731 204 51 127
0.353156 0.267756 -0.111668 255 0 0
0.080492 0.705680 -0.578303 127 127 0
-0.409190 0.155326 0.346882 0 0 255
-0.020569 0.636025 -0.489960 127 127 0
-0.225785 0.248619 -0.496536 127 127 0
0.071652 -0.001929 -0.118408 127 127 0
0.312483 0.141893 -0.014403 255 0 0
-0.312246 0.057993 0.122690 0 0 255
0.024660 0.153312 -0.465274 127 127 0
-0.226897 0.698527 -0.644110 127 127 0
-0.102975 0.192064 -0.477985 127 127 0
0.314604 0.180707 0.102528 255 0 0
-0.457331 -0.054799 0.102900 0 0 255
0.360490 -0.420028 0.287841 204 51 127
0.397281 0.608491 -0.499332 127 127 0
-0.203085 -0.420028 0.430417 204 51 127
-0.146170 -0.024653 0.201041 204 51 127
0.107508 -0.207555 0.643328 204 51 127
0.166911 -0.079880 -0.071493 127 127 0
-0.309120 0.140411 -0.046473 0 0 255
-0.017160 -0.420028 0.449010 204 51 127
-0.357758 0.185539 0.253351 0 0 255
0.434245 0.241909 -0.170970 255 0 0
-0.500174 -0.069105 0.494093 0 0 255
0.312808 0.028019 0.044232 255 0 0
0.149348 0.679238 -0.526949 127 127 0
0.376623 0.536281 -0.455890 127 127 0
0.284911 -0.420028 -0.142440 204 51 127
-0.418055 0.050719 -0.285135 127 127 0
0.423418 -0.073819 -0.213885 255 0 0
0.502217 -0.039742 0.460789 255 0 0
-0.459710 -0.243929 0.264397 0 0 255
-0.159463 -0.420028 0.081923 204 51 127
-0.165919 -0.094110 0.651151 204 51 127
0.311792 -0.080141 -0.053071 127 127 0
0.197040 -0.239722 0.641109 204 51 127
0.330857 0.360253 -0.379035 127 127 0
-0.094832 0.262235 -0.342349 127 127 0
0.030405 0.508309 -0.581717 127 127 0
0.289797 0.342844 -0.527442 127 127 0
0.497247 -0.078671 0.445535 255 0 0
0.162941 0.167364 -0.266035 127 127 0
-0.286716 0.034312 0.511665 204 51 127
-0.129591 -0.420028 -0.090427 204 51 127
0.239307 0.400130 -0.416323 127 127 0
0.404274 0.383156 -0.437211 127 127 0
0.290975 -0.345305 -0.301722 127 127 0
-0.470676 0.077362 0.520475 0 0 255
0.330492 0.015327 0.264945 204 51 127
-0.220215 -0.036968 -0.402860 127 127 0
-0.252002 -0.406125 -0.281772 127 127 0
0.470272 -0.232529 0.641605 255 0 0
0.102254 0.519608 -0.585423 127 127 0
0.445504 0.146963 -0.070960 255 0 0
-0.343530 0.022052 0.594994 204 51 127
0.239849 -0.420028 0.440460 204 51 127
0.273630 -0.420028 0.553613 204 51 127
0.377188 -0.417798 0.628828 204 51 127
0.015957 0.017139 0.369381 204 51 127
-0.165081 -0.051393 0.122414 204 51 127
-0.070111 -0.420028 -0.211727 204 51 127
-0.443282 0.028148 -0.061048 0 0 255
-0.225739 0.497926 -0.578311 127 127 0
0.350487 0.036260 0.356068 255 0 0
-0.321627 -0.438650 0.521807 76 0 153
0.390625 -0.368028 -0.294268 127 127 0
0.469723 0.029677 0.144179 255 0 0
-0.165186 -0.106327 -0.380109 127 127 0
-0.409220 0.151101 -0.363621 127 127 0
0.412196 0.010462 -0.366839 127 127 0
-0.392988 0.224518 0.075387 0 0 255
0.417185 -0.077346 -0.266635 127 127 0
-0.230926 0.020123 0.601377 204 51 127
-0.255689 0.445862 -0.433352 127 127 0
0.338016 0.224789 -0.488719 127 127 0
-0.273987 0.092470 -0.192503 127 127 0
0.374367 -0.133342 -0.371248 127 127 0
0.109987 -0.420028 0.399320 204 51 127
-0.283948 0.611214 -0.615471 127 127 0
0.397967 0.198098 0.208314 255 0 0
-0.196028 -0.420028 0.381512 204 51 127
-0.104449 0.002661 -0.121571 127 127 0
0.435635 -0.342009 0.093691 255 0 0
0.175631 -0.420028 -0.001610 204 51 127
0.105970 0.505572 -0.449491 127 127 0
-0.379186 0.030907 0.455625 0 0 255
-0.485853 0.002373 0.317120 0 0 255
-0.389661 0.378069 -0.537359 127 127 0
-0.433988 -0.132898 -0.046492 0 0 255
0.485501 -0.188178 0.422468 255 0 0
0.062592 -0.037337 -0.095726 127 127 0
-0.052510 0.523109 -0.586571 127 127 0
-0.240528 0.165309 -0.469209 127 127 0
0.092298 -0.420028 0.566805 204 51 127
0.151176 -0.118325 -0.031955 127 127 0
0.506103 -0.118486 0.619927 255 0 0
-0.465738 0.021421 0.597083 0 0 255
-0.258926 0.242749 -0.494610 127 127 0
-0.142824 0.654709 -0.502805 127 127 0
-0.393262 -0.018778 0.656347 204 51 127
0.086473 0.006597 0.638780 204 51 127
-0.191174 0.062099 -0.166222 127 127 0
-0.314233 0.287572 -0.207644 0 0 255
-0.463949 -0.019343 0.135377 0 0 255
-0.288226 0.517760 -0.452058 127 127 0
-0.276131 -0.420028 0.297078 204 51 127
-0.356736 -0.460477 -0.172710 153 76 0
-0.312013 0.251402 -0.313694 127 127 0
-0.416492 0.224251 -0.299021 127 127 0
-0.227390 0.317611 -0.376530 127 127 0
-0.415104 -0.168233 -0.206055 0 0 255
-0.126720 0.555713 -0.597266 127 127 0
-0.146575 -0.068678 0.077700 204 51 127
-0.327018 -0.439399 -0.160859 153 76 0
0.160542 -0.265401 -0.327931 127 127 0
0.078619 -0.188078 0.644671 204 51 127
0.034555 0.598057 -0.611155 127 127 0
0.419048 -0.246175 -0.244537 255 0 0
0.328921 0.097826 0.255287 255 0 0
0.312414 0.005664 0.021130 255 0 0
0.208500 0.031757 0.546250 204 51 127
-0.023869 -0.420028 -0.270339 127 127 0
-0.151066 -0.420028 0.162056 204 51 127
-0.496635 -0.158782 0.643010 0 0 255
-0.036960 0.003186 -0.121932 127 127 0
-0.424990 -0.370639 -0.071659 0 0 255
-0.074051 0.095878 -0.195563 127 127 0
0.375407 0.277792 -0.506105 127 127 0
-0.165573 0.513359 -0.583373 127 127 0
0.442757 -0.109261 -0.015793 255 0 0
-0.231896 -0.420028 -0.210503 204 51 127
-0.335489 0.185079 0.254896 0 0 255
-0.101369 0.020936 0.598688 204 51 127
0.236335 0.057802 -0.433945 127 127 0
0.108143 0.711302 -0.603138 127 127 0
-0.175389 -0.420028 -0.064230 204 51 127
0.020268 -0.420028 -0.001603 204 51 127
-0.311903 0.248480 -0.048915 0 0 255
0.456167 0.118179 0.023759 255 0 0
0.370090 -0.172553 -0.358386 127 127 0
-0.402484 -0.420028 0.114723 0 0 255
0.313587 0.560611 -0.598872 127 127 0
-0.447215 0.098583 -0.026106 0 0 255
-0.413054 -0.218154 -0.299412 127 127 0
0.416582 -0.368213 -0.294208 127 127 0
-0.368379 -0.420028 0.341482 204 51 127
-0.365113 0.687087 -0.537782 127 127 0
0.105443 -0.066246 0.653073 204 51 127
0.122344 -0.024598 -0.406917 127 127 0
0.509087 -0.099856 0.650755 255 0 0
0.440732 -0.417178 0.228960 255 0 0
-0.395576 0.521808 -0.484819 127 127 0
-0.428034 -0.420028 -0.019050 0 0 255
0.043472 0.033043 0.474419 204 51 127
-0.299377 -0.145323 0.647619 204 51 127
-0.453563 -0.001320 0.030278 0 0 255
-0.376900 -0.420028 0.147789 0 0 255
-0.375982 0.011963 0.625675 204 51 127
0.473822 -0.306848 0.625505 255 0 0
-0.317908 0.258619 -0.084319 0 0 255
-0.292093 -0.106567 -0.057958 127 127 0
0.122926 -0.244348 0.640790 204 51 127
-0.458078 0.045440 0.579127 0 0 255
-0.021014 -0.125601 -0.373787 127 127 0
0.207493 -0.146345 0.647549 204 51 127
-0.309742 0.171109 -0.148659 127 127 0
0.063921 -0.420028 0.332775 204 51 127
-0.294642 -0.420028 -0.175971 204 51 127
-0.028242 -0.012670 0.241707 204 51 127
0.329695 0.024314 0.410534 204 51 127
-0.199686 -0.001949 -0.414346 127 127 0
-0.048672 -0.334116 -0.305392 127 127 0
0.419890 -0.340597 -0.288102 127 127 0
-0.324912 0.350653 -0.363723 0 0 255
-0.173693 0.145257 -0.244136 127 127 0
-0.334058 -0.420028 0.067551 204 51 127
-0.384340 0.077323 0.459330 0 0 255
0.411622 -0.052459 -0.334521 127 127 0
0.065001 0.083067 -0.442232 127 127 0
0.344223 -0.310735 -0.313061 127 127 0
0.031036 0.232394 -0.491214 127 127 0
-0.318049 0.318399 -0.376978 0 0 255
-0.372638 -0.458442 0.503445 76 0 153
0.326283 0.034036 0.517610 204 51 127
0.424898 -0.217510 -0.094089 255 0 0
0.139798 -0.056050 -0.084633 127 127 0
0.253359 0.440583 -0.431514 127 127 0
0.312581 0.147637 -0.075139 255 0 0
0.428578 -0.016185 -0.210831 255 0 0
-0.418394 -0.305819 -0.211403 0 0 255
0.100162 0.378000 -0.406842 127 127 0
0.504717 -0.115979 0.568664 255 0 0
0.254323 0.681863 -0.638644 127 127 0
-0.000229 -0.420028 0.217731 204 51 127
0.377786 0.235399 0.015338 255 0 0
0.311799 0.044468 -0.133107 127 127 0
-0.360922 0.428016 -0.414104 0 0 255
-0.408258 -0.420028 0.166655 0 0 255
0.373787 -0.420028 0.445112 204 51 127
0.373574 -0.447371 0.546442 153 0 76
-0.497988 0.060307 0.424910 0 0 255
0.209002 -0.379854 -0.290389 127 127 0
-0.063641 -0.073753 -0.074799 127 127 0
-0.337879 0.029412 0.445101 204 51 127
-0.406464 -0.047158 -0.363297 127 127 0
-0.404390 0.169954 -0.406525 127 127 0
-0.417415 0.251821 -0.290824 127 127 0
0.258972 0.019644 0.383367 204 51 127
0.189295 -0.057689 -0.083723 127 127 0
0.235085 -0.420028 -0.167154 204 51 127
0.313244 0.128536 0.062960 255 0 0
-0.336341 0.398135 -0.545578 127 127 0
0.314094 0.207737 -0.054440 255 0 0
-0.053870 0.691909 -0.641939 127 127 0
-0.216269 0.655529 -0.630006 127 127 0
0.478390 -0.216067 0.379999 255 0 0
0.345408 -0.157758 0.646762 204 51 127
0.018156 0.513546 -0.451181 127 127 0
0.309232 0.031112 -0.425191 127 127 0
0.316945 0.280067 -0.322181 255 0 0
-0.236238 0.593947 -0.470776 127 127 0
0.300487 -0.218160 0.642596 204 51 127
-0.077714 0.019569 0.382931 204 51 127
-0.415298 -0.240649 -0.252219 0 0 255
-0.172812 0.299701 -0.513291 127 127 0
-0.069293 0.451034 -0.435154 127 127 0
0.159379 -0.196908 -0.350398 127 127 0
-0.262371 0.657180 -0.504787 127 127 0
0.391036 0.514210 -0.554798 127 127 0
-0.121852 -0.420028 -0.041336 204 51 127
0.416002 -0.162944 -0.271044 127 127 0
0.467476 -0.152664 0.235997 255 0 0
-0.406285 0.001919 0.649105 0 0 255
0.451745 0.014247 -0.015523 255 0 0
-0.484761 -0.099276 0.379573 0 0 255
-0.362110 0.300469 -0.192081 0 0 255
0.424167 -0.299068 -0.137938 255 0 0
-0.169010 -0.349716 0.633523 204 51 127
0.408700 0.402026 -0.397889 127 127 0
-0.293730 -0.247009 -0.333964 127 127 0
0.428313 -0.309744 -0.028662 255 0 0
0.101469 -0.420028 0.194664 204 51 127
-0.298062 0.708025 -0.586896 127 127 0
0.133883 0.393577 -0.544083 127 127 0
0.031942 -0.420028 0.379738 204 51 127
0.224856 -0.014315 0.236125 204 51 127
-0.194910 -0.420028 -0.179901 204 51 127
-0.266852 0.620067 -0.481369 127 127 0
0.351627 0.616523 -0.479704 127 127 0
-0.250597 0.697272 -0.556123 127 127 0
0.371509 -0.420028 0.084143 204 51 127
-0.180019 -0.420028 0.327885 204 51 127
-0.228690 0.570400 -0.463752 127 127 0
0.085061 0.645942 -0.496344 127 127 0
0.025493 0.361285 -0.399257 127 127 0
0.312648 -0.023489 0.035849 255 0 0
-0.121916 -0.003789 0.275379 204 51 127
0.474628 0.017682 0.187750 255 0 0
0.322543 0.324698 -0.305589 255 0 0
0.421987 -0.293773 -0.195608 255 0 0
-0.304784 0.394448 -0.414050 127 127 0
0.435606 -0.321619 0.078301 255 0 0
-0.426249 -0.236154 -0.038612 0 0 255
-0.316431 0.307217 -0.277821 0 0 255
0.508979 0.027099 0.614153 255 0 0
0.124987 0.276203 -0.351625 127 127 0
-0.059644 0.101876 -0.448402 127 127 0
-0.261159 -0.115005 -0.025270 127 127 0
-0.253642 0.631479 -0.622118 127 127 0
0.246186 -0.420028 -0.132870 204 51 127
-0.095815 -0.420028 -0.254145 127 127 0
-0.176822 -0.420028 0.052011 204 51 127
0.385547 0.642166 -0.493807 127 127 0
-0.335148 -0.420028 -0.033042 204 51 127
0.050085 0.253538 -0.336301 127 127 0
-0.352020 0.031462 0.372935 0 0 255
0.465013 0.183651 0.102338 255 0 0
-0.439271 -0.195173 0.644182 0 0 255
0.438470 0.025177 -0.133439 255 0 0
0.214936 -0.338389 -0.303990 127 127 0
-0.310761 0.122132 0.089964 0 0 255
-0.144923 0.300534 -0.366825 127 127 0
0.407142 0.249935 -0.411732 127 127 0
0.350540 -0.420028 0.449560 204 51 127
-0.218411 0.033494 0.528779 204 51 127
-0.386314 0.505785 -0.567093 127 127 0
-0.306614 -0.031873 0.178764 204 51 127
-0.310306 -0.039869 0.076732 0 0 255
0.204521 0.073443 -0.439076 127 127 0
0.241880 -0.420028 0.131085 204 51 127
-0.426665 -0.201013 -0.060990 0 0 255
-0.479263 -0.220461 0.453097 0 0 255
-0.290794 -0.420028 -0.253561 127 127 0
0.403941 -0.420028 -0.193916 255 0 0
0.434044 -0.121526 -0.084087 255 0 0
-0.423826 -0.406600 -0.130101 0 0 255
-0.159918 -0.420028 -0.244146 204 51 127
0.025428 0.622361 -0.482490 127 127 0
-0.303367 0.578857 -0.604857 127 127 0
0.401698 0.190451 -0.460094 127 127 0
0.368806 0.189974 0.238174 255 0 0
-0.181058 -0.420028 -0.246712 127 127 0
-0.000828 0.499221 -0.448145 127 127 0
0.093327 0.015410 0.360819 204 51 127
0.253366 -0.022061 0.209838 204 51 127
-0.493381 -0.135411 0.482963 0 0 255
0.402991 0.401043 -0.448606 127 127 0
0.325774 0.033346 0.477381 204 51 127
0.044981 -0.420028 0.074761 204 51 127
0.084150 -0.152294 -0.365032 127 127 0
-0.410183 -0.241192 -0.335872 127 127 0
0.314702 0.137413 0.104736 255 0 0
0.493881 -0.183948 0.593582 255 0 0
-0.339480 -0.329990 0.634884 204 51 127
0.106594 -0.090536 0.026510 204 51 127
-0.244193 -0.420028 0.154104 204 51 127
-0.091984 -0.089168 0.651492 204 51 127
-0.101329 -0.104234 -0.059065 127 127 0
-0.206077 0.429738 -0.427737 127 127 0
-0.432096 -0.294620 0.056720 0 0 255
0.477346 -0.065150 0.258715 255 0 0
-0.446103 -0.245850 0.640687 0 0 255
-0.065761 0.395931 -0.414643 127 127 0
0.514226 0.030533 0.539501 255 0 0
-0.455248 -0.238558 0.220775 0 0 255
0.163874 -0.420028 -0.170727 204 51 127
0.003309 -0.420028 0.545573 204 51 127
-0.444703 0.203949 -0.048420 0 0 255
-0.078804 -0.331174 0.634802 204 51 127
-0.399215 0.436078 -0.426878 127 127 0
-0.028153 0.033175 0.475704 204 51 127
-0.451630 -0.187810 0.150973 0 0 255
0.315548 0.035811 0.122027 255 0 0
-0.185682 0.034272 0.495344 204 51 127
0.046141 -0.420028 0.620596 204 51 127
-0.260115 0.575596 -0.603788 127 127 0
0.061273 0.551166 -0.459106 127 127 0
-0.364704 0.032975 0.473750 0 0 255
0.408122 -0.420028 0.401047 204 51 127
-0.428053 -0.330305 0.043438 0 0 255
0.353331 0.090748 -0.444752 127 127 0
0.487209 -0.028941 0.319461 255 0 0
0.243316 0.179388 -0.277100 127 127 0
-0.059659 -0.124584 -0.374121 127 127 0
-0.120559 0.133505 -0.458777 127 127 0
-0.114491 0.025691 0.418915 204 51 127
0.208599 -0.091894 -0.384843 127 127 0
-0.188991 -0.086386 0.035790 204 51 127
0.403480 -0.420028 0.570211 255 0 0
0.410896 0.189538 -0.378388 127 127 0
0.106155 -0.420028 0.312629 204 51 127
-0.510891 -0.016755 0.550442 0 0 255
-0.311305 0.229178 -0.240972 127 127 0
-0.286174 0.318346 -0.376948 127 127 0
0.271858 0.643857 -0.494924 127 127 0
-0.181966 -0.378223 -0.290924 127 127 0
0.400592 -0.420028 0.210734 204 51 127
0.229094 0.685863 -0.639956 127 127 0
-0.188505 -0.015754 0.231243 204 51 127
-0.404125 0.035648 -0.408879 127 127 0
0.136711 0.307042 -0.370524 127 127 0
0.443704 -0.415101 0.302663 255 0 0
-0.393369 0.235386 0.015410 0 0 255
-0.433208 0.121397 0.429337 0 0 255
-0.138678 -0.308564 -0.313773 127 127 0
0.386773 -0.138671 0.648078 204 51 127
-0.007339 0.676074 -0.523129 127 127 0
-0.350388 -0.420028 0.478889 204 51 127
0.497186 -0.151551 0.529263 255 0 0
0.117664 -0.420028 0.449104 204 51 127
-0.114991 -0.420028 0.575621 204 51 127
0.437030 -0.420028 0.158106 255 0 0
-0.459490 -0.067986 0.131865 0 0 255
-0.188294 -0.420028 0.401467 204 51 127
-0.327562 0.034314 0.509030 204 51 127
0.474452 -0.264133 0.435614 255 0 0
0.218272 -0.326777 0.635105 204 51 127
0.390578 0.140355 -0.461024 127 127 0
-0.246618 -0.085803 0.651724 204 51 127
-0.002345 0.091255 -0.191412 127 127 0
-0.131018 0.456883 -0.437031 127 127 0
-0.436563 -0.152169 -0.009319 0 0 255
-0.422730 -0.420028 -0.078821 0 0 255
-0.411618 -0.186640 -0.317439 127 127 0
0.276094 -0.420028 -0.106399 204 51 127
-0.381967 0.458860 -0.565497 127 127 0
-0.308916 0.083532 0.008661 0 0 255
0.089232 0.663549 -0.510279 127 127 0
0.312789 0.089221 0.043324 255 0 0
-0.215294 0.039011 -0.427782 127 127 0
0.375986 0.057028 -0.433691 127 127 0
0.104264 0.167377 -0.266046 127 127 0
0.038001 -0.087047 -0.067807 127 127 0
0.456745 -0.094537 0.651122 255 0 0
0.419470 -0.271872 -0.250945 127 127 0
-0.311833 0.091874 0.114710 0 0 255
-0.240748 -0.420028 0.057322 204 51 127
-0.275690 -0.081634 0.652012 204 51 127
0.088836 -0.420028 0.000852 204 51 127
-0.483631 -0.196898 0.461693 0 0 255
-0.352148 -0.142154 0.647838 204 51 127
-0.265288 -0.039347 -0.094523 127 127 0
0.317477 0.698957 -0.559857 127 127 0
0.003477 -0.420028 0.603966 204 51 127
-0.242214 0.405568 -0.418498 127 127 0
-0.421072 -0.071430 -0.206844 0 0 255
0.473681 0.033734 0.594525 255 0 0
-0.395256 0.564069 -0.487662 127 127 0
-0.101901 -0.420028 -0.055130 204 51 127
-0.407674 0.135159 -0.377349 127 127 0
-0.224049 -0.197042 0.644053 204 51 127
-0.044370 -0.376945 0.631646 204 51 127
0.477181 0.138960 0.210428 255 0 0
-0.106997 0.177692 -0.275538 127 127 0
0.519829 -0.026601 0.607480 255 0 0
0.425554 -0.333662 -0.123502 255 0 0
-0.359516 0.000842 -0.415262 127 127 0
0.420945 -0.266225 -0.205350 255 0 0
-0.114155 -0.337763 -0.304196 127 127 0
-0.018342 0.012193 0.344893 204 51 127
0.136393 -0.051289 0.654105 204 51 127
-0.399700 0.333690 -0.257942 0 0 255
0.433460 0.041244 -0.177948 255 0 0
0.405501 0.061845 0.495068 255 0 0
-0.482107 -0.160623 0.401524 0 0 255
-0.433843 -0.345862 0.110275 0 0 255
-0.493576 -0.066674 0.433679 0 0 255
0.321026 -0.420028 0.296465 204 51 127
0.461633 0.123486 0.072318 255 0 0
0.129685 0.254755 -0.337147 127 127 0
-0.431593 -0.005828 -0.162079 0 0 255
0.299123 -0.025462 0.198397 204 51 127
-0.076707 -0.163897 -0.361226 127 127 0
0.211705 0.608864 -0.614700 127 127 0
0.071832 -0.420028 -0.037569 204 51 127
-0.143638 0.506690 -0.449732 127 127 0
0.376575 0.135158 0.398335 255 0 0
0.409828 0.007816 -0.387868 127 127 0
-0.456404 0.054684 0.055516 0 0 255
-0.285500 0.015857 0.363035 204 51 127
-0.310633 0.203177 0.020616 0 0 255
0.287537 -0.420028 0.626872 204 51 127
0.068697 -0.098122 0.010053 204 51 127
-0.430048 0.084448 0.506059 0 0 255
-0.418999 -0.297631 -0.188498 0 0 255
0.144039 0.488509 -0.575222 127 127 0
-0.414852 -0.324339 -0.308599 127 127 0
-0.377222 0.263707 -0.501485 127 127 0
0.419695 0.053509 -0.300222 127 127 0
-0.242796 0.205339 -0.299596 127 127 0
-0.167521 0.135684 -0.459492 127 127 0
-0.104880 -0.420028 0.303659 204 51 127
0.337801 -0.427608 0.498068 204 51 127
0.477944 -0.005183 0.219522 255 0 0
0.418993 -0.185794 -0.203025 255 0 0
-0.028141 0.457599 -0.437244 127 127 0
-0.319183 0.650709 -0.499751 127 127 0
0.299132 0.710147 -0.596574 127 127 0
0.473280 -0.214636 0.333547 255 0 0
-0.221412 0.709663 -0.627174 127 127 0
0.345735 0.536568 -0.590986 127 127 0
0.311881 0.077749 -0.132279 127 127 0
-0.454579 -0.328398 0.281870 0 0 255
-0.328856 0.217235 -0.309369 127 127 0
-0.378883 0.682918 -0.633102 127 127 0
0.060070 -0.003963 0.274716 204 51 127
-0.460534 0.168590 0.092205 0 0 255
0.473026 0.119573 0.173522 255 0 0
0.421229 0.177801 -0.286598 127 127 0
-0.205202 0.031478 0.459641 204 51 127
-0.480827 -0.036113 0.297749 0 0 255
0.037341 -0.420028 0.266996 204 51 127
-0.077309 -0.420028 0.488124 204 51 127
0.313740 0.683887 -0.639308 127 127 0
-0.413946 0.292181 -0.321634 127 127 0
-0.310638 0.203340 -0.221268 127 127 0
-0.352656 -0.420028 -0.250650 127 127 0
-0.415081 -0.186371 0.644789 0 0 255
0.316054 -0.156572 -0.363628 127 127 0
0.274758 -0.113313 -0.377818 127 127 0
0.173073 0.422214 -0.425117 127 127 0
-0.211842 -0.418592 -0.277683 127 127 0
-0.276757 0.230745 -0.490672 127 127 0
-0.394905 0.273162 -0.490779 127 127 0
-0.217177 0.683285 -0.532263 127 127 0
-0.135042 -0.380450 -0.290194 127 127 0
0.065150 -0.140605 0.647945 204 51 127
-0.254291 0.031493 0.548050 204 51 127
0.007425 0.016697 -0.420463 127 127 0
0.269380 -0.063562 -0.080461 127 127 0
-0.119811 -0.377430 0.631612 204 51 127
0.414395 -0.283196 -0.322094 127 127 0
0.492789 0.090261 0.349075 255 0 0
0.312150 -0.093856 0.019307 204 51 127
0.431992 0.099058 -0.190988 255 0 0
-0.368829 0.030395 0.555560 0 0 255
0.424864 -0.183489 -0.119648 255 0 0
-0.448954 -0.365417 0.303220 0 0 255
-0.072175 0.306890 -0.370437 127 127 0
-0.174134 0.172798 -0.271035 127 127 0
0.506519 -0.087653 0.534567 255 0 0
0.167687 -0.420028 0.160258 204 51 127
0.436182 -0.374608 0.122738 255 0 0
-0.224923 0.189798 -0.477241 127 127 0
0.046297 -0.081317 0.047684 204 51 127
-0.153879 0.209843 -0.483816 127 127 0
-0.427477 0.050225 -0.201441 0 0 255
0.447281 -0.119222 0.031783 255 0 0
-0.203653 0.191575 -0.288040 127 127 0
0.229634 -0.420028 0.401308 204 51 127
-0.218264 0.317584 -0.519157 127 127 0
-0.221673 0.589142 -0.608231 127 127 0
0.256651 0.679847 -0.527712 127 127 0
-0.071590 -0.358380 -0.297433 127 127 0
-0.246472 -0.377930 -0.291020 127 127 0
0.325701 0.591521 -0.469960 127 127 0
-0.497517 -0.001527 0.420725 0 0 255
0.202243 0.423316 -0.425501 127 127 0
-0.027451 -0.420028 -0.106728 204 51 127
-0.477680 -0.224097 0.426134 0 0 255
0.091234 0.023656 -0.136440 127 127 0
-0.180504 0.373434 -0.404770 127 127 0
-0.215442 -0.054507 0.113830 204 51 127
-0.260573 -0.420028 0.475828 204 51 127
0.431420 0.203373 -0.196066 255 0 0
0.092687 -0.420028 -0.023522 204 51 127
-0.464281 -0.311434 0.472900 0 0 255
0.052992 0.474044 -0.570477 127 127 0
0.471529 -0.102159 0.234513 255 0 0
-0.079312 0.020298 0.600796 204 51 127
-0.312604 0.264396 -0.241124 0 0 255
0.081262 -0.045057 0.654534 204 51 127
0.132509 -0.420028 -0.064976 204 51 127
0.060455 0.626537 -0.620497 127 127 0
0.043834 -0.023057 0.206456 204 51 127
-0.422587 0.224799 -0.244881 0 0 255
0.169805 -0.308565 -0.313773 127 127 0
0.419079 -0.420028 0.243949 255 0 0
0.297432 -0.356376 0.633064 204 51 127
0.482564 -0.003602 0.259393 255 0 0
0.144024 -0.216974 -0.343816 127 127 0
0.451384 -0.145772 0.087937 255 0 0
0.324945 0.034230 0.227607 255 0 0
-0.477320 -0.073988 0.294708 0 0 255
0.467211 -0.339036 0.595584 255 0 0
-0.416889 0.010526 -0.295498 127 127 0
0.414077 -0.420028 0.059070 255 0 0
0.000463 0.176329 -0.274284 127 127 0
-0.196272 0.707338 -0.584202 127 127 0
-0.309239 0.015160 0.031663 0 0 255
-0.241701 0.281883 -0.507447 127 127 0
-0.085672 -0.420028 0.529293 204 51 127
-0.208373 0.674360 -0.636183 127 127 0
0.024875 -0.420028 0.584854 204 51 127
0.264122 -0.420028 -0.256424 127 127 0
-0.468909 -0.084117 0.227506 0 0 255
-0.311364 0.231326 -0.066794 0 0 255
0.438740 -0.151229 -0.020330 255 0 0
0.278522 0.571570 -0.602467 127 127 0
0.394884 -0.097100 -0.383136 127 127 0
0.425165 -0.251332 -0.075751 255 0 0
-0.056062 -0.420028 0.502937 204 51 127
0.492411 -0.024887 0.362662 255 0 0
0.428538 0.230751 -0.221666 255 0 0
-0.414215 -0.420028 0.072109 0 0 255
