ply
format ascii 1.0
element vertex 1266
property float x
property float y
property float z
property uchar red
property uchar green
property uchar blue
end_header
0.087030 0.593944 -0.413029 0 0 255
-0.091908 0.584858 -0.413728 0 0 255
0.013590 -0.053668 0.162619 76 0 153
0.344193 -0.111101 0.131290 76 0 153
0.429041 -0.571354 0.571938 76 153 0
0.044093 -0.052997 0.448444 76 0 153
0.284969 -0.028522 -0.189014 76 0 153
-0.273538 -0.111101 0.095445 76 0 153
-0.440077 -0.398025 0.494018 0 127 127
0.466547 -0.589493 -0.198426 153 0 76
0.050721 -0.052851 0.274482 76 0 153
-0.246274 -0.111101 0.289770 76 0 153
-0.446967 -0.579455 -0.251825 76 0 153
0.180114 -0.111101 0.247401 76 0 153
-0.331683 -0.111101 0.524772 76 0 153
-0.351890 -0.081276 -0.163212 76 0 153
0.083367 0.436932 -0.414721 0 0 255
-0.430386 0.002013 0.246747 76 0 153
-0.364927 0.711801 -0.314361 0 0 255
0.425986 -0.097338 0.531512 76 0 153
-0.243264 0.689622 -0.394161 0 0 255
0.164797 -0.111101 -0.118802 76 0 153
0.223864 0.686941 -0.371986 0 0 255
0.201490 0.450149 -0.381418 0 0 255
0.086023 -0.106244 -0.359958 76 0 153
-0.338992 -0.019368 0.376786 76 0 153
0.043422 -0.111101 -0.041609 76 0 153
0.358746 0.712334 -0.322676 0 0 255
-0.211445 0.448606 -0.380867 0 0 255
-0.144504 -0.047987 -0.263751 76 0 153
-0.463740 -0.428403 -0.205340 76 0 153
-0.333757 -0.020417 -0.234014 76 0 153
-0.209469 -0.111101 0.003830 76 0 153
0.424461 -0.025802 -0.171088 76 0 153
0.128831 -0.048471 0.415310 76 0 153
-0.147047 -0.111101 0.176155 76 0 153
0.295321 -0.026447 -0.033464 76 0 153
-0.124723 -0.111101 -0.103435 76 0 153
0.265282 -0.111101 0.180269 76 0 153
-0.208787 -0.041097 0.440507 76 0 153
-0.105680 0.442550 -0.410950 0 0 255
0.053490 0.518175 -0.452243 0 0 255
0.270612 -0.030771 0.388596 76 0 153
-0.268613 -0.032374 -0.087286 76 0 153
-0.221658 -0.039654 0.103711 76 0 153
0.006061 0.045315 -0.397044 204 51 127
0.456490 -0.445981 -0.205919 153 0 76
0.137514 -0.111101 -0.260591 76 0 153
-0.173070 -0.045037 -0.170356 76 0 153
0.240518 -0.111101 -0.035803 76 0 153
0.195222 -0.111101 0.509361 76 0 153
-0.334133 -0.111101 0.285185 76 0 153
-0.107593 -0.050423 0.112819 76 0 153
-0.350964 -0.111101 0.036952 76 0 153
0.059376 0.673264 -0.444732 0 0 255
-0.077583 -0.024970 -0.376253 204 51 127
0.262132 -0.111101 0.446488 76 0 153
-0.434329 -0.002059 -0.106744 76 0 153
-0.084602 -0.051941 0.317444 76 0 153
0.398708 -0.137187 -0.186210 153 0 76
0.302571 -0.111101 -0.275184 76 0 153
-0.070789 0.509107 -0.451598 0 0 255
0.262941 -0.031960 0.120963 76 0 153
-0.195995 -0.042508 0.285761 76 0 153
-0.069155 0.673296 -0.440839 0 0 255
0.338145 -0.022539 0.531597 76 0 153
-0.192770 0.607869 -0.421624 0 0 255
-0.434329 -0.084375 0.352407 76 0 153
0.374051 0.479980 -0.273878 0 0 255
0.425986 -0.088067 -0.029333 76 0 153
0.013361 -0.111101 -0.248351 76 0 153
0.179096 0.592675 -0.423447 0 0 255
0.049451 -0.111101 0.099065 76 0 153
0.194321 -0.041772 -0.265459 76 0 153
-0.016639 0.309315 -0.460664 204 51 127
-0.374128 -0.111101 -0.044385 76 0 153
0.027582 -0.053360 0.355096 76 0 153
0.152267 -0.046411 0.058624 76 0 153
-0.167770 -0.045622 0.365548 76 0 153
0.127701 -0.048545 0.244352 76 0 153
-0.282118 -0.030280 0.230111 76 0 153
0.359642 -0.129802 0.457186 76 153 0
-0.028852 -0.111101 0.209445 76 0 153
0.110703 -0.049667 0.153087 76 0 153
-0.389239 -0.008131 0.438809 76 0 153
0.013282 0.375327 -0.425416 204 51 127
-0.132939 -0.111101 -0.020840 76 0 153
0.129454 -0.048430 0.325277 76 0 153
0.242711 -0.111101 0.328713 76 0 153
-0.244008 -0.036189 -0.001028 76 0 153
0.001577 -0.111101 -0.110232 76 0 153
-0.372745 -0.012197 0.090439 76 0 153
-0.251087 -0.047374 0.517467 76 0 153
0.328647 -0.111101 0.053394 76 0 153
0.365423 -0.258508 0.500112 76 153 0
-0.291505 -0.111101 -0.121183 76 0 153
-0.020120 -0.111101 0.021820 76 0 153
-0.434329 -0.088813 0.186815 76 0 153
0.355569 0.634636 -0.298975 0 0 255
-0.236418 -0.111101 0.164602 76 0 153
0.243867 -0.111101 -0.114153 76 0 153
0.462614 -0.623125 0.521397 76 153 0
0.133353 -0.048172 -0.336929 76 0 153
0.151116 -0.046538 0.504152 76 0 153
-0.340087 -0.111101 0.447138 76 0 153
-0.209940 -0.111101 0.361484 76 0 153
-0.414865 -0.277327 0.473405 0 127 127
0.412622 -0.000310 0.438913 76 0 153
0.425986 -0.031061 -0.085638 76 0 153
-0.319061 0.543584 -0.357498 0 0 255
-0.424286 -0.440047 0.557043 0 127 127
-0.420269 -0.109300 -0.183783 76 0 153
0.351605 -0.111101 0.217433 76 0 153
0.237303 -0.035935 0.235243 76 0 153
0.006423 -0.111101 0.416465 76 0 153
-0.434329 -0.056925 0.087654 76 0 153
-0.385955 -0.047842 0.538891 76 0 153
0.268745 -0.060067 0.520796 76 0 153
0.102275 -0.111101 0.278417 76 0 153
-0.093848 -0.111101 0.247627 76 0 153
0.444049 -0.432765 0.548719 76 153 0
-0.364136 -0.014320 0.007437 76 0 153
-0.008398 -0.053965 -0.025240 76 0 153
-0.092466 -0.111101 -0.268930 76 0 153
-0.193719 -0.111101 0.234539 76 0 153
-0.434329 -0.035111 -0.033603 76 0 153
-0.194951 -0.111101 -0.311728 76 0 153
0.192557 -0.111101 0.149388 76 0 153
0.388852 -0.415211 -0.202873 153 0 76
-0.093036 -0.051384 -0.072797 76 0 153
-0.177862 -0.044508 0.031592 76 0 153
-0.065252 -0.111101 0.437700 76 0 153
0.425986 -0.072135 0.123638 76 0 153
0.013046 -0.053679 -0.201090 76 0 153
0.425986 -0.035851 0.054341 76 0 153
-0.238501 -0.037042 -0.245286 76 0 153
-0.283953 -0.111101 -0.194608 76 0 153
-0.086559 -0.111101 0.361282 76 0 153
0.303272 0.543536 -0.362714 0 0 255
-0.042388 -0.111101 -0.192298 76 0 153
0.161252 -0.045420 -0.049137 76 0 153
-0.281234 -0.030417 0.420307 76 0 153
0.425986 -0.038507 0.300768 76 0 153
-0.286291 -0.111101 0.350837 76 0 153
0.356817 -0.014067 0.135601 76 0 153
0.215793 -0.039269 -0.169937 76 0 153
-0.343216 0.588276 -0.306204 0 0 255
-0.387476 -0.235622 0.527263 0 127 127
0.164107 -0.111101 0.323134 76 0 153
0.004731 -0.053862 0.089087 76 0 153
0.200362 -0.041106 0.398296 76 0 153
-0.132557 -0.048775 0.254436 76 0 153
-0.401721 -0.400715 -0.177999 76 0 153
0.099913 -0.111101 0.034113 76 0 153
-0.104157 -0.111101 0.060901 76 0 153
0.081124 -0.111101 0.423329 76 0 153
0.363755 -0.012357 -0.042626 76 0 153
-0.379077 -0.162796 0.518187 0 127 127
-0.386818 -0.229323 -0.199899 76 0 153
-0.157434 -0.046762 -0.344374 76 0 153
0.425986 -0.072917 0.367628 76 0 153
-0.113793 -0.050014 0.413933 76 0 153
0.012290 0.137664 -0.445944 204 51 127
0.382257 -0.154170 0.518357 76 153 0
-0.018467 -0.111101 -0.309987 76 0 153
-0.431008 0.660877 -0.226984 0 0 255
0.081438 -0.051599 -0.155941 76 0 153
-0.324402 -0.022292 -0.139501 76 0 153
-0.021642 -0.053674 0.253116 76 0 153
-0.286853 -0.057033 -0.290562 76 0 153
0.094759 -0.111101 -0.120182 76 0 153
0.004868 -0.020947 -0.376099 204 51 127
-0.005671 0.536687 -0.421920 0 0 255
0.218918 -0.111101 0.030588 76 0 153
-0.386702 -0.314415 -0.170423 76 0 153
-0.269028 -0.111101 0.495145 76 0 153
-0.376669 -0.074937 -0.226918 76 0 153
0.100713 -0.050327 -0.017328 76 0 153
-0.443706 -0.609326 0.517699 0 127 127
0.425986 -0.038702 0.183128 76 0 153
-0.265331 -0.032883 0.155707 76 0 153
0.148311 -0.111101 0.446105 76 0 153
-0.256880 0.622965 -0.393954 0 0 255
-0.187682 -0.111101 -0.061076 76 0 153
0.433963 -0.648931 -0.205370 153 0 76
0.358859 -0.013564 0.252475 76 0 153
-0.091835 -0.051463 -0.207592 76 0 153
0.219615 -0.111101 -0.272371 76 0 153
0.360119 -0.013253 0.384242 76 0 153
0.030547 -0.111101 0.247156 76 0 153
0.324724 -0.020556 -0.250882 76 0 153
-0.372514 -0.111101 0.209347 76 0 153
-0.428867 -0.196035 -0.158989 76 0 153
-0.035518 -0.053369 0.470895 76 0 153
-0.126443 -0.111101 0.499004 76 0 153
0.023433 -0.053451 -0.084339 76 0 153
-0.265286 0.499677 -0.389727 0 0 255
0.388846 -0.053852 0.496884 76 153 0
0.348588 -0.111101 0.317799 76 0 153
-0.443012 -0.620786 -0.199080 76 0 153
-0.326776 -0.111101 0.137341 76 0 153
-0.114652 -0.049957 -0.135667 76 0 153
-0.408300 0.484973 -0.267235 0 0 255
0.126992 -0.111101 -0.178175 76 0 153
0.234996 0.620135 -0.400762 0 0 255
0.299247 -0.111101 -0.200950 76 0 153
0.283456 -0.028779 -0.122811 76 0 153
-0.434329 -0.035756 0.307467 76 0 153
-0.099550 -0.050954 -0.312246 76 0 153
0.361201 -0.012987 -0.185656 76 0 153
0.445098 -0.366111 0.516814 76 153 0
-0.442537 -0.503473 0.565671 0 127 127
0.414874 -0.226586 -0.195994 153 0 76
-0.387290 -0.008612 0.197435 76 0 153
-0.089532 -0.111101 0.139128 76 0 153
0.218315 0.506988 -0.409149 0 0 255
0.149639 -0.046701 -0.127187 76 0 153
0.423934 -0.506650 0.564842 76 153 0
-0.445647 -0.484494 -0.239233 76 0 153
0.093599 -0.050796 0.086657 76 0 153
0.107571 -0.111101 -0.052730 76 0 153
0.058745 -0.052675 0.209897 76 0 153
-0.045695 -0.053145 0.132652 76 0 153
0.021559 0.265571 -0.430890 204 51 127
-0.169333 -0.045449 0.141687 76 0 153
0.423657 -0.280603 0.481855 76 153 0
0.403079 -0.312777 -0.152362 153 0 76
-0.444409 -0.655766 -0.254966 76 0 153
0.074652 -0.052047 -0.221831 76 0 153
0.381719 -0.350977 -0.201571 153 0 76
-0.447710 -0.637795 0.583068 0 127 127
-0.475794 -0.558221 -0.198250 76 0 153
0.048208 -0.111101 -0.306593 76 0 153
0.145890 0.441289 -0.429317 0 0 255
-0.000654 -0.111101 0.352279 76 0 153
-0.394940 -0.379546 0.537449 0 127 127
-0.469904 -0.542879 0.522905 0 127 127
-0.300931 -0.026995 -0.029345 76 0 153
0.421886 -0.579404 -0.243444 153 0 76
0.425986 -0.072916 0.241047 76 0 153
0.042858 -0.094909 0.502724 76 0 153
-0.063223 -0.111101 -0.131168 76 0 153
0.344422 0.492302 -0.333888 0 0 255
-0.349899 0.651488 -0.301522 0 0 255
-0.056587 -0.052906 0.070331 76 0 153
0.466286 -0.519902 -0.204105 153 0 76
0.068574 0.167262 -0.425850 204 51 127
-0.428468 0.591385 -0.229434 0 0 255
-0.208265 -0.041155 -0.118611 76 0 153
-0.359183 -0.111101 -0.108567 76 0 153
0.069258 0.371371 -0.453432 204 51 127
0.009961 -0.053747 -0.322955 76 0 153
-0.434329 -0.060498 0.496615 76 0 153
0.385427 -0.337341 0.489244 76 153 0
-0.412901 -0.140358 0.470787 0 127 127
0.087358 -0.051208 0.502377 76 0 153
-0.166324 0.442623 -0.425314 0 0 255
0.408689 0.556139 -0.274839 0 0 255
0.380026 -0.111101 0.011246 76 0 153
0.461869 -0.561089 0.517972 76 153 0
-0.155376 0.563395 -0.400038 0 0 255
-0.046033 0.418821 -0.419483 204 51 127
-0.258301 -0.111101 -0.298777 76 0 153
0.423366 0.674235 -0.226308 0 0 255
-0.404572 -0.457451 -0.201729 76 0 153
-0.408412 -0.047190 -0.144728 76 0 153
0.074264 -0.111101 -0.240213 76 0 153
0.096669 0.532703 -0.411085 0 0 255
-0.394134 -0.342762 0.486784 0 127 127
0.377210 -0.140829 -0.128921 153 0 76
-0.383418 -0.009566 0.328994 76 0 153
-0.205380 0.509893 -0.382940 0 0 255
0.297981 0.700012 -0.336773 0 0 255
0.045645 -0.067344 -0.384213 204 51 127
-0.033656 0.091684 -0.407835 204 51 127
0.280324 -0.111101 0.016146 76 0 153
0.209642 -0.042970 -0.324479 76 0 153
0.212074 -0.039814 0.088253 76 0 153
0.412944 -0.226754 0.521387 76 153 0
-0.026470 0.224457 -0.427623 204 51 127
-0.263272 -0.111101 0.032163 76 0 153
-0.125570 0.631294 -0.441310 0 0 255
-0.045025 0.570380 -0.453455 0 0 255
-0.348505 0.470943 -0.308946 0 0 255
-0.164524 -0.045980 0.481476 76 0 153
-0.316553 0.702061 -0.352037 0 0 255
-0.439294 -0.343313 -0.163602 76 0 153
0.392222 -0.076620 -0.176105 153 0 76
-0.008932 0.671973 -0.433844 0 0 255
0.032093 -0.111101 0.164797 76 0 153
0.379066 -0.111101 -0.074295 76 0 153
0.379828 0.688855 -0.268305 0 0 255
-0.205915 -0.111101 0.453904 76 0 153
0.147562 -0.111101 0.189064 76 0 153
0.372250 -0.010263 0.193396 76 0 153
0.044721 -0.111101 0.309664 76 0 153
-0.083652 -0.084456 -0.374496 204 51 127
-0.039940 0.009437 -0.412196 204 51 127
-0.286512 -0.029599 0.296158 76 0 153
-0.434329 -0.093564 -0.044987 76 0 153
0.254646 -0.111101 0.387038 76 0 153
0.278766 -0.029506 0.455413 76 0 153
-0.430405 -0.290419 -0.207669 76 0 153
-0.153510 -0.111101 -0.269293 76 0 153
0.059360 0.039953 -0.422791 204 51 127
0.290268 -0.111101 -0.077562 76 0 153
0.122871 -0.048864 -0.255817 76 0 153
-0.434329 -0.038827 0.410417 76 0 153
-0.013914 -0.053844 0.313313 76 0 153
0.041287 -0.111101 0.039294 76 0 153
0.379138 -0.008565 0.081436 76 0 153
0.367017 -0.186487 -0.191344 153 0 76
0.290693 -0.027375 0.269597 76 0 153
0.088986 -0.051101 0.372135 76 0 153
-0.404856 -0.139486 -0.132355 76 0 153
0.377196 -0.068997 -0.119784 153 0 76
0.269815 -0.030894 0.325205 76 0 153
0.360418 -0.071666 0.444460 76 153 0
0.180527 0.639738 -0.388586 0 0 255
-0.385495 0.568464 -0.270887 0 0 255
-0.079788 -0.111101 0.003364 76 0 153
0.127890 -0.111101 -0.318155 76 0 153
0.249607 -0.034027 0.177743 76 0 153
0.245518 -0.034661 -0.231330 76 0 153
-0.408301 0.688740 -0.283261 0 0 255
-0.108312 0.525594 -0.410419 0 0 255
-0.413171 -0.551267 0.531864 0 127 127
-0.143952 -0.048023 0.193790 76 0 153
-0.201548 -0.111101 -0.185451 76 0 153
0.189098 -0.111101 0.091585 76 0 153
-0.388071 -0.111101 0.321623 76 0 153
-0.434329 -0.055643 0.028452 76 0 153
0.275732 0.597846 -0.345908 0 0 255
-0.250886 -0.111101 0.221232 76 0 153
0.166825 -0.044805 0.124238 76 0 153
0.131931 0.624080 -0.438344 0 0 255
0.363581 -0.245234 -0.175962 153 0 76
0.128994 -0.111101 0.390976 76 0 153
0.249529 0.504029 -0.359082 0 0 255
-0.065417 -0.052712 -0.021138 76 0 153
-0.402857 -0.111101 0.067990 76 0 153
0.237357 -0.111101 0.257395 76 0 153
-0.295047 0.592220 -0.339947 0 0 255
0.408466 -0.462954 -0.178686 153 0 76
0.370525 -0.010688 0.023724 76 0 153
-0.255180 -0.111101 -0.077579 76 0 153
0.049604 0.574776 -0.452523 0 0 255
0.010779 -0.053729 -0.258990 76 0 153
0.068269 0.245190 -0.459921 204 51 127
0.385337 -0.111101 0.376755 76 0 153
-0.375711 -0.067474 0.442725 0 127 127
0.398003 -0.461205 0.514473 76 153 0
-0.131592 -0.048839 -0.027679 76 0 153
0.102217 0.480832 -0.444338 0 0 255
0.177084 -0.111101 -0.064007 76 0 153
-0.014260 -0.053836 0.030597 76 0 153
-0.062505 0.305417 -0.428579 204 51 127
0.381401 -0.008006 0.318400 76 0 153
-0.155225 -0.047005 0.083459 76 0 153
0.336651 -0.054121 -0.155516 153 0 76
0.040523 0.624654 -0.418805 0 0 255
-0.335806 -0.020007 0.218084 76 0 153
0.183324 -0.042985 0.248006 76 0 153
-0.037212 -0.053332 -0.073396 76 0 153
0.468705 -0.610378 -0.250117 153 0 76
0.331323 0.597233 -0.343063 0 0 255
0.467921 -0.618554 0.576620 76 153 0
-0.492011 -0.620742 -0.229059 76 0 153
-0.046179 -0.053134 -0.327490 76 0 153
-0.388521 -0.108733 0.511150 0 127 127
0.279590 -0.029379 0.019622 76 0 153
-0.139586 -0.048311 0.316521 76 0 153
0.051858 -0.052826 0.122585 76 0 153
0.251827 -0.111101 0.508808 76 0 153
-0.313432 -0.024490 0.107757 76 0 153
0.357372 -0.201287 0.495002 76 153 0
-0.455543 -0.449055 0.509145 0 127 127
-0.030565 -0.111101 0.154521 76 0 153
0.046234 -0.052950 -0.030945 76 0 153
0.396595 -0.367503 0.542444 76 153 0
0.431839 -0.387473 -0.222677 153 0 76
-0.035227 0.481012 -0.419789 0 0 255
-0.419543 -0.537200 -0.228751 76 0 153
0.177488 0.549675 -0.389625 0 0 255
0.168535 -0.111101 -0.215508 76 0 153
0.425986 0.581774 -0.224818 0 0 255
-0.155360 -0.111101 -0.155331 76 0 153
0.091532 -0.111101 0.149554 76 0 153
0.430675 -0.319832 -0.206405 153 0 76
-0.428409 -0.226023 0.492629 0 127 127
0.409864 -0.123373 0.482924 76 153 0
0.387696 -0.111101 0.263768 76 0 153
-0.398323 -0.429906 0.508142 0 127 127
0.228921 -0.037234 -0.033358 76 0 153
0.207759 -0.111101 0.447079 76 0 153
-0.434329 -0.000701 0.096462 76 0 153
-0.398129 -0.111101 0.406985 76 0 153
-0.373818 -0.284760 0.508018 0 127 127
0.167265 -0.044757 0.006598 76 0 153
-0.088138 -0.111101 0.301427 76 0 153
-0.434329 -0.047788 0.226073 76 0 153
0.418125 -0.258967 -0.152888 153 0 76
-0.152014 -0.111101 0.035292 76 0 153
-0.345089 -0.072708 0.486789 0 127 127
0.032797 0.480894 -0.419362 0 0 255
-0.061645 0.193038 -0.453595 204 51 127
-0.214994 0.552760 -0.414026 0 0 255
-0.090543 -0.111101 0.193950 76 0 153
-0.072561 -0.111101 0.495931 76 0 153
0.289895 -0.111101 0.127435 76 0 153
-0.217354 -0.111101 0.060738 76 0 153
0.352317 -0.111101 -0.191109 76 0 153
-0.028841 -0.053516 0.199941 76 0 153
-0.211124 0.647223 -0.380976 0 0 255
-0.360326 -0.155846 0.468082 0 127 127
-0.233991 -0.037742 0.051923 76 0 153
0.419426 -0.630027 0.551711 76 153 0
0.129765 0.563784 -0.438781 0 0 255
0.411270 -0.545883 0.523808 76 153 0
0.011690 -0.053709 -0.145459 76 0 153
0.212522 -0.111101 0.205340 76 0 153
0.313804 -0.111101 0.476155 76 0 153
-0.444362 -0.340625 0.503598 0 127 127
0.005745 -0.053840 0.409584 76 0 153
-0.215764 -0.111101 0.113666 76 0 153
0.195393 -0.111101 -0.161998 76 0 153
-0.485535 -0.617087 0.552383 0 127 127
0.392424 -0.111101 0.109824 76 0 153
0.262626 -0.086512 -0.299319 76 0 153
-0.363646 -0.022762 -0.174742 76 0 153
-0.313430 -0.111101 0.400447 76 0 153
-0.400204 -0.170076 -0.196125 76 0 153
-0.070480 -0.111101 -0.318268 76 0 153
-0.077457 0.111348 -0.439915 204 51 127
-0.276133 -0.111101 -0.249225 76 0 153
-0.059336 0.622892 -0.452423 0 0 255
-0.270963 0.673493 -0.352500 0 0 255
0.030702 0.424589 -0.419816 204 51 127
-0.385887 -0.223235 -0.144123 76 0 153
0.165163 -0.044989 0.453024 76 0 153
0.030943 -0.111101 -0.356088 76 0 153
-0.026579 0.366937 -0.458346 204 51 127
0.070347 -0.052331 -0.340567 76 0 153
-0.041896 -0.111101 0.388544 76 0 153
0.252560 0.454835 -0.391783 0 0 255
0.026848 0.338977 -0.460409 204 51 127
-0.042283 -0.111101 -0.244517 76 0 153
0.297517 -0.111101 0.328620 76 0 153
-0.156031 -0.046917 -0.095995 76 0 153
0.013243 -0.053675 0.490997 76 0 153
0.409052 -0.457367 -0.230441 153 0 76
0.458304 -0.674369 0.529141 76 153 0
-0.330910 -0.020988 0.432426 76 0 153
-0.380519 -0.010281 -0.121003 76 0 153
-0.373243 -0.020632 0.495271 0 127 127
0.201615 -0.059672 0.512640 76 0 153
0.312248 -0.023056 0.107526 76 0 153
0.186784 -0.042604 -0.214318 76 0 153
-0.254249 -0.034601 0.464233 76 0 153
-0.434329 -0.055383 0.139320 76 0 153
0.422029 -0.563757 -0.193349 153 0 76
0.198664 0.682113 -0.416757 0 0 255
0.096635 0.649689 -0.411092 0 0 255
-0.239996 -0.036811 0.260123 76 0 153
0.369065 0.589579 -0.278688 0 0 255
-0.428271 -0.399387 -0.228142 76 0 153
-0.193167 -0.042820 -0.278724 76 0 153
-0.434329 -0.020841 0.461391 76 0 153
-0.309660 -0.050030 0.525546 76 0 153
0.406901 -0.001720 -0.130238 76 0 153
0.271195 -0.111101 -0.158884 76 0 153
0.275953 -0.029943 0.070048 76 0 153
-0.331450 -0.111101 -0.211929 76 0 153
0.428975 -0.418094 -0.167895 153 0 76
0.421630 -0.038932 0.547754 76 0 153
0.169710 -0.044487 0.358447 76 0 153
0.323988 -0.020703 -0.075253 76 0 153
0.107504 -0.049879 0.035928 76 0 153
-0.381690 -0.009992 0.145136 76 0 153
0.254756 0.650434 -0.356454 0 0 255
0.230649 -0.036966 0.356050 76 0 153
0.267063 -0.031321 -0.074657 76 0 153
0.039813 -0.111101 0.455438 76 0 153
-0.156081 -0.111101 0.362285 76 0 153
0.048879 -0.111101 -0.091321 76 0 153
-0.289338 -0.111101 0.262991 76 0 153
-0.076889 -0.052450 0.268120 76 0 153
-0.141004 -0.111101 0.231405 76 0 153
0.441456 -0.442132 0.499327 76 153 0
-0.285108 -0.029817 -0.229135 76 0 153
0.169555 0.486713 -0.392337 0 0 255
-0.337040 -0.111101 0.084643 76 0 153
0.272374 0.690342 -0.381969 0 0 255
-0.434329 -0.037199 0.542185 76 0 153
0.026751 0.085638 -0.434962 204 51 127
-0.040979 -0.053249 -0.212827 76 0 153
-0.429800 -0.268066 0.519704 0 127 127
-0.007887 0.500601 -0.456132 0 0 255
-0.147924 -0.047761 -0.212896 76 0 153
0.374293 -0.104214 0.511422 76 153 0
0.425986 -0.041126 0.405482 76 0 153
0.423318 -0.511279 -0.181266 153 0 76
-0.385668 -0.111101 0.266367 76 0 153
-0.445112 -0.461299 -0.173748 76 0 153
-0.141914 -0.111101 0.126361 76 0 153
-0.194431 -0.111101 0.296191 76 0 153
0.425986 -0.061926 0.012815 76 0 153
0.425986 -0.065583 -0.142402 76 0 153
-0.394704 -0.006784 -0.038531 76 0 153
0.420075 0.493268 -0.263856 0 0 255
-0.005128 -0.111101 -0.035491 76 0 153
-0.073413 0.460267 -0.451408 0 0 255
-0.114987 -0.111101 0.451486 76 0 153
-0.002556 0.178604 -0.423961 204 51 127
0.464527 -0.556162 -0.239475 153 0 76
0.100221 -0.050359 0.454672 76 0 153
0.417362 -0.180489 -0.174119 153 0 76
-0.237073 -0.037264 -0.049193 76 0 153
0.081445 -0.111101 -0.010844 76 0 153
-0.216127 -0.040287 0.392491 76 0 153
-0.359135 -0.128751 -0.170497 76 0 153
-0.319157 0.509444 -0.323058 0 0 255
-0.213906 -0.040532 -0.203681 76 0 153
-0.451043 -0.388942 -0.174898 76 0 153
-0.391820 -0.007495 0.274480 76 0 153
0.372617 -0.010172 0.478437 76 0 153
0.341582 -0.068634 0.488884 76 153 0
-0.166000 -0.045817 0.418521 76 0 153
-0.310455 -0.025086 -0.185791 76 0 153
0.480886 -0.641386 -0.213676 153 0 76
-0.370549 -0.061763 -0.118773 76 0 153
0.263557 -0.111101 -0.247056 76 0 153
0.384935 -0.111101 0.163137 76 0 153
0.467057 -0.518478 0.539497 76 153 0
-0.129061 0.556575 -0.440606 0 0 255
0.158954 -0.111101 0.054266 76 0 153
0.062677 -0.052588 0.320846 76 0 153
0.326290 0.670071 -0.312216 0 0 255
0.041940 -0.111101 0.374015 76 0 153
0.425986 -0.033501 0.470637 76 0 153
0.156944 -0.045895 -0.295440 76 0 153
-0.326905 -0.057336 -0.264588 76 0 153
-0.122555 0.483335 -0.441918 0 0 255
-0.073757 0.398182 -0.455573 204 51 127
0.310575 -0.061668 -0.270274 76 0 153
-0.314250 -0.024326 0.336450 76 0 153
0.317432 -0.111101 0.170505 76 0 153
0.450312 -0.486098 -0.233338 153 0 76
0.397959 -0.422308 0.544406 76 153 0
0.026067 0.003601 -0.410708 204 51 127
-0.379803 -0.016199 -0.222298 76 0 153
-0.427809 -0.574460 -0.200708 76 0 153
0.321108 0.533292 -0.315846 0 0 255
-0.204313 -0.042637 0.512132 76 0 153
-0.377458 -0.268039 -0.171897 76 0 153
-0.086501 0.634197 -0.414818 0 0 255
-0.422096 0.534904 -0.269954 0 0 255
-0.385125 -0.009145 0.377459 76 0 153
0.327130 -0.111101 0.428459 76 0 153
0.001378 -0.111101 0.072515 76 0 153
-0.279602 -0.111101 0.145490 76 0 153
0.093756 -0.111101 -0.283208 76 0 153
0.050714 0.452216 -0.452443 0 0 255
-0.434329 -0.046276 -0.079445 76 0 153
-0.474502 -0.502218 -0.206444 76 0 153
-0.146353 0.614108 -0.402745 0 0 255
-0.057996 -0.111101 0.051797 76 0 153
0.403382 -0.002588 0.158607 76 0 153
-0.098553 -0.111101 -0.064382 76 0 153
0.425986 -0.109693 -0.159648 76 0 153
-0.442700 -0.398835 0.544444 0 127 127
-0.091442 -0.051489 0.372775 76 0 153
-0.434329 -0.108917 0.312515 76 0 153
0.204470 -0.111101 0.299567 76 0 153
-0.050420 -0.111101 0.331737 76 0 153
-0.219953 0.599401 -0.377957 0 0 255
-0.184381 -0.111101 0.148223 76 0 153
0.079685 0.622796 -0.448884 0 0 255
-0.309765 -0.111101 0.015193 76 0 153
-0.191082 0.666423 -0.422202 0 0 255
-0.168567 0.478362 -0.395527 0 0 255
-0.008821 -0.111101 -0.160029 76 0 153
0.319290 -0.021644 0.363817 76 0 153
-0.419416 -0.179714 0.502880 0 127 127
-0.313986 -0.111101 -0.074739 76 0 153
-0.259845 -0.111101 -0.155053 76 0 153
-0.200867 -0.041971 0.331822 76 0 153
0.148434 -0.097401 0.507828 76 0 153
-0.203155 -0.111101 0.407676 76 0 153
0.340741 -0.111101 -0.235919 76 0 153
0.002518 0.569444 -0.455918 0 0 255
0.004200 -0.111101 0.118941 76 0 153
-0.463948 -0.530180 -0.241547 76 0 153
-0.422199 -0.606841 0.558625 0 127 127
0.104609 -0.050070 0.204578 76 0 153
0.199307 0.593887 -0.382164 0 0 255
0.409500 -0.001079 -0.052363 76 0 153
0.487561 -0.661808 0.562188 76 153 0
-0.387843 -0.111101 0.009642 76 0 153
0.436714 -0.321019 0.499224 76 153 0
-0.431829 0.002369 0.197595 76 0 153
-0.115635 0.676033 -0.442809 0 0 255
0.214530 -0.039465 0.134029 76 0 153
-0.256767 0.466240 -0.359637 0 0 255
0.298195 -0.025871 0.496673 76 0 153
0.350591 -0.066506 0.533636 76 0 153
0.394281 -0.270083 0.533601 76 153 0
-0.337530 -0.111101 0.238721 76 0 153
-0.115734 -0.049886 0.157925 76 0 153
0.312121 -0.023081 0.408944 76 0 153
-0.404878 -0.490544 0.541759 0 127 127
0.425617 -0.629470 -0.245794 153 0 76
-0.278392 0.524840 -0.348765 0 0 255
-0.466837 -0.497340 0.524326 0 127 127
-0.018577 0.263776 -0.459815 204 51 127
-0.431094 -0.235540 -0.191297 76 0 153
0.161182 -0.045428 0.287679 76 0 153
-0.398154 -0.111101 0.169193 76 0 153
0.373625 0.527169 -0.274289 0 0 255
-0.290478 -0.028984 0.374876 76 0 153
0.396565 0.649716 -0.286534 0 0 255
-0.378734 -0.247895 0.475035 0 127 127
0.306465 -0.111101 0.220317 76 0 153
-0.078881 -0.052319 0.442525 76 0 153
-0.313307 -0.024515 -0.079864 76 0 153
-0.050169 -0.111101 -0.359279 76 0 153
-0.410844 -0.066245 -0.193328 76 0 153
-0.492217 -0.661906 -0.250892 76 0 153
-0.043823 -0.052780 -0.389533 204 51 127
-0.341810 -0.018804 0.529794 76 0 153
-0.403782 -0.111101 -0.078205 76 0 153
0.040580 0.545270 -0.418801 0 0 255
0.393582 -0.246728 0.467149 76 153 0
0.414232 -0.184139 0.507266 76 153 0
-0.229665 -0.083921 -0.320106 76 0 153
-0.434329 -0.104127 0.137369 76 0 153
-0.067469 -0.052666 -0.110712 76 0 153
-0.417824 -0.111101 0.221993 76 0 153
-0.212832 -0.040651 0.150769 76 0 153
-0.051023 0.543003 -0.418650 0 0 255
0.135881 -0.111101 0.241527 76 0 153
-0.491302 -0.660102 0.562630 0 127 127
-0.110137 -0.050255 0.068334 76 0 153
0.425986 -0.081846 0.483085 76 0 153
-0.035491 0.604215 -0.419770 0 0 255
0.015907 -0.111101 -0.201361 76 0 153
0.385574 -0.013355 0.540494 76 0 153
0.459730 -0.473098 0.538749 76 153 0
-0.282520 0.581067 -0.381062 0 0 255
-0.164825 -0.111101 0.470735 76 0 153
0.240739 -0.035402 -0.132895 76 0 153
-0.432211 -0.111101 0.503703 76 0 153
0.425986 -0.076037 -0.071986 76 0 153
-0.399257 -0.005661 0.536242 76 0 153
0.363687 -0.020458 -0.229860 76 0 153
0.093988 -0.050771 0.283469 76 0 153
0.126394 0.488310 -0.405088 0 0 255
0.379750 -0.111101 0.062792 76 0 153
-0.002183 0.406244 -0.456573 204 51 127
0.427328 -0.673465 -0.242761 153 0 76
-0.295608 -0.111101 0.307774 76 0 153
-0.343361 -0.111101 0.328299 76 0 153
-0.248711 -0.111101 -0.016100 76 0 153
0.419802 -0.606345 -0.208762 153 0 76
0.423978 -0.111101 0.010187 76 0 153
-0.117079 -0.060848 -0.354622 76 0 153
-0.320263 -0.111101 -0.156893 76 0 153
0.172209 -0.111101 -0.292170 76 0 153
0.246020 -0.034583 0.288472 76 0 153
-0.105525 -0.111101 -0.159273 76 0 153
-0.398426 -0.005866 0.055483 76 0 153
0.387568 -0.037428 0.447647 76 153 0
0.010258 -0.053741 0.219433 76 0 153
-0.442555 -0.664314 -0.210777 76 0 153
0.392297 -0.042297 -0.203059 76 0 153
-0.169494 -0.093331 -0.342395 76 0 153
0.106726 -0.049930 -0.299350 76 0 153
0.149399 -0.046728 0.199329 76 0 153
0.141574 0.587660 -0.401904 0 0 255
-0.250865 -0.035125 -0.134652 76 0 153
-0.247926 -0.035581 0.199560 76 0 153
-0.302884 -0.026604 0.188656 76 0 153
-0.390599 -0.359567 -0.185969 76 0 153
-0.029306 0.335974 -0.428110 204 51 127
0.026556 0.646553 -0.454185 0 0 255
0.380351 -0.111101 0.424038 76 0 153
-0.080685 0.486513 -0.415992 0 0 255
-0.062514 -0.064193 0.502932 76 0 153
0.354267 -0.169172 -0.153811 153 0 76
0.060574 0.214258 -0.429526 204 51 127
-0.345480 0.672567 -0.338991 0 0 255
0.262915 0.580202 -0.386725 0 0 255
-0.012390 -0.053877 -0.109682 76 0 153
-0.430542 -0.354081 0.542163 0 127 127
-0.434329 0.001720 -0.056019 76 0 153
0.218123 0.560487 -0.409246 0 0 255
0.059291 -0.052663 0.408152 76 0 153
-0.427572 -0.652286 0.546835 0 127 127
-0.373455 0.616939 -0.316874 0 0 255
0.088831 -0.111101 -0.197964 76 0 153
-0.035561 -0.053368 0.353984 76 0 153
-0.434329 -0.046211 0.181299 76 0 153
-0.029624 0.124222 -0.442896 204 51 127
-0.044811 0.049322 -0.396901 204 51 127
0.414171 -0.369902 0.483961 76 153 0
-0.081592 -0.052140 -0.165915 76 0 153
-0.434329 -0.056539 0.268067 76 0 153
0.015561 0.310539 -0.430438 204 51 127
-0.042378 -0.111101 0.250019 76 0 153
-0.219556 0.482420 -0.412466 0 0 255
0.282715 -0.028894 -0.251567 76 0 153
0.223166 -0.111101 -0.074852 76 0 153
0.072609 0.495940 -0.415938 0 0 255
-0.356220 -0.015916 0.049359 76 0 153
-0.077586 0.020245 -0.395209 204 51 127
-0.182374 -0.044011 0.245380 76 0 153
0.370132 -0.171302 0.460102 76 153 0
0.472340 -0.579368 0.560511 76 153 0
0.064005 -0.052559 0.167657 76 0 153
0.425986 0.002253 0.288509 76 0 153
-0.275957 -0.031235 0.086194 76 0 153
-0.233331 -0.095635 0.515221 76 0 153
-0.282121 -0.030280 0.016976 76 0 153
0.424731 0.002676 0.036712 76 0 153
-0.432152 0.002448 0.419600 76 0 153
-0.170447 -0.111101 -0.099724 76 0 153
-0.090845 -0.111101 0.404001 76 0 153
-0.334871 -0.111101 -0.018817 76 0 153
-0.318012 -0.111101 0.484787 76 0 153
0.397351 -0.390093 -0.169108 153 0 76
-0.321427 0.621086 -0.321467 0 0 255
0.326059 -0.020288 -0.208709 76 0 153
-0.184761 -0.043747 -0.233932 76 0 153
0.051786 0.409656 -0.454471 204 51 127
-0.383649 -0.118571 0.449791 0 127 127
0.343705 -0.111101 -0.097115 76 0 153
-0.352731 -0.111101 0.170450 76 0 153
-0.434329 -0.086469 0.399101 76 0 153
0.373235 -0.305546 0.513899 76 153 0
0.228444 -0.102971 -0.317426 76 0 153
-0.145477 -0.111101 -0.060903 76 0 153
0.284667 -0.111101 -0.025602 76 0 153
0.049799 -0.052872 0.080680 76 0 153
0.236560 -0.036050 0.508676 76 0 153
0.330439 -0.111101 0.009557 76 0 153
-0.056648 0.336799 -0.459888 204 51 127
0.423037 -0.597701 0.525255 76 153 0
0.044531 -0.111101 0.207653 76 0 153
0.138121 0.544040 -0.402723 0 0 255
-0.219079 -0.039962 -0.162155 76 0 153
-0.401957 -0.111101 0.365366 76 0 153
-0.158290 -0.111101 -0.221866 76 0 153
0.232995 -0.111101 0.138871 76 0 153
-0.350989 0.558407 -0.335132 0 0 255
0.021483 0.587586 -0.420178 0 0 255
-0.303193 0.497171 -0.368613 0 0 255
0.288799 0.505751 -0.372852 0 0 255
0.402191 -0.505436 0.526338 76 153 0
0.289549 -0.027604 0.157823 76 0 153
0.073202 -0.111101 0.248795 76 0 153
0.277608 -0.029686 0.227701 76 0 153
0.263583 -0.111101 0.221688 76 0 153
-0.057722 -0.052881 0.231400 76 0 153
0.375545 -0.282945 -0.160576 153 0 76
-0.096770 -0.051138 -0.248708 76 0 153
0.422724 -0.111101 0.394542 76 0 153
0.044687 0.134198 -0.418852 204 51 127
-0.434329 -0.085260 0.057562 76 0 153
0.390305 -0.005812 -0.092681 76 0 153
-0.235969 -0.037435 0.310688 76 0 153
-0.440889 -0.300726 -0.166213 76 0 153
0.288815 -0.111101 0.413317 76 0 153
0.184840 0.452036 -0.421483 0 0 255
-0.434329 -0.013262 -0.156391 76 0 153
-0.032723 -0.111101 0.462872 76 0 153
0.138811 -0.111101 0.148909 76 0 153
-0.362586 -0.211439 0.494165 0 127 127
0.074261 -0.111101 0.066335 76 0 153
0.104917 -0.111101 0.456777 76 0 153
-0.434329 -0.036468 0.348448 76 0 153
0.369530 0.670678 -0.312612 0 0 255
-0.402194 -0.043453 0.472976 0 127 127
-0.434329 -0.086647 -0.152713 76 0 153
0.317139 -0.022075 0.005046 76 0 153
0.373994 0.504399 -0.308306 0 0 255
0.203824 -0.111101 0.341472 76 0 153
-0.433222 0.002712 0.325174 76 0 153
0.168828 -0.044584 -0.091112 76 0 153
-0.155274 0.589828 -0.434445 0 0 255
0.171280 -0.063268 -0.338073 76 0 153
0.137867 -0.111101 -0.088193 76 0 153
0.266176 -0.111101 0.054341 76 0 153
-0.016023 0.059863 -0.427989 204 51 127
-0.434329 0.626847 -0.249056 0 0 255
0.231922 -0.036769 -0.287789 76 0 153
0.320705 -0.021361 -0.137430 76 0 153
-0.459875 -0.618284 -0.258097 76 0 153
0.386613 -0.111101 -0.034335 76 0 153
0.425986 -0.037377 -0.044402 76 0 153
0.208410 -0.111101 -0.010916 76 0 153
-0.253117 -0.034776 -0.286527 76 0 153
-0.434329 -0.001917 -0.010269 76 0 153
-0.356879 -0.132305 0.500915 0 127 127
0.126311 -0.111101 0.337793 76 0 153
0.413941 0.000016 0.197629 76 0 153
0.108988 -0.049781 -0.126313 76 0 153
0.433826 -0.294594 -0.174932 153 0 76
0.003641 0.110705 -0.413188 204 51 127
0.275720 0.619155 -0.380286 0 0 255
0.350881 -0.153948 0.491121 76 153 0
-0.041695 0.644133 -0.419322 0 0 255
-0.089841 0.561870 -0.448518 0 0 255
0.423214 -0.111101 0.135877 76 0 153
0.089311 -0.111101 0.105207 76 0 153
0.082909 0.545414 -0.448233 0 0 255
0.259469 0.537146 -0.388457 0 0 255
-0.356339 -0.074433 0.533209 76 0 153
0.314396 0.469146 -0.320548 0 0 255
-0.476521 -0.581873 0.529894 0 127 127
0.401061 -0.003160 0.393710 76 0 153
-0.041073 -0.111101 -0.012401 76 0 153
0.106389 0.671248 -0.443496 0 0 255
0.190466 -0.042198 0.041095 76 0 153
-0.371088 -0.111101 -0.206211 76 0 153
0.333484 -0.111101 0.264449 76 0 153
0.032351 -0.111101 0.000285 76 0 153
0.284489 -0.111101 -0.119555 76 0 153
0.425986 -0.074775 0.072279 76 0 153
0.370279 -0.010749 0.423419 76 0 153
0.134111 -0.048122 0.101602 76 0 153
0.384905 -0.111101 0.334372 76 0 153
0.303783 -0.111101 0.090014 76 0 153
0.124345 -0.089561 -0.351552 76 0 153
0.306421 0.568928 -0.326135 0 0 255
0.438247 -0.402526 0.495829 76 153 0
-0.434329 -0.068109 -0.011201 76 0 153
-0.034421 -0.014295 -0.377347 204 51 127
-0.043703 0.266693 -0.429039 204 51 127
0.267758 0.556072 -0.349917 0 0 255
0.425986 -0.089102 0.277474 76 0 153
0.432889 -0.389549 0.546499 76 153 0
-0.208845 -0.041090 -0.018868 76 0 153
-0.300221 -0.027137 -0.268070 76 0 153
-0.402588 0.656646 -0.254398 0 0 255
0.389264 -0.061684 0.541237 76 0 153
0.411437 -0.469938 0.556433 76 153 0
-0.389315 0.659123 -0.301575 0 0 255
0.031535 0.291232 -0.461175 204 51 127
0.141338 -0.111101 0.285102 76 0 153
-0.100078 -0.050919 0.231085 76 0 153
-0.022344 -0.053658 -0.295867 76 0 153
-0.171348 0.526412 -0.394576 0 0 255
-0.172498 -0.111101 -0.021994 76 0 153
-0.140788 -0.048232 0.010799 76 0 153
0.321250 -0.021252 0.242942 76 0 153
-0.412579 -0.495960 -0.220878 76 0 153
-0.228932 -0.111101 0.254074 76 0 153
0.237708 -0.035872 0.058463 76 0 153
-0.248289 0.535792 -0.398273 0 0 255
-0.200216 -0.111101 -0.272620 76 0 153
-0.053248 -0.052979 0.016370 76 0 153
-0.236350 -0.111101 0.332233 76 0 153
-0.407796 -0.088023 0.470149 0 127 127
-0.111989 -0.050133 0.288588 76 0 153
0.425986 -0.032127 0.340660 76 0 153
-0.484349 -0.582465 -0.233174 76 0 153
-0.384607 0.523408 -0.271743 0 0 255
0.026364 -0.053387 0.306054 76 0 153
-0.183568 -0.111101 0.190430 76 0 153
-0.245296 0.578685 -0.399778 0 0 255
0.339149 -0.027910 0.488544 76 153 0
-0.372230 -0.012324 0.233414 76 0 153
-0.465132 -0.535265 0.561023 0 127 127
-0.336658 0.593909 -0.345171 0 0 255
0.261515 -0.111101 0.294383 76 0 153
0.119348 -0.111101 -0.225939 76 0 153
-0.392287 -0.281529 -0.205447 76 0 153
-0.210676 -0.040889 -0.079617 76 0 153
-0.398795 -0.092407 -0.126229 76 0 153
-0.116202 -0.111101 0.019697 76 0 153
-0.123486 -0.049374 -0.182480 76 0 153
-0.434329 0.492462 -0.239142 0 0 255
0.397484 -0.350576 -0.160279 153 0 76
-0.293198 -0.111101 0.061767 76 0 153
0.049852 -0.052870 -0.178742 76 0 153
0.134913 0.641004 -0.403370 0 0 255
-0.426946 -0.313395 0.481804 0 127 127
0.237745 0.662985 -0.399380 0 0 255
0.410206 -0.145277 -0.149123 153 0 76
0.425986 -0.037201 0.093252 76 0 153
-0.438351 -0.438623 -0.233031 76 0 153
-0.311729 -0.024831 0.254796 76 0 153
0.387311 -0.299051 0.478186 76 153 0
-0.295400 -0.103513 -0.285850 76 0 153
0.425986 -0.110809 0.232232 76 0 153
0.011639 -0.058045 -0.366650 76 0 153
-0.293805 -0.100016 0.522962 76 0 153
-0.272695 0.621761 -0.351629 0 0 255
-0.452787 -0.360053 -0.200712 76 0 153
-0.385869 0.479443 -0.303040 0 0 255
0.425986 -0.036017 0.252874 76 0 153
-0.154960 -0.047035 -0.301044 76 0 153
-0.324445 -0.022283 0.021806 76 0 153
0.352821 -0.014926 0.345622 76 0 153
-0.401833 -0.005026 -0.085899 76 0 153
0.396635 0.595161 -0.252093 0 0 255
0.046146 -0.030118 -0.373611 204 51 127
0.011553 -0.111101 0.280852 76 0 153
-0.027174 0.384713 -0.424016 204 51 127
-0.061700 -0.111101 -0.092548 76 0 153
0.388685 0.719715 -0.289797 0 0 255
0.355331 -0.111101 0.094335 76 0 153
0.338911 0.600114 -0.303375 0 0 255
-0.194703 0.683275 -0.387699 0 0 255
-0.028703 0.169354 -0.450737 204 51 127
0.068505 0.073923 -0.407036 204 51 127
-0.082807 -0.111101 0.092983 76 0 153
-0.084659 -0.111101 -0.202380 76 0 153
-0.130924 -0.111101 0.088584 76 0 153
-0.093596 0.605978 -0.447760 0 0 255
-0.238920 -0.111101 -0.194261 76 0 153
0.443003 -0.523463 -0.244346 153 0 76
0.109353 0.443168 -0.442898 0 0 255
-0.000300 -0.053973 0.447462 76 0 153
0.197950 -0.041372 -0.136052 76 0 153
0.240121 0.611234 -0.363812 0 0 255
0.174242 -0.111101 0.477270 76 0 153
0.186974 0.529430 -0.420754 0 0 255
0.016296 -0.111101 -0.071201 76 0 153
-0.356584 -0.027891 0.459975 0 127 127
0.035549 0.168880 -0.451424 204 51 127
0.025158 -0.111101 -0.142421 76 0 153
0.395889 -0.040373 -0.136920 153 0 76
0.382378 -0.201164 0.523913 76 153 0
-0.004861 -0.054043 0.129234 76 0 153
-0.381943 -0.068052 0.505664 0 127 127
0.306114 -0.054873 0.526349 76 0 153
0.414198 -0.352602 -0.221463 153 0 76
-0.168072 0.644568 -0.395697 0 0 255
0.417701 0.691907 -0.266146 0 0 255
0.075108 -0.052017 0.244208 76 0 153
0.218716 -0.038816 0.199377 76 0 153
0.123237 -0.111101 0.068723 76 0 153
0.422235 -0.226557 0.484582 76 153 0
-0.428312 -0.614219 -0.233446 76 0 153
-0.129482 -0.111101 -0.298638 76 0 153
0.166092 -0.111101 0.361687 76 0 153
0.425986 -0.078141 0.326015 76 0 153
-0.352429 -0.016676 -0.028531 76 0 153
0.445528 -0.470819 -0.179332 153 0 76
0.411648 -0.159999 0.473378 76 153 0
0.031333 0.669972 -0.419468 0 0 255
-0.404776 -0.379087 0.488417 0 127 127
0.005999 -0.111101 0.472437 76 0 153
-0.197098 -0.042386 0.075060 76 0 153
-0.350758 -0.111101 0.410840 76 0 153
-0.328785 0.699758 -0.316313 0 0 255
0.082169 -0.111101 0.314762 76 0 153
-0.474272 -0.599669 -0.196974 76 0 153
0.370519 -0.111101 -0.151251 76 0 153
-0.286540 -0.029595 -0.120419 76 0 153
-0.401894 -0.177081 -0.134454 76 0 153
0.100373 -0.050349 -0.191387 76 0 153
0.462419 -0.673696 -0.205831 153 0 76
-0.225517 -0.111101 -0.054271 76 0 153
0.059559 0.274490 -0.432116 204 51 127
0.400281 0.654424 -0.248576 0 0 255
0.374809 -0.317306 -0.176887 153 0 76
0.187218 -0.111101 -0.253166 76 0 153
0.094688 -0.111101 -0.158830 76 0 153
0.425986 -0.037025 0.510406 76 0 153
-0.130894 -0.048885 -0.068085 76 0 153
0.337689 0.634027 -0.338604 0 0 255
-0.420176 -0.433268 -0.171334 76 0 153
0.014615 -0.111101 -0.289787 76 0 153
-0.059263 0.285378 -0.460161 204 51 127
0.007430 -0.111101 0.193103 76 0 153
-0.121815 -0.111101 0.346961 76 0 153
0.051378 -0.052837 -0.109391 76 0 153
0.193197 -0.041896 -0.022843 76 0 153
0.019392 -0.053540 0.054050 76 0 153
-0.434329 -0.052727 -0.118168 76 0 153
-0.136733 -0.048500 0.443569 76 0 153
-0.188645 0.576425 -0.388662 0 0 255
0.389453 -0.111101 0.200357 76 0 153
0.451160 -0.406761 -0.197032 153 0 76
0.345797 0.479978 -0.298551 0 0 255
-0.122997 -0.049406 0.352745 76 0 153
0.163248 -0.045200 0.395694 76 0 153
-0.404412 -0.004390 0.482403 76 0 153
-0.131920 0.439587 -0.439684 0 0 255
0.116020 0.522897 -0.441553 0 0 255
0.219136 0.520681 -0.374363 0 0 255
0.014380 0.228229 -0.429251 204 51 127
0.415589 -0.111101 -0.064658 76 0 153
-0.121114 0.652140 -0.407837 0 0 255
0.227760 -0.111101 0.412890 76 0 153
-0.197714 -0.064278 -0.331976 76 0 153
-0.281061 0.542239 -0.381796 0 0 255
-0.288969 0.696708 -0.376442 0 0 255
-0.388015 -0.198571 0.523814 0 127 127
0.177688 0.651029 -0.423928 0 0 255
0.043405 0.349108 -0.428669 204 51 127
-0.377674 0.571481 -0.312804 0 0 255
-0.354821 0.505007 -0.332447 0 0 255
-0.037303 0.524996 -0.454012 0 0 255
0.412735 -0.000282 0.480582 76 0 153
-0.175827 0.543036 -0.427417 0 0 255
0.036811 0.610929 -0.453446 0 0 255
0.017937 0.528309 -0.454806 0 0 255
-0.253761 0.453728 -0.394389 0 0 255
-0.030879 0.648665 -0.454475 0 0 255
-0.282550 -0.030213 0.508250 76 0 153
-0.064581 -0.111101 0.220261 76 0 153
-0.434329 -0.000608 0.547398 76 0 153
0.252453 -0.033586 -0.005092 76 0 153
-0.401910 0.720918 -0.262805 0 0 255
-0.128368 0.491491 -0.406373 0 0 255
-0.356639 -0.106034 -0.242973 76 0 153
-0.138523 -0.111101 0.268234 76 0 153
-0.434329 -0.099502 0.100754 76 0 153
0.303685 0.616533 -0.328051 0 0 255
-0.400430 -0.316810 -0.212554 76 0 153
-0.375490 -0.057161 -0.180869 76 0 153
-0.038323 0.436464 -0.453938 0 0 255
0.201310 0.621037 -0.415852 0 0 255
0.074745 -0.052041 -0.058615 76 0 153
-0.382148 -0.333918 0.520422 0 127 127
-0.139271 -0.077471 0.506592 76 0 153
-0.405894 -0.466544 0.510136 0 127 127
-0.278914 -0.111101 0.459739 76 0 153
0.229442 -0.037153 0.431568 76 0 153
-0.073437 -0.052535 -0.286282 76 0 153
0.254784 -0.033224 -0.168662 76 0 153
-0.020572 -0.111101 -0.069839 76 0 153
-0.004449 -0.111101 -0.346611 76 0 153
-0.005407 0.430007 -0.422064 204 51 127
0.248721 0.492730 -0.393861 0 0 255
-0.469118 -0.466461 -0.211953 76 0 153
-0.407025 -0.140069 0.507471 0 127 127
-0.405132 -0.111101 -0.022549 76 0 153
-0.282144 0.653970 -0.381251 0 0 255
0.158879 -0.111101 -0.160400 76 0 153
-0.173607 -0.044978 -0.133856 76 0 153
-0.457329 -0.473515 0.550990 0 127 127
0.120915 -0.048993 -0.057915 76 0 153
-0.061120 0.452682 -0.417922 0 0 255
0.162092 -0.045328 -0.248768 76 0 153
-0.406594 -0.077584 0.543047 76 0 153
0.460242 -0.544498 0.564070 76 153 0
0.419414 -0.213165 -0.156887 153 0 76
0.289036 -0.111101 0.366106 76 0 153
-0.100108 -0.081588 0.504463 76 0 153
0.291919 -0.088289 0.524023 76 0 153
-0.339829 -0.019201 -0.104190 76 0 153
0.127736 -0.111101 -0.135508 76 0 153
0.368510 -0.011185 -0.150089 76 0 153
0.063290 0.392032 -0.424143 204 51 127
-0.423534 -0.148313 -0.162226 76 0 153
0.015807 -0.053619 0.010277 76 0 153
0.403697 -0.002510 -0.189571 76 0 153
0.225211 -0.087346 0.515255 76 0 153
-0.076494 0.219120 -0.433306 204 51 127
-0.014348 -0.075221 0.502059 76 0 153
-0.429067 0.698013 -0.228856 0 0 255
0.062292 -0.111101 -0.139017 76 0 153
-0.373420 0.631650 -0.282535 0 0 255
0.351451 -0.015200 -0.006654 76 0 153
0.049354 -0.052881 0.492395 76 0 153
0.425986 -0.075636 0.173906 76 0 153
0.169713 -0.044487 -0.158356 76 0 153
0.399407 0.522988 -0.249420 0 0 255
0.073160 -0.111101 0.473851 76 0 153
-0.242961 -0.036351 0.416214 76 0 153
0.322448 -0.021012 0.144862 76 0 153
-0.081165 -0.052168 0.138517 76 0 153
0.424978 0.623555 -0.224754 0 0 255
-0.173893 -0.044946 -0.004112 76 0 153
-0.333676 0.478814 -0.347260 0 0 255
-0.243740 -0.111101 0.396047 76 0 153
0.134461 -0.111101 0.021057 76 0 153
0.425986 -0.038288 0.135392 76 0 153
-0.433966 -0.052140 -0.169911 76 0 153
-0.013625 0.289862 -0.429923 204 51 127
-0.365175 0.685177 -0.290488 0 0 255
0.346581 -0.082131 -0.132742 153 0 76
-0.053018 -0.052984 0.294719 76 0 153
-0.434329 -0.053655 0.443617 76 0 153
0.180757 -0.111101 0.022258 76 0 153
0.084199 -0.111101 -0.324609 76 0 153
0.394577 -0.004758 0.258537 76 0 153
-0.200264 -0.042037 0.476667 76 0 153
0.393525 -0.107746 0.542102 76 0 153
-0.078075 -0.052372 -0.353391 76 0 153
0.355448 -0.111101 0.354498 76 0 153
0.388019 -0.006375 0.120111 76 0 153
-0.187676 -0.111101 0.034936 76 0 153
-0.229924 -0.111101 0.483270 76 0 153
0.386324 -0.245413 -0.144148 153 0 76
0.093710 0.579303 -0.446054 0 0 255
0.396549 -0.090726 0.456492 76 153 0
-0.004171 0.636284 -0.425086 0 0 255
0.341619 -0.017170 0.210150 76 0 153
0.115195 0.451045 -0.407348 0 0 255
-0.404514 -0.004365 0.118435 76 0 153
-0.354050 0.547105 -0.298614 0 0 255
0.420621 -0.111101 0.344839 76 0 153
0.175896 0.676042 -0.390169 0 0 255
0.326001 -0.020300 0.278135 76 0 153
0.027707 0.377923 -0.457777 204 51 127
-0.207378 0.447152 -0.416126 0 0 255
0.021434 0.480610 -0.454554 0 0 255
0.395194 -0.320908 -0.214842 153 0 76
-0.003522 -0.111101 0.237153 76 0 153
-0.400980 -0.381943 -0.213603 76 0 153
-0.282134 -0.030278 0.123427 76 0 153
0.279483 -0.111101 0.485131 76 0 153
-0.176496 -0.067040 0.509615 76 0 153
-0.177370 -0.111101 0.327275 76 0 153
-0.111042 -0.111101 -0.232723 76 0 153
0.142914 -0.111101 -0.050090 76 0 153
-0.240427 0.655235 -0.402226 0 0 255
0.425986 -0.098272 0.099719 76 0 153
-0.455349 -0.669799 0.569951 0 127 127
0.236546 -0.111101 0.476853 76 0 153
0.380629 0.624436 -0.267533 0 0 255
-0.434329 -0.003792 0.281449 76 0 153
0.249336 0.468223 -0.359179 0 0 255
-0.070409 0.159146 -0.448842 204 51 127
-0.159686 0.654298 -0.432936 0 0 255
0.043071 -0.053019 -0.244692 76 0 153
0.041087 -0.111101 0.409825 76 0 153
0.344778 -0.016537 0.080320 76 0 153
0.293639 0.578444 -0.369461 0 0 255
0.136945 -0.047935 0.372351 76 0 153
-0.370028 -0.134229 -0.134153 76 0 153
0.208645 -0.111101 -0.115744 76 0 153
-0.414710 -0.522695 0.555725 0 127 127
0.304019 0.501993 -0.327817 0 0 255
-0.246526 0.515960 -0.364787 0 0 255
0.416096 -0.264227 -0.204460 153 0 76
-0.045328 0.482754 -0.453433 0 0 255
0.000399 -0.111101 0.317160 76 0 153
0.114581 -0.111101 0.176998 76 0 153
0.230705 -0.111101 0.174147 76 0 153
-0.036887 -0.053339 0.435812 76 0 153
0.070885 0.192496 -0.455066 204 51 127
0.299461 -0.111101 -0.236033 76 0 153
-0.062771 -0.111101 0.168307 76 0 153
0.211434 -0.039885 0.268666 76 0 153
-0.413504 -0.182552 0.468479 0 127 127
-0.106223 0.522502 -0.445213 0 0 255
0.428573 -0.285650 0.521737 76 153 0
-0.299960 0.611328 -0.370878 0 0 255
-0.274573 -0.031450 0.328971 76 0 153
0.212790 0.472558 -0.406631 0 0 255
0.047202 0.027226 -0.392594 204 51 127
-0.141738 0.454820 -0.403676 0 0 255
-0.287769 -0.029404 0.473737 76 0 153
0.101215 -0.057335 -0.356064 76 0 153
-0.024983 -0.111101 -0.274822 76 0 153
-0.431715 0.567125 -0.260675 0 0 255
0.234009 -0.111101 -0.170739 76 0 153
0.042071 -0.111101 -0.226832 76 0 153
0.417153 0.000807 0.328770 76 0 153
-0.402399 -0.004887 0.016626 76 0 153
0.401449 -0.090154 -0.139869 153 0 76
0.426978 -0.348678 0.540886 76 153 0
0.000502 -0.053955 0.279955 76 0 153
0.032631 0.066721 -0.403783 204 51 127
0.331372 0.685276 -0.343030 0 0 255
0.212837 0.646067 -0.377531 0 0 255
-0.038629 0.399364 -0.455566 204 51 127
0.419443 -0.418903 -0.230599 153 0 76
0.224235 -0.111101 0.370328 76 0 153
0.347280 -0.111101 0.485201 76 0 153
-0.223568 -0.111101 -0.158663 76 0 153
0.469745 -0.554388 -0.205244 153 0 76
-0.402127 -0.281761 0.535473 0 127 127
-0.317544 0.658347 -0.324187 0 0 255
-0.041089 0.193209 -0.424422 204 51 127
0.341110 -0.053526 -0.248410 76 0 153
0.166590 -0.044831 0.323956 76 0 153
-0.094507 0.674638 -0.415415 0 0 255
0.400552 -0.494170 -0.200945 153 0 76
-0.396842 -0.111101 -0.155294 76 0 153
-0.404631 -0.286446 -0.149366 76 0 153
-0.415508 -0.368252 -0.160707 76 0 153
-0.447479 -0.543604 -0.183874 76 0 153
0.002189 0.496801 -0.421569 0 0 255
0.207570 -0.040311 -0.060336 76 0 153
-0.029797 -0.053495 -0.180148 76 0 153
0.148892 0.477010 -0.433774 0 0 255
-0.113856 -0.111101 0.166720 76 0 153
-0.406544 -0.427398 -0.218500 76 0 153
-0.434329 -0.023466 0.052940 76 0 153
0.387185 -0.086287 -0.208840 76 0 153
-0.250320 0.593384 -0.362879 0 0 255
-0.271068 -0.031993 -0.050644 76 0 153
-0.113181 -0.050054 -0.101279 76 0 153
-0.320673 0.548774 -0.321995 0 0 255
-0.011577 -0.053895 0.378642 76 0 153
-0.347883 -0.017587 0.338936 76 0 153
-0.215723 -0.040332 0.018089 76 0 153
0.452693 -0.620749 -0.194741 153 0 76
-0.259086 -0.073657 -0.305578 76 0 153
0.181695 -0.111101 0.185148 76 0 153
-0.004499 0.229772 -0.457837 204 51 127
-0.440926 -0.555563 0.509670 0 127 127
0.079467 -0.084539 0.503792 76 0 153
-0.393800 0.597571 -0.297248 0 0 255
-0.218093 -0.040070 0.230563 76 0 153
0.337285 0.557679 -0.338887 0 0 255
-0.007256 0.019014 -0.414988 204 51 127
-0.118657 0.560768 -0.408332 0 0 255
-0.469974 -0.641722 -0.198168 76 0 153
-0.355680 0.504940 -0.297473 0 0 255
-0.283717 0.464267 -0.380460 0 0 255
-0.408107 -0.408772 0.549112 0 127 127
0.066132 -0.111101 0.177287 76 0 153
0.048853 -0.052892 -0.143388 76 0 153
0.151322 0.454950 -0.398571 0 0 255
-0.258370 -0.033962 0.385159 76 0 153
0.343712 -0.086381 -0.166427 153 0 76
0.381245 -0.363898 0.510151 76 153 0
0.044302 -0.111101 -0.262464 76 0 153
0.386215 -0.006820 0.352035 76 0 153
0.243287 -0.111101 0.006885 76 0 153
0.373316 0.604426 -0.308960 0 0 255
-0.206471 -0.111101 -0.089388 76 0 153
-0.207877 0.514813 -0.416459 0 0 255
0.126385 -0.048632 -0.164806 76 0 153
0.433657 -0.333542 -0.168178 153 0 76
0.382201 -0.232875 -0.202705 153 0 76
0.227709 -0.037422 -0.201653 76 0 153
0.409381 0.553940 -0.239798 0 0 255
0.161238 0.555229 -0.429553 0 0 255
0.066790 0.482032 -0.451284 0 0 255
-0.249170 -0.035388 -0.206442 76 0 153
-0.178958 -0.111101 0.431359 76 0 153
-0.434329 -0.080000 -0.076552 76 0 153
0.277167 0.673137 -0.345186 0 0 255
0.416617 -0.539576 0.562234 76 153 0
0.116220 -0.049303 0.484455 76 0 153
0.206023 -0.111101 0.062308 76 0 153
-0.344941 -0.048189 -0.146598 76 0 153
0.181608 -0.111101 0.424608 76 0 153
0.328266 -0.087765 -0.258130 76 0 153
-0.406905 0.607153 -0.250235 0 0 255
0.117807 -0.080331 0.505871 76 0 153
-0.190928 0.613509 -0.387882 0 0 255
-0.186892 0.482113 -0.423634 0 0 255
0.067652 0.141176 -0.447263 204 51 127
-0.020092 -0.053708 0.164821 76 0 153
-0.154454 -0.047090 0.225842 76 0 153
-0.370284 -0.158280 -0.185296 76 0 153
0.095183 -0.050692 0.414176 76 0 153
-0.254046 -0.111101 0.122980 76 0 153
-0.394223 -0.303626 0.477903 0 127 127
0.031820 0.251838 -0.459923 204 51 127
-0.128807 -0.111101 0.382105 76 0 153
-0.362076 -0.111101 0.108742 76 0 153
0.425986 -0.030021 -0.119316 76 0 153
-0.455446 -0.429294 0.537754 0 127 127
0.054981 -0.052758 0.001888 76 0 153
-0.074472 0.178524 -0.421595 204 51 127
