ply
format ascii 1.0
element vertex 1266
property float x
property float y
property float z
property uchar red
property uchar green
property uchar blue
end_header
-0.287986 -0.029370 -0.029126 76 0 153
-0.023238 0.538443 -0.420653 0 0 255
0.059183 -0.111101 0.358927 76 0 153
-0.446804 -0.368853 0.529097 0 127 127
-0.349621 0.471166 -0.335366 0 0 255
0.450258 -0.671883 0.555834 76 153 0
-0.261014 -0.033552 -0.000021 76 0 153
-0.343424 -0.051516 -0.252932 76 0 153
0.425986 -0.077650 0.432505 76 0 153
-0.260303 -0.111101 0.075557 76 0 153
0.403726 -0.199498 0.464487 76 153 0
-0.321103 -0.022953 0.316011 76 0 153
-0.022394 -0.111101 0.210256 76 0 153
-0.423607 -0.217566 0.511247 0 127 127
0.024721 -0.111101 -0.281766 76 0 153
0.011074 -0.111101 0.060355 76 0 153
0.035388 0.597562 -0.453548 0 0 255
-0.357581 0.622953 -0.330514 0 0 255
0.423151 -0.111101 0.469980 76 0 153
0.097913 -0.111101 -0.145374 76 0 153
-0.138086 -0.111101 0.422571 76 0 153
-0.002508 -0.054021 -0.055874 76 0 153
0.110625 -0.111101 0.266934 76 0 153
0.310472 -0.111101 -0.233447 76 0 153
-0.392203 -0.033599 -0.210900 76 0 153
-0.169633 -0.045416 0.436822 76 0 153
0.225789 -0.037720 0.419684 76 0 153
0.249813 -0.111101 0.359327 76 0 153
0.391836 -0.005434 0.436241 76 0 153
-0.063912 0.134481 -0.444440 204 51 127
0.070549 -0.111101 -0.043405 76 0 153
-0.011219 -0.053903 -0.306927 76 0 153
0.425986 -0.026363 0.180690 76 0 153
-0.369254 0.637304 -0.286554 0 0 255
-0.390108 -0.321584 0.484619 0 127 127
0.211201 -0.087570 0.513510 76 0 153
-0.417598 -0.114644 -0.149833 76 0 153
-0.103162 -0.050716 -0.275624 76 0 153
0.014083 -0.111101 0.098956 76 0 153
0.207739 -0.040292 -0.266160 76 0 153
0.224413 0.601109 -0.406083 0 0 255
0.049137 -0.052886 0.165981 76 0 153
-0.356220 -0.015916 -0.042547 76 0 153
0.403929 -0.002453 0.103922 76 0 153
-0.165114 -0.045915 -0.263963 76 0 153
-0.426970 -0.385251 0.486916 0 127 127
-0.191952 -0.042954 -0.020967 76 0 153
0.425986 -0.076772 0.200898 76 0 153
0.156228 0.658426 -0.431266 0 0 255
0.423274 -0.111101 0.391239 76 0 153
-0.308181 -0.025542 0.045359 76 0 153
0.315527 0.592762 -0.354129 0 0 255
-0.166580 -0.111101 0.213929 76 0 153
0.284166 -0.111101 0.035801 76 0 153
-0.076349 0.189799 -0.452976 204 51 127
0.172060 -0.044228 -0.207054 76 0 153
-0.158933 -0.046596 0.402436 76 0 153
-0.346130 0.686601 -0.338536 0 0 255
-0.182454 0.532158 -0.425151 0 0 255
0.007232 -0.111101 0.269692 76 0 153
0.181931 0.575123 -0.388105 0 0 255
-0.318244 0.668863 -0.358070 0 0 255
-0.101811 -0.111101 -0.267151 76 0 153
0.288213 -0.027871 -0.097735 76 0 153
0.327852 -0.058251 -0.258173 76 0 153
0.237201 0.452454 -0.397408 0 0 255
0.454658 -0.603087 -0.255244 153 0 76
-0.104218 -0.050646 0.309729 76 0 153
-0.024168 0.657770 -0.420586 0 0 255
0.270310 0.687694 -0.348633 0 0 255
-0.356055 -0.081219 -0.243415 76 0 153
-0.421680 -0.183633 0.499128 0 127 127
0.425986 -0.036964 0.301853 76 0 153
0.387876 -0.006410 0.285578 76 0 153
0.444496 -0.368806 0.508126 76 153 0
-0.219821 -0.111101 0.234731 76 0 153
-0.024359 0.472744 -0.420572 0 0 255
0.301853 -0.111101 -0.200435 76 0 153
-0.280966 0.586272 -0.347471 0 0 255
0.274824 -0.030118 -0.262180 76 0 153
0.269616 0.458187 -0.348983 0 0 255
-0.159933 0.679178 -0.398479 0 0 255
0.061821 0.159306 -0.423426 204 51 127
-0.248585 -0.062025 -0.310410 76 0 153
0.384000 0.494748 -0.298654 0 0 255
-0.444413 -0.364403 -0.168040 76 0 153
0.387385 -0.292605 0.533298 76 153 0
0.148769 -0.111101 0.182606 76 0 153
0.129017 0.501436 -0.438932 0 0 255
0.042005 0.500352 -0.418698 0 0 255
-0.342170 -0.050308 0.458528 0 127 127
0.425986 -0.025407 0.056249 76 0 153
-0.437191 -0.639124 0.527418 0 127 127
0.425986 -0.110115 0.231285 76 0 153
-0.361788 -0.111101 0.211031 76 0 153
-0.434329 -0.109643 -0.078628 76 0 153
-0.285134 -0.111101 0.442872 76 0 153
-0.010690 -0.111101 0.458885 76 0 153
-0.450146 -0.636434 0.583589 0 127 127
0.397600 -0.039826 -0.145513 153 0 76
-0.259279 0.668839 -0.392747 0 0 255
-0.413492 -0.488706 0.555423 0 127 127
0.183018 -0.111101 0.438054 76 0 153
0.352352 -0.015020 0.264922 76 0 153
-0.439756 -0.335073 0.528603 0 127 127
-0.305351 0.646263 -0.332729 0 0 255
0.012905 0.126432 -0.443821 204 51 127
-0.203462 0.668033 -0.417969 0 0 255
0.253510 -0.033422 -0.061675 76 0 153
0.417252 -0.607964 -0.231682 153 0 76
0.335545 0.703824 -0.305733 0 0 255
-0.030257 -0.053485 0.215437 76 0 153
-0.335291 -0.020110 0.069388 76 0 153
0.425986 -0.082224 0.308331 76 0 153
-0.293271 -0.028530 -0.197327 76 0 153
-0.087084 -0.051778 0.385637 76 0 153
-0.387637 -0.276230 -0.155975 76 0 153
-0.039160 -0.111101 0.502139 76 0 153
-0.383545 -0.111101 0.038549 76 0 153
-0.255293 0.621511 -0.394751 0 0 255
-0.003152 0.671890 -0.455880 0 0 255
-0.424316 -0.577968 -0.208347 76 0 153
0.391268 -0.094796 -0.128149 153 0 76
0.409890 -0.517253 0.516166 76 153 0
0.229830 -0.037093 0.275816 76 0 153
-0.262154 0.556249 -0.391302 0 0 255
-0.417625 -0.111101 0.252641 76 0 153
-0.250707 -0.111101 -0.280014 76 0 153
-0.358081 -0.163942 0.475654 0 127 127
0.193792 -0.041831 0.218014 76 0 153
-0.430797 -0.335974 -0.217110 76 0 153
-0.410667 -0.060265 -0.150709 76 0 153
0.336961 -0.018103 0.327262 76 0 153
-0.061042 -0.052808 -0.089535 76 0 153
-0.075930 0.041775 -0.422011 204 51 127
0.313695 0.571141 -0.321039 0 0 255
-0.412178 -0.550127 0.537613 0 127 127
0.401782 -0.002982 0.483723 76 0 153
0.072041 -0.052220 0.229047 76 0 153
-0.026451 -0.111101 0.033233 76 0 153
0.398707 -0.111101 0.021020 76 0 153
-0.142654 -0.048109 -0.325883 76 0 153
-0.386689 -0.008760 0.318663 76 0 153
0.068477 0.213491 -0.430519 204 51 127
-0.072694 -0.111101 0.118513 76 0 153
0.097570 0.599708 -0.410903 0 0 255
0.358556 -0.210297 0.492210 76 153 0
-0.340524 0.556508 -0.342463 0 0 255
0.176403 -0.111101 -0.006486 76 0 153
-0.070105 -0.052609 0.069248 76 0 153
-0.434329 -0.053459 0.027593 76 0 153
0.477577 -0.589373 0.544946 76 153 0
0.399230 -0.003611 0.397251 76 0 153
0.267815 -0.031204 0.193203 76 0 153
0.321738 -0.021154 0.160933 76 0 153
0.366263 0.551097 -0.281391 0 0 255
-0.101266 -0.111101 0.419695 76 0 153
0.106714 -0.111101 -0.029235 76 0 153
0.258659 0.576387 -0.354492 0 0 255
-0.431946 -0.603231 0.572468 0 127 127
-0.050211 -0.053046 0.357768 76 0 153
0.380413 0.708016 -0.267742 0 0 255
0.062957 -0.052583 0.416704 76 0 153
0.206782 0.487357 -0.379608 0 0 255
-0.158667 0.616516 -0.433285 0 0 255
-0.410299 0.485465 -0.267743 0 0 255
0.011701 0.214137 -0.456686 204 51 127
-0.413572 0.552210 -0.243803 0 0 255
-0.076627 0.213568 -0.427221 204 51 127
0.413903 -0.223980 -0.148749 153 0 76
0.281348 0.548970 -0.343084 0 0 255
0.439278 -0.348591 -0.175822 153 0 76
-0.129245 -0.111101 -0.248170 76 0 153
-0.037230 -0.053331 0.470496 76 0 153
-0.116094 -0.111101 0.484265 76 0 153
-0.055590 -0.111101 -0.172686 76 0 153
-0.354372 0.579330 -0.298390 0 0 255
-0.013095 -0.111101 0.000677 76 0 153
0.261032 -0.111101 -0.020985 76 0 153
-0.347871 -0.017589 0.407905 76 0 153
0.306144 -0.076962 -0.273863 76 0 153
0.072786 -0.111101 -0.078732 76 0 153
-0.206369 -0.041364 -0.083342 76 0 153
-0.080987 -0.020031 -0.398537 204 51 127
0.338179 -0.017859 0.417093 76 0 153
0.040977 -0.111101 0.216801 76 0 153
0.420161 0.489953 -0.255562 0 0 255
0.030358 -0.111101 0.159129 76 0 153
-0.175895 -0.044725 0.038351 76 0 153
0.098202 0.658026 -0.445148 0 0 255
0.373242 -0.090095 -0.185771 153 0 76
0.140511 -0.047700 -0.270213 76 0 153
0.109225 0.559089 -0.442924 0 0 255
-0.402370 -0.004894 0.443676 76 0 153
0.014574 0.183711 -0.425216 204 51 127
0.366017 -0.153846 -0.189704 153 0 76
-0.228963 -0.040011 0.514651 76 0 153
0.373493 -0.187705 0.461943 76 153 0
0.394156 -0.111101 0.209512 76 0 153
-0.130637 -0.111101 -0.057996 76 0 153
-0.207586 -0.111101 -0.009327 76 0 153
-0.108942 -0.111101 0.362557 76 0 153
0.000984 0.033530 -0.393540 204 51 127
-0.391991 -0.083536 -0.212422 76 0 153
0.140870 -0.047669 0.107847 76 0 153
0.045338 0.059252 -0.428455 204 51 127
-0.064681 0.004366 -0.383025 204 51 127
-0.029489 0.613095 -0.454575 0 0 255
0.216055 -0.111101 0.091544 76 0 153
0.156200 -0.045978 -0.057998 76 0 153
-0.412337 -0.111101 0.532038 76 0 153
0.381165 -0.214818 -0.200884 153 0 76
0.212790 0.511128 -0.405986 0 0 255
-0.451482 -0.577946 0.576121 0 127 127
-0.414746 -0.001843 0.005941 76 0 153
0.233877 -0.109960 -0.315167 76 0 153
-0.434329 -0.063050 -0.034074 76 0 153
-0.373158 -0.012095 0.118779 76 0 153
-0.434329 -0.006063 0.127214 76 0 153
-0.056096 -0.052917 -0.239732 76 0 153
0.088010 -0.111101 0.493454 76 0 153
0.393925 0.656868 -0.254708 0 0 255
0.363906 -0.111101 0.375428 76 0 153
-0.032848 -0.111101 -0.360927 76 0 153
-0.230827 -0.038232 -0.238617 76 0 153
-0.376377 -0.186072 -0.190840 76 0 153
-0.286952 -0.029531 0.252228 76 0 153
-0.128226 -0.049062 0.076396 76 0 153
0.103741 -0.050127 -0.346738 76 0 153
0.151843 -0.111101 0.292853 76 0 153
0.136095 0.677935 -0.408572 0 0 255
0.148244 0.444523 -0.433996 0 0 255
-0.465326 -0.477848 0.529037 0 127 127
0.019145 -0.053546 0.472895 76 0 153
-0.062614 -0.111101 -0.312942 76 0 153
-0.434329 -0.065883 0.102000 76 0 153
0.425986 -0.072401 -0.055552 76 0 153
-0.076678 0.575460 -0.438953 0 0 255
-0.400245 0.679008 -0.291032 0 0 255
-0.223670 -0.102355 0.513996 76 0 153
0.061609 -0.052612 0.019903 76 0 153
-0.109743 -0.111101 0.302636 76 0 153
-0.289615 -0.111101 -0.142272 76 0 153
0.211436 0.544903 -0.378017 0 0 255
-0.269565 -0.111101 0.004046 76 0 153
-0.087331 -0.051761 -0.114051 76 0 153
-0.143623 0.569869 -0.403295 0 0 255
-0.405728 0.576404 -0.285743 0 0 255
0.360099 -0.013258 -0.178607 76 0 153
-0.434329 -0.053945 -0.079128 76 0 153
-0.394603 -0.006809 0.081430 76 0 153
0.305783 -0.037350 0.526295 76 0 153
-0.275227 0.646212 -0.350356 0 0 255
-0.440622 -0.268141 -0.181685 76 0 153
0.185576 -0.111101 0.353464 76 0 153
-0.223732 -0.039332 0.402616 76 0 153
-0.155531 -0.111101 0.252822 76 0 153
-0.451596 -0.672749 -0.234867 76 0 153
-0.234627 -0.037643 -0.171410 76 0 153
0.148645 -0.111101 0.507228 76 0 153
0.027398 0.484053 -0.454124 0 0 255
0.008997 0.623916 -0.455451 0 0 255
0.401501 -0.071214 -0.158855 153 0 76
0.274478 -0.111101 -0.183814 76 0 153
-0.369801 -0.012923 0.219796 76 0 153
0.369171 -0.178565 0.516605 76 153 0
0.156084 -0.045990 0.507637 76 0 153
-0.421388 -0.268416 0.528402 0 127 127
0.062934 0.032087 -0.394341 204 51 127
-0.075827 0.322857 -0.459930 204 51 127
0.227913 -0.111101 -0.210815 76 0 153
-0.319617 -0.023251 0.467647 76 0 153
0.422936 -0.111101 -0.096061 76 0 153
-0.054195 0.525848 -0.418421 0 0 255
-0.370703 -0.071095 0.506513 0 127 127
-0.136904 -0.111101 -0.113380 76 0 153
0.421681 -0.644789 -0.228512 153 0 76
0.152052 0.610788 -0.398321 0 0 255
0.053786 -0.052784 -0.316240 76 0 153
-0.065186 -0.111101 0.206890 76 0 153
-0.036098 -0.053356 -0.039375 76 0 153
-0.180635 -0.044202 0.500385 76 0 153
-0.290796 -0.044043 0.522523 76 0 153
0.425986 -0.076961 0.145799 76 0 153
0.376091 -0.033041 -0.116431 153 0 76
0.114819 -0.049396 0.463092 76 0 153
0.078418 -0.111101 0.199002 76 0 153
-0.380986 -0.096170 -0.186189 76 0 153
0.039238 -0.111101 0.420323 76 0 153
0.361077 0.694327 -0.320767 0 0 255
0.387843 -0.006418 -0.131030 76 0 153
-0.237123 -0.111101 0.360087 76 0 153
0.120848 -0.048998 0.140722 76 0 153
0.347267 -0.016038 0.038316 76 0 153
-0.144836 0.470234 -0.437423 0 0 255
-0.316019 0.536077 -0.325256 0 0 255
0.007526 -0.071383 -0.382851 204 51 127
-0.046813 0.235653 -0.427669 204 51 127
0.085119 -0.111101 0.019580 76 0 153
0.425986 0.705933 -0.248381 0 0 255
-0.090702 -0.051539 0.270256 76 0 153
-0.473690 -0.648554 -0.199950 76 0 153
0.038646 0.242534 -0.459378 204 51 127
0.205393 -0.040551 -0.298459 76 0 153
0.270793 -0.111101 0.096787 76 0 153
-0.346386 -0.053150 -0.154475 76 0 153
-0.049853 -0.111101 0.069991 76 0 153
-0.284442 -0.111101 -0.109933 76 0 153
-0.434329 -0.087427 0.370170 76 0 153
0.379455 -0.354710 -0.189087 153 0 76
-0.230059 0.588252 -0.373066 0 0 255
-0.353328 -0.138641 0.492712 0 127 127
-0.239230 -0.111101 0.403327 76 0 153
0.235153 0.688350 -0.366310 0 0 255
-0.456742 -0.378806 -0.196631 76 0 153
-0.345184 -0.018128 -0.086001 76 0 153
0.372796 -0.010128 0.371971 76 0 153
-0.427135 -0.398295 -0.227865 76 0 153
0.118041 -0.049183 -0.132271 76 0 153
-0.249067 0.524560 -0.363509 0 0 255
0.019152 -0.053545 0.441872 76 0 153
0.250579 0.491485 -0.392927 0 0 255
-0.434329 0.631728 -0.226626 0 0 255
-0.434329 -0.046370 -0.135617 76 0 153
0.425986 -0.000078 0.198779 76 0 153
0.076762 -0.051908 -0.174918 76 0 153
0.001078 -0.053943 -0.212446 76 0 153
-0.302498 -0.111101 0.234570 76 0 153
-0.401705 0.720868 -0.257772 0 0 255
0.168750 0.678081 -0.392612 0 0 255
0.068336 0.474538 -0.445164 0 0 255
0.047110 -0.111101 0.107568 76 0 153
-0.006985 -0.053996 0.386965 76 0 153
-0.016262 -0.020764 -0.375928 204 51 127
-0.222710 0.617964 -0.376761 0 0 255
-0.434329 -0.036517 0.152984 76 0 153
-0.406238 -0.111101 0.317114 76 0 153
0.038393 -0.111101 -0.033536 76 0 153
0.404604 -0.168160 -0.140212 153 0 76
0.029290 0.015828 -0.388468 204 51 127
0.221575 -0.111101 0.299465 76 0 153
0.351525 0.596456 -0.294540 0 0 255
-0.015692 0.159638 -0.449558 204 51 127
0.341794 -0.090454 0.483402 76 153 0
-0.244769 -0.111101 -0.050169 76 0 153
0.360097 -0.110006 -0.234043 76 0 153
-0.221133 0.564034 -0.392168 0 0 255
0.240328 -0.037143 -0.309528 76 0 153
-0.334652 -0.111101 -0.005241 76 0 153
0.415964 -0.167990 0.485084 76 153 0
0.046533 -0.086964 -0.364135 204 51 127
-0.330039 -0.093651 0.528897 76 0 153
-0.317779 -0.060277 -0.271018 76 0 153
0.229019 0.644106 -0.369394 0 0 255
0.122815 0.439956 -0.405810 0 0 255
0.283473 -0.028777 0.296488 76 0 153
0.425986 -0.093109 0.173553 76 0 153
-0.431106 -0.517995 -0.183521 76 0 153
-0.049865 0.102829 -0.438262 204 51 127
-0.021360 0.256014 -0.459521 204 51 127
0.055271 0.533307 -0.452114 0 0 255
-0.143467 -0.048055 0.180333 76 0 153
0.056938 0.120114 -0.416548 204 51 127
0.013012 -0.111101 -0.055746 76 0 153
-0.401466 -0.111101 0.279346 76 0 153
0.251109 -0.033794 0.500792 76 0 153
0.134365 -0.111101 0.414497 76 0 153
0.043750 0.417280 -0.453466 204 51 127
0.369725 -0.111101 -0.077900 76 0 153
-0.392034 -0.146181 0.454146 0 127 127
-0.373975 -0.011894 0.278819 76 0 153
-0.231723 -0.038093 0.227170 76 0 153
-0.434329 -0.088147 0.310195 76 0 153
0.157619 -0.045821 0.040981 76 0 153
-0.408651 -0.319647 0.540796 0 127 127
0.425986 0.668317 -0.256799 0 0 255
-0.030956 0.175698 -0.422632 204 51 127
-0.196180 -0.065150 -0.332521 76 0 153
0.421266 -0.283986 -0.155939 153 0 76
0.445147 -0.480139 -0.235442 153 0 76
-0.019562 -0.053720 0.106964 76 0 153
-0.072472 -0.111101 -0.216235 76 0 153
-0.181693 0.471792 -0.425412 0 0 255
-0.413122 0.612335 -0.278610 0 0 255
0.412310 -0.481325 0.504140 76 153 0
-0.007974 0.344043 -0.428030 204 51 127
-0.059488 -0.052842 0.151730 76 0 153
-0.408630 -0.003351 0.142888 76 0 153
0.444239 -0.365990 -0.200006 153 0 76
-0.415901 -0.111101 0.085087 76 0 153
0.453055 -0.425193 -0.206731 153 0 76
-0.387548 -0.265110 -0.201421 76 0 153
-0.417052 -0.176988 -0.142291 76 0 153
0.074488 -0.013530 -0.400994 204 51 127
0.369451 -0.111101 0.228634 76 0 153
-0.409586 -0.393709 0.548555 0 127 127
0.249540 -0.111101 -0.097529 76 0 153
-0.024385 -0.111101 -0.027808 76 0 153
0.361241 -0.012976 0.235179 76 0 153
0.169270 -0.111101 -0.200929 76 0 153
0.083059 -0.051492 0.259079 76 0 153
0.424595 -0.111101 0.073777 76 0 153
0.013105 0.083622 -0.407331 204 51 127
0.302456 -0.110055 0.525749 76 0 153
0.316495 -0.111101 0.062778 76 0 153
-0.237881 -0.111101 0.145459 76 0 153
0.084387 -0.051557 0.504055 76 0 153
0.093181 -0.111101 0.366753 76 0 153
-0.074865 0.031417 -0.391407 204 51 127
-0.041842 0.198574 -0.454582 204 51 127
0.267087 0.637858 -0.350254 0 0 255
-0.425086 -0.573964 0.520537 0 127 127
0.396244 -0.044548 0.542643 76 0 153
0.031232 -0.053280 0.285147 76 0 153
-0.067897 -0.052657 -0.313342 76 0 153
0.456422 -0.671049 -0.231523 153 0 76
-0.244795 -0.111101 0.216519 76 0 153
-0.004171 0.495061 -0.429406 0 0 255
0.424025 0.002501 0.381501 76 0 153
-0.434329 -0.090765 -0.129493 76 0 153
-0.308338 -0.025511 0.437117 76 0 153
0.233813 0.569708 -0.401356 0 0 255
0.210467 -0.039991 0.015790 76 0 153
0.012247 0.363900 -0.458702 204 51 127
0.249974 0.615951 -0.393231 0 0 255
0.143297 -0.047401 -0.100505 76 0 153
-0.379438 -0.190341 -0.140868 76 0 153
0.396680 -0.004240 0.072796 76 0 153
0.322942 -0.111101 -0.040448 76 0 153
0.364895 -0.012266 -0.228479 76 0 153
-0.321011 0.465433 -0.327297 0 0 255
0.034134 -0.053216 0.193761 76 0 153
-0.415618 -0.111101 0.435209 76 0 153
0.128378 -0.048501 -0.009885 76 0 153
-0.426462 0.001045 -0.051093 76 0 153
0.362619 -0.012637 0.442281 76 0 153
-0.428533 0.001556 -0.118815 76 0 153
0.119050 0.653493 -0.406569 0 0 255
0.409779 -0.556136 -0.225016 153 0 76
0.410586 -0.195218 -0.191484 153 0 76
-0.046621 0.006056 -0.410934 204 51 127
0.066905 0.061560 -0.403207 204 51 127
-0.025231 0.450992 -0.454882 0 0 255
-0.102780 0.631523 -0.445907 0 0 255
-0.045623 -0.111101 0.101381 76 0 153
-0.414724 -0.001848 0.502607 76 0 153
0.406718 -0.324801 -0.153817 153 0 76
0.084961 -0.051367 0.128815 76 0 153
-0.364052 -0.111101 -0.068882 76 0 153
0.107708 -0.082366 0.505322 76 0 153
0.224464 -0.037925 -0.056815 76 0 153
-0.434329 -0.026007 0.055801 76 0 153
0.408978 -0.228467 0.469000 76 153 0
-0.366959 -0.111101 0.067569 76 0 153
-0.092461 -0.111101 0.242494 76 0 153
0.425986 -0.051402 0.362312 76 0 153
-0.379924 0.689882 -0.310634 0 0 255
-0.216291 -0.111101 -0.190820 76 0 153
-0.457656 -0.466416 -0.180810 76 0 153
0.296763 -0.026158 -0.036165 76 0 153
-0.096300 -0.051169 -0.203768 76 0 153
-0.380214 0.623276 -0.310354 0 0 255
-0.138818 -0.048362 -0.126739 76 0 153
-0.029285 -0.083082 0.502330 76 0 153
0.479737 -0.645243 0.572516 76 153 0
-0.434329 -0.079335 0.521392 76 0 153
-0.014488 -0.111101 0.117733 76 0 153
0.038936 0.112425 -0.441459 204 51 127
-0.227250 -0.111101 0.112163 76 0 153
-0.038859 0.670405 -0.453899 0 0 255
-0.264450 -0.033019 0.074769 76 0 153
-0.428926 -0.414571 0.490630 0 127 127
-0.006626 -0.111101 -0.296629 76 0 153
0.051767 0.577621 -0.417994 0 0 255
-0.357491 -0.039168 -0.120128 76 0 153
0.347710 0.631323 -0.331584 0 0 255
0.086318 -0.111101 0.398117 76 0 153
-0.442096 -0.302784 -0.168321 76 0 153
-0.434329 -0.024535 0.378025 76 0 153
0.389529 0.627773 -0.293321 0 0 255
0.416772 -0.556679 -0.196185 153 0 76
0.393553 0.598212 -0.255066 0 0 255
-0.085145 0.477946 -0.449465 0 0 255
-0.163001 -0.111101 -0.054289 76 0 153
0.425986 -0.036811 -0.076398 76 0 153
-0.306720 0.636783 -0.366142 0 0 255
0.299303 -0.111101 0.484797 76 0 153
-0.153270 -0.111101 0.474737 76 0 153
-0.017167 0.015888 -0.414695 204 51 127
0.260250 -0.111101 0.499391 76 0 153
0.421739 0.525104 -0.227877 0 0 255
0.103665 0.516490 -0.444046 0 0 255
-0.271453 -0.031934 0.222339 76 0 153
0.099500 -0.050407 0.325025 76 0 153
0.096495 -0.050605 -0.287549 76 0 153
0.006797 0.250405 -0.429878 204 51 127
-0.281574 -0.088589 -0.293472 76 0 153
0.392870 -0.330729 0.482129 76 153 0
0.118835 -0.111101 0.114349 76 0 153
0.021248 -0.053499 -0.029062 76 0 153
-0.410937 -0.002782 0.174818 76 0 153
0.360434 -0.082397 0.505990 76 153 0
0.276521 -0.029855 0.390623 76 0 153
0.346404 -0.111101 0.016445 76 0 153
-0.309174 0.508267 -0.364423 0 0 255
-0.322385 0.703230 -0.330570 0 0 255
-0.181597 -0.044096 0.338579 76 0 153
0.063202 -0.111101 -0.260489 76 0 153
0.144042 -0.111101 0.009640 76 0 153
0.010151 -0.111101 0.315217 76 0 153
0.366090 -0.205218 -0.147457 153 0 76
0.128510 -0.111101 -0.055932 76 0 153
0.095250 -0.050688 -0.062419 76 0 153
0.168537 -0.044617 -0.157616 76 0 153
0.396221 -0.111101 0.498718 76 0 153
-0.325882 -0.021995 -0.230990 76 0 153
-0.430855 0.002128 0.466878 76 0 153
0.359179 -0.111101 -0.105259 76 0 153
-0.419649 -0.501420 -0.231610 76 0 153
-0.011110 -0.053905 0.326786 76 0 153
0.437374 -0.465779 0.498877 76 153 0
-0.128788 -0.111101 -0.314501 76 0 153
-0.267646 -0.032524 -0.102906 76 0 153
0.068991 0.255193 -0.436559 204 51 127
0.348015 -0.073391 0.533214 76 0 153
0.425986 -0.020261 0.113365 76 0 153
0.449485 -0.549269 -0.247297 153 0 76
0.155984 -0.046001 0.005064 76 0 153
-0.433238 -0.111101 -0.047708 76 0 153
-0.427401 -0.002300 -0.176325 76 0 153
-0.214676 0.521819 -0.414134 0 0 255
0.131387 -0.048302 -0.042410 76 0 153
-0.361884 -0.014781 0.058515 76 0 153
0.399747 -0.098243 -0.196118 76 0 153
-0.320980 -0.022977 0.013692 76 0 153
-0.363853 -0.041568 0.439567 0 127 127
0.212790 0.614075 -0.382482 0 0 255
0.227425 -0.037466 -0.158900 76 0 153
-0.256667 0.575770 -0.359688 0 0 255
-0.265805 0.464901 -0.389466 0 0 255
0.396586 -0.111101 0.406591 76 0 153
-0.427815 0.001379 0.361386 76 0 153
-0.014486 0.099751 -0.437922 204 51 127
0.198909 -0.111101 -0.301032 76 0 153
-0.185829 -0.111101 0.380941 76 0 153
-0.422305 -0.343699 0.481588 0 127 127
0.398741 -0.049345 0.469053 76 153 0
0.425986 0.001648 0.162293 76 0 153
-0.157319 -0.111101 0.333150 76 0 153
-0.123704 0.465351 -0.407314 0 0 255
0.031165 -0.053281 0.103475 76 0 153
-0.067289 0.096843 -0.408081 204 51 127
0.068136 0.366697 -0.427283 204 51 127
0.425986 -0.021318 0.362008 76 0 153
-0.074311 0.411255 -0.454051 204 51 127
-0.301946 -0.111101 -0.252949 76 0 153
-0.103676 -0.050682 0.058888 76 0 153
0.445920 -0.595463 0.578738 76 153 0
0.282214 -0.063836 0.522506 76 0 153
0.273919 0.684568 -0.381191 0 0 255
-0.404941 -0.077047 -0.173727 76 0 153
0.123403 -0.048829 0.305095 76 0 153
0.355654 -0.153526 0.503510 76 153 0
0.407774 -0.506284 -0.191510 153 0 76
-0.163069 -0.046140 -0.024194 76 0 153
0.294140 0.478595 -0.369111 0 0 255
0.331726 -0.106267 0.530545 76 0 153
0.281573 -0.111101 0.209105 76 0 153
0.192112 -0.042016 0.048967 76 0 153
0.088361 0.535259 -0.412760 0 0 255
0.397341 -0.462539 0.539309 76 153 0
0.169360 0.570701 -0.426776 0 0 255
-0.213751 0.466847 -0.414451 0 0 255
0.399977 -0.003427 0.040884 76 0 153
0.399043 -0.111101 -0.012363 76 0 153
0.050452 -0.052857 0.359216 76 0 153
-0.150705 -0.111101 0.391786 76 0 153
0.286056 -0.028304 0.254878 76 0 153
-0.368649 -0.111101 0.446599 0 127 127
0.366532 -0.011672 0.339085 76 0 153
-0.214897 -0.111101 0.453531 76 0 153
0.221594 -0.038370 0.179543 76 0 153
0.260509 0.488999 -0.353562 0 0 255
0.243204 -0.111101 0.251628 76 0 153
0.184287 -0.111101 -0.090638 76 0 153
-0.375485 -0.024894 -0.144250 76 0 153
-0.040796 -0.053253 -0.196176 76 0 153
0.200516 0.614686 -0.416123 0 0 255
-0.108889 -0.050338 -0.165178 76 0 153
0.302362 -0.025036 0.140100 76 0 153
0.180650 -0.111101 -0.332384 76 0 153
-0.237918 -0.111101 -0.108022 76 0 153
-0.220268 -0.111101 -0.035241 76 0 153
-0.193507 -0.042783 -0.210249 76 0 153
-0.074580 0.433182 -0.417200 0 0 255
-0.284756 -0.111101 -0.190950 76 0 153
-0.351321 -0.016898 0.008392 76 0 153
-0.045264 -0.111101 0.309993 76 0 153
0.365814 -0.111101 0.162609 76 0 153
0.248845 -0.034145 0.441846 76 0 153
-0.177950 -0.044499 -0.137036 76 0 153
-0.189084 -0.043270 -0.279387 76 0 153
0.310562 -0.111101 0.259956 76 0 153
0.362520 0.500328 -0.319374 0 0 255
0.378672 -0.152383 -0.130533 153 0 76
-0.433002 -0.517769 0.504813 0 127 127
0.340199 -0.044448 0.452632 76 153 0
-0.054776 -0.111101 0.405401 76 0 153
-0.096161 0.529728 -0.447243 0 0 255
-0.229154 -0.038492 0.117618 76 0 153
0.168758 -0.111101 -0.266025 76 0 153
-0.401867 -0.005018 -0.064241 76 0 153
0.190348 -0.042211 0.413834 76 0 153
0.425256 -0.080730 0.548484 76 0 153
0.040976 -0.053066 -0.082607 76 0 153
0.447223 -0.441098 0.548321 76 153 0
0.307541 0.598613 -0.325350 0 0 255
-0.329146 -0.111101 0.491142 76 0 153
-0.367692 0.703795 -0.288060 0 0 255
-0.478275 -0.602917 0.530669 0 127 127
-0.434329 0.646498 -0.257667 0 0 255
-0.335166 -0.020135 -0.164400 76 0 153
-0.404712 -0.072916 0.465282 0 127 127
-0.094580 -0.111101 0.326686 76 0 153
-0.037828 -0.053318 -0.261505 76 0 153
0.244814 -0.034770 0.111722 76 0 153
-0.484422 -0.644725 -0.254270 76 0 153
0.296594 -0.111101 0.315715 76 0 153
-0.075859 0.294021 -0.457792 204 51 127
-0.036855 -0.053340 0.441363 76 0 153
-0.081985 -0.106718 -0.364226 76 0 153
0.069681 0.664749 -0.416529 0 0 255
-0.229035 -0.038510 -0.065968 76 0 153
0.306269 0.637203 -0.326242 0 0 255
-0.040565 0.584351 -0.419404 0 0 255
-0.361068 -0.107908 0.533985 76 0 153
0.004901 -0.053859 -0.248059 76 0 153
-0.238885 0.483930 -0.368628 0 0 255
0.395158 -0.004615 0.511255 76 0 153
-0.069308 -0.052626 0.324698 76 0 153
-0.149046 0.524488 -0.404177 0 0 255
-0.198306 -0.042253 0.446503 76 0 153
-0.016625 -0.111101 -0.135134 76 0 153
-0.003276 -0.016681 -0.403229 204 51 127
-0.268439 -0.032401 0.274029 76 0 153
0.033503 -0.111101 0.374519 76 0 153
0.034795 0.290733 -0.431116 204 51 127
-0.488855 -0.670489 -0.211805 76 0 153
0.425986 -0.060414 0.285966 76 0 153
-0.388231 -0.111101 -0.013462 76 0 153
-0.273286 -0.111101 0.253310 76 0 153
-0.411078 -0.103322 0.479601 0 127 127
0.462512 -0.577298 -0.246660 153 0 76
0.425986 -0.013276 0.437461 76 0 153
0.376885 0.680019 -0.271144 0 0 255
0.173969 -0.044017 0.451467 76 0 153
0.203872 -0.111101 0.159615 76 0 153
-0.159574 0.649089 -0.432974 0 0 255
-0.320406 0.572106 -0.356555 0 0 255
-0.114598 -0.049961 0.489711 76 0 153
-0.412183 0.704622 -0.279516 0 0 255
0.421256 0.551913 -0.262717 0 0 255
0.397960 -0.111101 0.342144 76 0 153
-0.093297 0.607460 -0.413447 0 0 255
0.031378 0.031093 -0.419870 204 51 127
-0.346398 0.680804 -0.303975 0 0 255
-0.421207 -0.167946 -0.182111 76 0 153
-0.434329 -0.089802 0.131800 76 0 153
0.314378 0.650367 -0.354933 0 0 255
0.418158 -0.111101 0.262167 76 0 153
0.425986 -0.062486 0.408022 76 0 153
-0.434329 -0.025441 -0.016669 76 0 153
-0.354604 -0.016240 0.165110 76 0 153
0.400522 -0.199890 -0.139354 153 0 76
-0.045417 -0.058388 -0.387406 204 51 127
-0.127093 -0.049136 -0.067710 76 0 153
-0.460368 -0.671417 0.552815 0 127 127
-0.017106 0.413952 -0.421690 204 51 127
0.205866 -0.040499 -0.102007 76 0 153
0.236192 -0.111101 0.416151 76 0 153
-0.388360 -0.226668 -0.143770 76 0 153
-0.312564 -0.026663 0.526022 76 0 153
0.275462 -0.030019 -0.152574 76 0 153
0.084497 -0.111101 -0.302086 76 0 153
0.096179 -0.050626 -0.195949 76 0 153
-0.202318 -0.111101 0.268569 76 0 153
-0.256559 -0.034243 0.445424 76 0 153
-0.119280 -0.049652 -0.220603 76 0 153
-0.419204 0.600877 -0.238371 0 0 255
0.425986 -0.047943 0.198505 76 0 153
-0.076573 -0.111101 0.181333 76 0 153
0.133989 -0.048130 0.235942 76 0 153
-0.170892 -0.094137 -0.341945 76 0 153
-0.374244 0.606097 -0.281740 0 0 255
-0.326369 -0.021898 0.219153 76 0 153
-0.178683 -0.044418 -0.085606 76 0 153
-0.357117 -0.128973 -0.162898 76 0 153
0.317064 -0.022090 0.346447 76 0 153
-0.056610 0.365379 -0.425515 204 51 127
0.253758 -0.033384 -0.203592 76 0 153
0.154806 -0.046131 0.261381 76 0 153
-0.431091 -0.111101 0.226006 76 0 153
0.429982 -0.263175 0.504008 76 153 0
0.032292 -0.008069 -0.406600 204 51 127
-0.350125 -0.083150 -0.150503 76 0 153
0.250759 -0.111101 0.042606 76 0 153
-0.454693 -0.463892 0.507358 0 127 127
-0.301659 -0.026849 0.181691 76 0 153
-0.292801 0.487707 -0.345740 0 0 255
0.397623 -0.111101 0.132532 76 0 153
-0.388755 0.658248 -0.267743 0 0 255
-0.008970 -0.053952 0.486262 76 0 153
-0.165836 -0.111101 -0.013428 76 0 153
0.422346 -0.423192 0.491316 76 153 0
0.399509 0.511041 -0.249321 0 0 255
-0.374524 -0.111101 0.270522 76 0 153
0.442188 -0.640179 0.582654 76 153 0
0.118674 -0.111101 0.238785 76 0 153
-0.130694 0.550395 -0.440276 0 0 255
-0.167685 -0.111101 0.037591 76 0 153
-0.331619 0.580557 -0.314328 0 0 255
-0.395427 0.534334 -0.261306 0 0 255
0.141875 -0.047558 0.478896 76 0 153
-0.177901 0.655107 -0.392336 0 0 255
0.359919 -0.111101 -0.023774 76 0 153
0.084368 -0.051406 0.082313 76 0 153
0.101980 -0.050243 0.352714 76 0 153
0.335216 -0.045290 0.531117 76 0 153
0.059503 -0.039560 -0.368619 204 51 127
0.311163 -0.023273 0.426037 76 0 153
-0.414431 0.695267 -0.242975 0 0 255
0.406416 -0.154720 0.507963 76 153 0
0.125180 -0.111101 -0.337704 76 0 153
-0.063226 -0.052760 0.480130 76 0 153
-0.415035 -0.431832 -0.226705 76 0 153
-0.366207 -0.030008 0.501079 0 127 127
0.011830 -0.053706 -0.168416 76 0 153
0.132447 -0.048232 -0.161158 76 0 153
-0.460111 -0.654486 0.523007 0 127 127
0.321235 0.682353 -0.315758 0 0 255
-0.394513 -0.111101 0.392754 76 0 153
-0.136118 -0.111101 0.368279 76 0 153
0.128564 -0.111101 0.034299 76 0 153
0.051692 0.620189 -0.418000 0 0 255
0.097397 -0.050546 0.210601 76 0 153
-0.340340 -0.111101 0.120470 76 0 153
0.190823 -0.042158 0.366071 76 0 153
-0.245346 -0.035981 0.419489 76 0 153
0.401446 -0.130199 0.460827 76 153 0
-0.420321 -0.000469 0.049070 76 0 153
-0.434329 0.537306 -0.254510 0 0 255
0.045636 -0.079779 0.502774 76 0 153
-0.363912 0.536802 -0.325513 0 0 255
-0.418646 -0.352746 -0.157871 76 0 153
0.198215 -0.041343 -0.195972 76 0 153
0.019592 0.448671 -0.420314 0 0 255
0.425986 -0.072513 -0.119948 76 0 153
-0.364249 -0.014292 -0.197131 76 0 153
0.435632 -0.653174 -0.205133 153 0 76
-0.109386 -0.050305 0.356970 76 0 153
0.447431 -0.389116 0.527456 76 153 0
-0.341688 -0.111101 0.360723 76 0 153
0.362234 -0.159591 0.462620 76 153 0
0.437352 -0.562719 0.573753 76 153 0
-0.271158 -0.031979 -0.152160 76 0 153
-0.237756 0.498612 -0.403569 0 0 255
0.255598 -0.033098 -0.094503 76 0 153
0.083546 0.485229 -0.413732 0 0 255
0.015257 0.569718 -0.455000 0 0 255
-0.455251 -0.417196 0.532137 0 127 127
0.404408 0.722548 -0.244595 0 0 255
-0.191659 -0.111101 0.159663 76 0 153
0.341945 -0.017105 0.385687 76 0 153
-0.027132 0.127191 -0.415243 204 51 127
-0.393542 -0.357916 -0.175085 76 0 153
0.154267 0.509712 -0.431937 0 0 255
0.105905 -0.111101 0.090111 76 0 153
0.301029 -0.025303 0.026343 76 0 153
0.050890 -0.111101 -0.174886 76 0 153
-0.335063 -0.111101 0.064964 76 0 153
0.310425 -0.023421 0.221430 76 0 153
0.344241 -0.016645 -0.127458 76 0 153
-0.398415 -0.205732 0.462005 0 127 127
0.069482 0.362067 -0.458007 204 51 127
0.425986 -0.010776 0.274752 76 0 153
-0.046563 -0.053126 0.118533 76 0 153
0.370674 -0.111101 0.068560 76 0 153
-0.057289 0.613391 -0.452571 0 0 255
-0.379924 -0.264383 0.478234 0 127 127
0.425986 -0.051837 0.065301 76 0 153
0.439945 -0.585328 -0.190063 153 0 76
0.123764 0.469856 -0.439991 0 0 255
0.181927 -0.111101 0.387455 76 0 153
-0.426533 -0.262093 0.481228 0 127 127
0.476510 -0.583293 -0.219059 153 0 76
-0.273450 -0.111101 0.099470 76 0 153
-0.135822 0.439844 -0.414300 0 0 255
0.131119 0.562467 -0.404135 0 0 255
-0.024753 -0.053606 -0.136553 76 0 153
-0.420968 -0.000309 0.413645 76 0 153
0.404184 0.621104 -0.244812 0 0 255
0.425986 -0.025206 0.517905 76 0 153
-0.434329 -0.084632 0.398714 76 0 153
0.425986 0.634843 -0.225653 0 0 255
0.294394 -0.026633 0.196951 76 0 153
-0.227179 -0.038798 0.174576 76 0 153
0.425986 -0.015526 -0.093365 76 0 153
0.278039 -0.029619 0.335222 76 0 153
0.429260 -0.389576 0.548018 76 153 0
0.173373 -0.044083 0.091860 76 0 153
0.405659 -0.118553 -0.172670 153 0 76
-0.135836 -0.048559 -0.277475 76 0 153
-0.281542 -0.104049 0.521346 76 0 153
0.393374 0.538891 -0.255239 0 0 255
-0.345310 0.659456 -0.339110 0 0 255
0.056631 -0.052722 0.477577 76 0 153
0.418064 -0.509543 -0.238663 153 0 76
-0.049471 -0.111101 0.156697 76 0 153
-0.395211 -0.343026 0.537664 0 127 127
0.191576 -0.111101 0.042700 76 0 153
-0.166399 -0.111101 0.083433 76 0 153
0.401476 -0.092059 0.463401 76 153 0
0.323440 -0.020813 0.301900 76 0 153
-0.045426 -0.111101 0.442106 76 0 153
0.349895 -0.111101 0.105029 76 0 153
-0.045511 -0.111101 -0.113887 76 0 153
0.231197 -0.036881 0.068824 76 0 153
-0.239661 -0.036863 0.021136 76 0 153
0.088151 -0.111101 0.309495 76 0 153
0.120769 -0.049003 -0.325101 76 0 153
-0.312100 -0.111101 0.440252 76 0 153
-0.065864 0.671234 -0.451952 0 0 255
-0.210478 0.480163 -0.381197 0 0 255
-0.004171 0.524279 -0.437363 0 0 255
0.051573 0.235304 -0.430717 204 51 127
0.370385 -0.089517 0.445657 76 153 0
0.035920 -0.111101 -0.339251 76 0 153
-0.363912 0.595276 -0.318171 0 0 255
0.201078 -0.111101 -0.026280 76 0 153
0.434245 -0.293063 -0.184997 153 0 76
0.031874 0.333122 -0.460551 204 51 127
-0.358030 -0.111101 0.241913 76 0 153
-0.337458 -0.111101 -0.209149 76 0 153
-0.431111 -0.272110 -0.155489 76 0 153
0.406415 0.503020 -0.277033 0 0 255
-0.230360 -0.111101 0.056572 76 0 153
0.216194 -0.111101 0.273022 76 0 153
0.143610 -0.111101 0.444644 76 0 153
0.255196 -0.111101 -0.210366 76 0 153
0.407697 -0.001524 -0.048285 76 0 153
-0.431709 -0.109341 -0.172197 76 0 153
0.424607 -0.111101 0.045581 76 0 153
0.425986 -0.095824 0.123519 76 0 153
-0.417593 0.520303 -0.239925 0 0 255
-0.166965 -0.111101 -0.105545 76 0 153
-0.264911 0.590681 -0.389916 0 0 255
0.403101 -0.002657 -0.187562 76 0 153
0.321317 -0.021238 -0.224983 76 0 153
-0.379576 -0.010513 0.184545 76 0 153
-0.058716 -0.052859 0.214012 76 0 153
-0.076678 0.548327 -0.438874 0 0 255
-0.140109 -0.078665 0.506638 76 0 153
0.425986 0.582146 -0.233804 0 0 255
-0.384916 -0.319946 -0.189209 76 0 153
-0.332859 -0.111101 -0.100544 76 0 153
0.400751 -0.111101 -0.068527 76 0 153
0.360233 -0.013225 -0.030464 76 0 153
-0.279400 -0.030701 0.396124 76 0 153
-0.404351 -0.004406 0.528918 76 0 153
0.337522 -0.063330 -0.153680 153 0 76
-0.060977 -0.052810 0.265755 76 0 153
0.415993 -0.604221 0.544913 76 153 0
-0.154970 -0.111101 0.443471 76 0 153
-0.374331 -0.093207 -0.123243 76 0 153
0.257977 -0.111101 0.156522 76 0 153
0.175888 -0.111101 0.093894 76 0 153
-0.125649 -0.107366 -0.353096 76 0 153
-0.177112 -0.111101 -0.155667 76 0 153
0.086732 0.437154 -0.423697 0 0 255
0.405766 -0.522022 0.546935 76 153 0
0.383081 0.684785 -0.299541 0 0 255
-0.100763 -0.050875 0.116741 76 0 153
0.078419 -0.111101 0.047793 76 0 153
0.415123 -0.323727 -0.216831 153 0 76
0.421806 -0.062196 -0.173777 76 0 153
0.237529 -0.111101 -0.003060 76 0 153
0.059991 0.613813 -0.451774 0 0 255
0.045983 0.351756 -0.428563 204 51 127
-0.066238 -0.052694 0.421614 76 0 153
-0.442920 -0.558322 -0.248669 76 0 153
0.426332 -0.238072 -0.176704 153 0 76
0.313057 -0.022893 0.079727 76 0 153
0.032223 -0.053258 -0.139263 76 0 153
0.149427 -0.046725 0.320771 76 0 153
0.425986 0.694806 -0.224094 0 0 255
0.294547 0.461802 -0.336839 0 0 255
0.177812 0.448659 -0.389513 0 0 255
0.383666 -0.379214 0.510533 76 153 0
0.024016 -0.038973 -0.371743 204 51 127
-0.076678 0.469131 -0.424589 0 0 255
0.440839 -0.342138 0.505938 76 153 0
-0.195838 0.508976 -0.386203 0 0 255
0.383819 -0.278230 -0.206524 153 0 76
0.381469 -0.347500 0.525532 76 153 0
-0.307470 -0.025685 0.373431 76 0 153
0.318890 -0.111101 0.089304 76 0 153
-0.398485 0.621539 -0.258356 0 0 255
-0.012141 0.047944 -0.424468 204 51 127
0.000965 -0.053945 0.055545 76 0 153
-0.190674 -0.111101 -0.058909 76 0 153
-0.314047 -0.024367 -0.135979 76 0 153
0.425986 -0.025301 0.029643 76 0 153
-0.376441 -0.224657 0.520276 0 127 127
-0.376668 -0.011230 0.345931 76 0 153
0.404692 0.644756 -0.278694 0 0 255
-0.033390 0.046251 -0.396311 204 51 127
0.318321 -0.021838 0.478563 76 0 153
-0.322494 -0.111101 0.254494 76 0 153
0.468582 -0.564989 -0.201485 153 0 76
0.366243 0.615810 -0.281410 0 0 255
0.262114 0.556246 -0.387127 0 0 255
0.477650 -0.650567 0.532765 76 153 0
0.418591 -0.340224 0.542714 76 153 0
0.267003 0.608795 -0.350296 0 0 255
-0.415735 0.663427 -0.276090 0 0 255
0.150958 -0.046556 -0.294609 76 0 153
0.324304 0.532997 -0.347980 0 0 255
0.380413 -0.008250 -0.097182 76 0 153
0.374990 0.650599 -0.272972 0 0 255
-0.434329 -0.005891 0.100687 76 0 153
-0.412159 -0.140746 -0.137612 76 0 153
-0.491200 -0.666296 0.557462 0 127 127
0.454420 -0.429305 0.524310 76 153 0
0.425986 -0.104250 0.364254 76 0 153
-0.051464 0.500449 -0.452991 0 0 255
0.131878 -0.048270 0.371595 76 0 153
0.122192 -0.048909 0.168756 76 0 153
-0.272657 -0.111101 0.196112 76 0 153
0.348392 0.604492 -0.331106 0 0 255
0.210528 -0.111101 -0.127577 76 0 153
0.163283 0.632348 -0.428854 0 0 255
-0.434329 -0.024104 -0.079665 76 0 153
0.098140 -0.111101 0.458350 76 0 153
0.365806 -0.082959 -0.121388 153 0 76
0.397599 -0.265549 0.533501 76 153 0
0.230696 -0.111101 -0.077335 76 0 153
-0.025428 -0.111101 -0.240635 76 0 153
-0.390363 -0.097709 0.508250 0 127 127
-0.434329 -0.068824 0.443770 76 0 153
0.154009 -0.111101 0.123333 76 0 153
0.119930 -0.049058 0.434858 76 0 153
-0.434329 -0.075877 0.214988 76 0 153
0.069857 0.068700 -0.431265 204 51 127
-0.073495 -0.111101 0.002774 76 0 153
-0.200460 -0.042016 0.005977 76 0 153
0.414393 0.617899 -0.269336 0 0 255
-0.032079 -0.053445 0.378776 76 0 153
0.333988 0.580250 -0.306824 0 0 255
-0.337127 0.495788 -0.344842 0 0 255
-0.448462 -0.320484 -0.186835 76 0 153
-0.434329 -0.051090 0.492364 76 0 153
-0.187918 -0.111101 0.434057 76 0 153
0.180664 -0.043279 -0.254635 76 0 153
0.291203 -0.027272 -0.131574 76 0 153
0.401603 -0.499762 -0.217449 153 0 76
0.290649 -0.111101 0.450800 76 0 153
0.045391 -0.052969 -0.256567 76 0 153
-0.094339 0.552853 -0.413237 0 0 255
0.425986 -0.024678 0.412285 76 0 153
0.320369 -0.030159 -0.262421 76 0 153
0.063064 0.314073 -0.431452 204 51 127
-0.415683 -0.032183 -0.188371 76 0 153
0.200679 0.684855 -0.407270 0 0 255
0.146005 -0.047102 -0.209696 76 0 153
-0.077814 0.068563 -0.417191 204 51 127
0.308939 -0.111101 0.153561 76 0 153
0.156409 -0.111101 -0.103765 76 0 153
0.460196 -0.496663 0.518529 76 153 0
0.184507 -0.042855 0.303637 76 0 153
-0.168806 -0.111101 0.501946 76 0 153
-0.330847 -0.021000 0.387903 76 0 153
0.434106 -0.568839 0.512106 76 153 0
-0.349332 -0.022478 -0.247857 76 0 153
-0.004325 -0.111101 0.409273 76 0 153
0.179190 -0.043442 0.244639 76 0 153
0.060557 -0.052635 -0.133911 76 0 153
-0.383008 0.508214 -0.307659 0 0 255
0.462528 -0.491216 -0.216938 153 0 76
-0.244518 -0.036110 -0.282998 76 0 153
0.123842 -0.048800 0.049412 76 0 153
0.005052 -0.053855 0.234512 76 0 153
-0.190760 -0.111101 -0.241447 76 0 153
0.085797 -0.051312 0.399320 76 0 153
0.356685 -0.111101 -0.150694 76 0 153
0.430219 -0.668784 0.539209 76 153 0
-0.009777 -0.053935 0.162030 76 0 153
-0.076462 -0.111101 -0.256057 76 0 153
-0.406534 0.512239 -0.284965 0 0 255
0.102682 -0.111101 0.211673 76 0 153
0.321492 -0.021203 -0.143267 76 0 153
-0.432666 -0.111101 0.187562 76 0 153
0.356649 -0.111101 0.305658 76 0 153
-0.011671 0.091955 -0.408552 204 51 127
0.397616 -0.425621 0.502206 76 153 0
0.325658 -0.111101 -0.152313 76 0 153
0.411504 -0.309550 0.538943 76 153 0
-0.359351 0.549880 -0.294902 0 0 255
-0.086630 -0.083301 0.503732 76 0 153
-0.108638 -0.050355 0.004359 76 0 153
-0.471845 -0.488348 -0.200316 76 0 153
0.053953 -0.111101 -0.225861 76 0 153
-0.143905 -0.111101 0.176523 76 0 153
0.425986 -0.019889 0.479520 76 0 153
-0.354541 0.655440 -0.298271 0 0 255
-0.383012 -0.350015 0.510741 0 127 127
-0.476295 -0.525579 -0.202973 76 0 153
-0.434329 -0.069068 0.258727 76 0 153
0.410460 -0.279091 0.473402 76 153 0
-0.390956 -0.111101 -0.103570 76 0 153
0.013142 -0.053677 -0.115876 76 0 153
-0.000295 0.593834 -0.421748 0 0 255
-0.015468 0.572401 -0.455586 0 0 255
0.108758 -0.111101 0.140646 76 0 153
-0.037837 -0.111101 0.232436 76 0 153
-0.356575 -0.044611 0.533247 76 0 153
-0.337410 -0.019685 -0.060174 76 0 153
-0.277900 -0.030934 0.488050 76 0 153
-0.386947 -0.111101 0.217714 76 0 153
-0.417915 -0.155715 0.481233 0 127 127
-0.386920 -0.173177 0.520676 0 127 127
-0.297530 -0.111101 0.380651 76 0 153
-0.076678 0.619506 -0.435174 0 0 255
0.285243 -0.060312 -0.286850 76 0 153
0.031969 -0.111101 0.042018 76 0 153
-0.011419 0.194810 -0.425530 204 51 127
-0.078493 -0.111101 0.060456 76 0 153
-0.365648 -0.013947 0.031001 76 0 153
-0.413599 -0.462626 0.554796 0 127 127
0.254539 -0.095010 -0.303777 76 0 153
0.307190 0.677983 -0.359969 0 0 255
-0.246002 -0.035880 -0.021052 76 0 153
-0.015931 -0.053799 0.080557 76 0 153
-0.456063 -0.637471 -0.259859 76 0 153
-0.434329 -0.107128 0.008251 76 0 153
-0.376938 -0.167367 0.458181 0 127 127
0.414466 -0.472536 -0.177301 153 0 76
-0.415208 -0.527926 -0.217973 76 0 153
0.369574 -0.111101 0.261025 76 0 153
-0.107114 -0.111101 -0.163973 76 0 153
0.016408 -0.111101 0.002356 76 0 153
-0.272005 0.521146 -0.351976 0 0 255
0.093796 -0.108914 -0.358253 76 0 153
-0.397799 0.569564 -0.259018 0 0 255
-0.429576 -0.628394 -0.230119 76 0 153
0.360409 0.547981 -0.321411 0 0 255
-0.076678 0.655018 -0.434593 0 0 255
-0.114559 -0.111101 -0.009050 76 0 153
0.310069 -0.111101 0.390425 76 0 153
0.171652 -0.111101 0.265189 76 0 153
0.252114 -0.033638 -0.250298 76 0 153
-0.434329 -0.092227 -0.098190 76 0 153
-0.215736 -0.111101 0.318912 76 0 153
0.276047 -0.029928 0.095845 76 0 153
-0.240939 -0.036664 0.064658 76 0 153
0.054065 0.435626 -0.433835 0 0 255
0.065954 -0.078056 -0.378683 204 51 127
-0.075796 0.251924 -0.458797 204 51 127
0.319378 -0.111101 0.186594 76 0 153
-0.027172 0.488170 -0.454742 0 0 255
0.336641 -0.111101 -0.122427 76 0 153
0.180213 -0.043329 0.390102 76 0 153
0.100492 0.627150 -0.444686 0 0 255
0.310340 -0.111101 0.351901 76 0 153
0.424779 -0.226621 0.497979 76 153 0
-0.333682 -0.111101 0.020893 76 0 153
0.319231 -0.111101 0.434306 76 0 153
-0.365517 0.500909 -0.290158 0 0 255
-0.009816 -0.053934 -0.332685 76 0 153
-0.162155 0.489094 -0.397719 0 0 255
-0.420639 -0.236275 0.474975 0 127 127
0.145991 -0.111101 0.391485 76 0 153
0.202892 -0.067653 -0.327041 76 0 153
-0.384089 0.479004 -0.273311 0 0 255
-0.208156 0.642739 -0.416364 0 0 255
-0.407338 -0.213325 -0.201938 76 0 153
-0.101658 -0.050815 -0.335360 76 0 153
-0.385429 -0.057371 -0.180472 76 0 153
0.391733 -0.238876 -0.205738 153 0 76
-0.238074 -0.037109 0.361831 76 0 153
-0.458473 -0.531715 0.565413 0 127 127
-0.184389 -0.043788 0.383616 76 0 153
0.448326 -0.510436 0.563953 76 153 0
-0.216811 -0.111101 -0.092339 76 0 153
0.102344 -0.111101 -0.252162 76 0 153
-0.434329 -0.088780 0.080418 76 0 153
0.160232 -0.111101 -0.137256 76 0 153
-0.009237 0.002850 -0.383333 204 51 127
-0.387875 -0.008467 -0.214274 76 0 153
0.425986 -0.041415 0.239421 76 0 153
0.092384 -0.050877 0.184463 76 0 153
0.327376 -0.020024 -0.176737 76 0 153
-0.434065 -0.041424 0.548578 76 0 153
0.404599 -0.205591 0.521939 76 153 0
0.048660 0.089261 -0.436089 204 51 127
-0.179661 -0.111101 -0.270845 76 0 153
-0.139765 -0.048300 0.356015 76 0 153
-0.220864 -0.107473 -0.323418 76 0 153
-0.434329 -0.021426 0.230274 76 0 153
0.198250 -0.111101 0.217672 76 0 153
-0.304336 0.462524 -0.367813 0 0 255
-0.309766 -0.025224 -0.009288 76 0 153
0.293873 0.514522 -0.334925 0 0 255
0.172382 -0.078291 0.509989 76 0 153
-0.254618 -0.034544 0.159665 76 0 153
-0.220652 -0.039788 0.308315 76 0 153
-0.139490 -0.111101 -0.144320 76 0 153
0.172189 -0.044214 0.164678 76 0 153
0.397411 0.528170 -0.285718 0 0 255
0.305289 -0.111101 -0.098371 76 0 153
0.045581 0.387071 -0.457203 204 51 127
-0.166788 0.592744 -0.396135 0 0 255
-0.377837 -0.300791 0.517052 0 127 127
0.359752 -0.084431 -0.234304 76 0 153
0.327182 0.529797 -0.311592 0 0 255
0.126057 -0.111101 0.071137 76 0 153
-0.434329 -0.095946 0.426668 76 0 153
-0.380579 -0.251773 0.524137 0 127 127
0.094720 -0.050723 -0.229133 76 0 153
-0.218712 0.580934 -0.412754 0 0 255
-0.130065 -0.111101 0.121824 76 0 153
0.133012 0.598108 -0.438126 0 0 255
-0.318804 -0.111101 -0.146219 76 0 153
0.397413 -0.401077 -0.220123 153 0 76
0.109219 -0.111101 -0.204718 76 0 153
-0.331477 -0.020874 0.507947 76 0 153
0.484538 -0.638728 -0.232200 153 0 76
-0.368976 -0.139378 -0.183984 76 0 153
-0.317396 -0.111101 -0.192162 76 0 153
0.205148 -0.111101 0.505734 76 0 153
0.280757 -0.111101 -0.056883 76 0 153
0.425986 -0.070503 -0.030123 76 0 153
-0.294171 -0.111101 0.494401 76 0 153
0.372583 -0.023279 0.537878 76 0 153
0.432472 -0.657406 -0.253165 153 0 76
-0.401348 -0.429972 -0.191724 76 0 153
0.177013 0.647281 -0.389787 0 0 255
0.425986 -0.020014 -0.044142 76 0 153
0.176391 -0.111101 0.485581 76 0 153
-0.127840 -0.049087 -0.103775 76 0 153
0.198446 -0.041317 0.103289 76 0 153
0.252623 -0.033560 0.050065 76 0 153
-0.384594 -0.111101 -0.053218 76 0 153
-0.448086 -0.600464 -0.192739 76 0 153
0.247753 -0.034315 -0.143928 76 0 153
-0.420893 -0.608298 0.543323 0 127 127
0.369054 -0.011050 0.081716 76 0 153
0.360165 -0.037683 0.501724 76 153 0
-0.287781 -0.111101 0.028211 76 0 153
0.351364 -0.111101 0.346199 76 0 153
0.080093 0.502310 -0.448801 0 0 255
-0.055159 -0.055557 -0.364114 204 51 127
-0.040666 0.075139 -0.403828 204 51 127
0.178194 0.474418 -0.423755 0 0 255
-0.152982 -0.111101 -0.306891 76 0 153
-0.427569 -0.654259 0.549699 0 127 127
-0.188347 -0.111101 -0.132950 76 0 153
0.358571 -0.111101 0.473564 76 0 153
-0.395952 -0.006476 0.022296 76 0 153
0.049145 -0.052886 -0.185840 76 0 153
0.079341 -0.051738 -0.006768 76 0 153
-0.012740 0.312876 -0.460625 204 51 127
0.339746 0.554242 -0.337164 0 0 255
0.328493 -0.111101 -0.071009 76 0 153
0.425986 -0.079561 0.044187 76 0 153
0.422902 -0.111101 0.004965 76 0 153
0.274471 -0.030172 0.009088 76 0 153
-0.364714 -0.014177 -0.018242 76 0 153
0.453816 -0.446558 -0.189908 153 0 76
0.245627 0.528156 -0.361044 0 0 255
0.392319 -0.131089 -0.130670 153 0 76
-0.328141 -0.111101 0.201569 76 0 153
-0.378456 -0.058800 -0.117434 76 0 153
-0.434329 -0.019952 -0.137340 76 0 153
-0.014484 -0.053831 0.002224 76 0 153
-0.056348 0.074582 -0.431347 204 51 127
0.068707 -0.052440 -0.343923 76 0 153
-0.457966 -0.505604 -0.239305 76 0 153
-0.434329 -0.019150 0.180198 76 0 153
-0.363049 -0.111101 0.103265 76 0 153
0.221416 -0.038398 0.455083 76 0 153
0.087435 -0.111101 0.256766 76 0 153
-0.171067 0.443146 -0.404535 0 0 255
0.041836 0.149950 -0.448626 204 51 127
0.002818 -0.111101 0.210949 76 0 153
0.011246 -0.111101 0.479807 76 0 153
-0.004171 0.653194 -0.438686 0 0 255
-0.080853 -0.052189 -0.291718 76 0 153
0.059117 -0.111101 0.444423 76 0 153
0.125337 -0.111101 0.166191 76 0 153
0.412383 -0.578019 0.539532 76 153 0
0.016021 0.653093 -0.454945 0 0 255
-0.017562 -0.066608 -0.384488 204 51 127
0.230582 -0.036977 0.360628 76 0 153
-0.463544 -0.437250 -0.212479 76 0 153
0.061566 -0.111101 0.494673 76 0 153
0.364800 -0.012099 0.133208 76 0 153
0.071294 -0.052269 0.153099 76 0 153
-0.036525 -0.053347 0.031541 76 0 153
-0.197912 -0.111101 0.482905 76 0 153
0.230205 -0.111101 0.389062 76 0 153
-0.358733 -0.182515 0.492604 0 127 127
0.354406 0.473796 -0.322968 0 0 255
-0.347437 -0.089296 0.488913 0 127 127
0.436685 -0.312304 0.503075 76 153 0
-0.369788 -0.111101 0.399717 76 0 153
-0.367121 -0.020293 0.535098 76 0 153
0.028392 -0.053342 0.134504 76 0 153
-0.271326 -0.111101 0.318518 76 0 153
-0.289756 -0.111101 -0.016227 76 0 153
0.156042 0.580717 -0.396957 0 0 255
0.186832 0.501347 -0.386429 0 0 255
0.435164 -0.667121 0.579702 76 153 0
0.008544 0.311407 -0.430258 204 51 127
0.223670 -0.111101 -0.260701 76 0 153
0.310126 -0.023481 0.249861 76 0 153
-0.393618 -0.285007 0.474476 0 127 127
-0.195301 0.557963 -0.386386 0 0 255
-0.115846 0.654615 -0.443272 0 0 255
-0.042823 0.315970 -0.428818 204 51 127
0.405420 -0.099104 -0.148332 153 0 76
-0.192995 -0.042839 0.080588 76 0 153
0.386951 -0.261500 -0.147066 153 0 76
0.130799 -0.048341 -0.244045 76 0 153
-0.042370 0.291204 -0.460506 204 51 127
0.425986 -0.098990 0.447878 76 0 153
-0.065509 -0.111101 0.372807 76 0 153
-0.390961 -0.069229 0.539901 76 0 153
0.312309 -0.023043 0.373150 76 0 153
-0.193843 -0.042746 0.271260 76 0 153
0.222703 -0.038198 0.226427 76 0 153
-0.103866 -0.111101 -0.113231 76 0 153
0.416309 -0.169531 -0.162249 153 0 76
0.385926 0.584618 -0.296796 0 0 255
0.212790 0.459267 -0.403167 0 0 255
-0.345889 -0.111101 0.154648 76 0 153
0.004899 -0.097549 -0.372962 204 51 127
-0.385417 0.659230 -0.305335 0 0 255
-0.071533 0.331791 -0.427378 204 51 127
0.112606 -0.111101 -0.120308 76 0 153
-0.397720 -0.121621 0.454528 0 127 127
0.357774 -0.131327 -0.182868 153 0 76
0.278497 -0.111101 0.121791 76 0 153
-0.292352 -0.111101 0.290219 76 0 153
-0.250141 -0.111101 0.488208 76 0 153
0.008421 -0.111101 -0.240723 76 0 153
-0.410635 -0.124016 -0.181425 76 0 153
-0.292801 0.552479 -0.371975 0 0 255
-0.376939 0.530638 -0.279140 0 0 255
0.033055 -0.053240 0.069509 76 0 153
0.392305 -0.111101 0.312504 76 0 153
-0.181472 -0.044110 0.248692 76 0 153
0.224595 -0.111101 0.354926 76 0 153
-0.413777 -0.088898 -0.145804 76 0 153
0.425986 -0.087829 0.251202 76 0 153
-0.011008 -0.111101 0.328301 76 0 153
0.238792 0.587535 -0.364480 0 0 255
