ply
format ascii 1.0
element vertex 1257
property float x
property float y
property float z
property uchar red
property uchar green
property uchar blue
end_header
-0.521666 0.080804 0.557601 0 127 127
-0.481625 -0.356704 0.141582 153 76 0
-0.509917 -0.257599 -0.146563 153 0 76
-0.171486 -0.093817 0.282246 0 127 127
0.065308 -0.060543 0.429610 0 127 127
-0.446870 -0.414829 0.210252 153 76 0
0.252566 -0.117364 0.034675 0 127 127
-0.329857 0.123445 -0.346384 127 127 0
0.165649 0.543215 -0.597486 127 127 0
-0.458875 -0.313664 0.081714 153 76 0
0.039363 0.017408 0.507918 0 127 127
0.479990 -0.539806 0.463232 76 0 153
0.085145 -0.032880 0.587896 0 127 127
0.002393 0.523476 -0.536844 127 127 0
0.289488 -0.018532 -0.233208 127 127 0
0.417127 -0.026871 0.174571 0 127 127
0.498868 0.012035 0.249470 76 153 0
-0.350004 0.245245 -0.362413 127 127 0
0.183780 -0.114323 0.055288 0 127 127
0.319732 -0.033736 0.207184 0 127 127
0.015578 0.287961 -0.471342 127 127 0
-0.073328 0.016970 0.500552 0 127 127
-0.420013 0.172586 -0.371744 127 127 0
-0.013109 -0.053837 0.469666 0 127 127
-0.117128 0.380818 -0.461368 127 127 0
0.346062 -0.058346 0.129785 0 127 127
0.497955 -0.435419 -0.405967 76 0 153
-0.173083 -0.563478 0.455218 153 0 76
-0.402602 -0.034925 0.163367 0 127 127
0.132610 -0.049993 -0.191375 127 127 0
0.477572 -0.020485 0.297697 76 153 0
0.453199 0.058916 0.457752 0 127 127
0.265947 -0.043087 0.566485 0 0 255
0.496197 -0.190401 -0.177928 76 0 153
-0.364916 0.042223 -0.208715 127 127 0
-0.426752 -0.149706 0.044336 0 127 127
-0.251904 -0.375535 0.445477 0 0 255
0.262015 -0.156374 0.093857 0 127 127
0.426138 -0.613442 0.572064 76 0 153
-0.310808 0.156175 -0.371142 127 127 0
0.356705 -0.049714 0.349368 0 127 127
0.196675 0.033790 0.569257 0 127 127
0.229016 0.034168 0.536121 0 127 127
-0.075827 0.652723 -0.602282 127 127 0
-0.533354 -0.047205 0.226949 153 0 76
-0.484184 0.003343 -0.229999 127 127 0
-0.475495 -0.037880 0.305333 0 127 127
0.358570 0.469705 -0.493049 127 127 0
0.471690 -0.013575 -0.154915 0 255 0
0.270922 -0.285953 0.450443 0 0 255
0.136192 0.200191 -0.345030 127 127 0
-0.218040 0.299296 -0.471860 127 127 0
0.211949 -0.040673 0.480454 0 127 127
-0.480748 0.451967 -0.528671 255 0 0
0.101892 0.536946 -0.541362 127 127 0
0.174237 -0.552399 0.437696 153 0 76
0.284821 -0.012935 0.288510 0 127 127
0.263385 0.389966 -0.520653 127 127 0
-0.044393 0.261609 -0.454588 127 127 0
0.278132 -0.133627 0.002499 0 127 127
-0.069982 -0.411277 0.432472 0 0 255
0.472094 0.027640 0.305807 0 127 127
0.524346 0.072477 0.380055 153 0 76
-0.019915 -0.010085 0.372121 0 127 127
-0.490026 -0.496255 -0.467044 153 0 76
0.531330 0.096720 0.599105 153 0 76
0.364968 -0.085046 0.060507 0 127 127
-0.475299 -0.251722 0.008973 153 76 0
0.211451 0.653167 -0.597765 127 127 0
-0.392753 -0.105926 0.160690 0 127 127
-0.535587 -0.019043 0.176717 153 0 76
0.027699 0.619708 -0.630274 127 127 0
-0.344975 0.117134 -0.271422 127 127 0
-0.031657 -0.039580 0.567760 0 0 255
-0.273281 -0.439757 0.385646 0 0 255
0.257248 -0.054744 0.388569 0 127 127
-0.181537 -0.018025 0.312251 0 127 127
-0.358582 0.055502 0.569130 0 127 127
0.493806 -0.570121 -0.533959 76 0 153
0.055564 0.154400 -0.314447 127 127 0
-0.146465 0.095184 -0.337518 127 127 0
-0.428129 0.542269 -0.542615 255 0 0
-0.329891 0.019263 0.554568 0 0 255
0.120367 -0.529474 0.460073 153 0 76
0.349996 -0.002342 0.594849 0 127 127
0.428539 -0.651108 0.596784 76 0 153
-0.470935 -0.621012 0.536396 153 76 0
-0.480169 -0.058982 0.196948 153 0 76
-0.156482 0.389962 -0.526987 127 127 0
-0.495007 -0.033246 0.117911 153 0 76
0.459350 0.456823 -0.535098 0 255 0
0.107469 0.102317 -0.274060 127 127 0
0.453042 -0.375688 0.243542 76 0 153
-0.533354 -0.131570 -0.057729 153 0 76
-0.403491 -0.045603 -0.166940 127 127 0
0.082327 0.067656 -0.318700 127 127 0
-0.481960 0.611896 -0.564280 255 0 0
-0.205089 0.558846 -0.601909 127 127 0
-0.005378 0.496865 -0.524650 127 127 0
0.209549 -0.090712 0.101174 0 127 127
-0.428130 -0.395403 0.245571 153 76 0
-0.480006 0.039753 0.470185 153 0 76
0.247893 0.245939 -0.370747 127 127 0
0.513461 0.005313 0.511504 76 153 0
-0.299304 0.189793 -0.395243 127 127 0
-0.344020 -0.552302 0.469967 153 0 76
0.258364 -0.557154 0.439508 153 0 76
0.426138 0.331306 -0.438577 0 255 0
0.136834 -0.065808 0.390803 0 127 127
-0.027548 0.041989 -0.226282 127 127 0
-0.049522 0.025582 0.572547 0 127 127
-0.115769 -0.007982 0.566533 0 0 255
-0.310527 -0.006596 0.605803 0 127 127
0.448377 0.178652 -0.307707 127 127 0
0.479900 -0.460020 0.294849 76 0 153
0.307017 -0.124967 0.150914 0 127 127
0.482193 0.174081 -0.329943 127 127 0
-0.307317 0.039524 0.507643 0 127 127
-0.136141 0.458920 -0.562042 127 127 0
-0.249914 0.001237 0.546147 0 0 255
-0.291344 0.651973 -0.589341 127 127 0
-0.405814 0.645254 -0.571218 127 127 0
-0.150826 -0.024365 0.606302 0 127 127
-0.249317 -0.217312 0.472621 0 0 255
-0.247601 -0.050040 -0.193658 127 127 0
-0.030484 0.462124 -0.565934 127 127 0
-0.127012 0.131242 -0.295550 127 127 0
0.342089 0.006399 0.323658 0 127 127
-0.008277 -0.080861 0.552742 0 0 255
0.355715 -0.537238 0.469011 153 0 76
0.438755 -0.192359 0.020586 76 0 153
-0.295888 0.444017 -0.545591 127 127 0
0.393934 0.399007 -0.513626 127 127 0
-0.445246 -0.618043 0.530856 153 76 0
-0.181266 -0.529004 0.458449 153 0 76
0.477572 -0.005296 0.277617 76 153 0
-0.533354 -0.003190 0.349411 153 0 76
-0.089146 0.508484 -0.529028 127 127 0
-0.276875 -0.067659 0.521072 0 0 255
-0.413012 0.156545 -0.293617 127 127 0
-0.464573 -0.193756 -0.051823 255 0 0
0.508260 0.073326 0.508446 0 127 127
-0.006017 0.245904 -0.379304 127 127 0
0.042721 0.355530 -0.448294 127 127 0
-0.298947 -0.057398 0.358056 0 127 127
0.124403 -0.116324 0.225468 0 127 127
0.426138 -0.009476 -0.189424 0 255 0
0.533596 -0.005172 0.207609 0 127 127
0.242366 0.042609 -0.291006 127 127 0
-0.221163 -0.018035 0.606445 0 127 127
-0.392658 -0.000745 0.269611 0 127 127
-0.303010 -0.543280 0.470973 153 0 76
-0.267573 0.014093 0.627036 0 127 127
-0.165086 -0.123635 0.198468 0 127 127
-0.082223 -0.026131 0.305740 0 127 127
-0.169280 -0.109834 0.067514 0 127 127
0.026808 -0.016259 0.346842 0 127 127
-0.093143 -0.114631 0.236731 0 127 127
-0.535587 -0.070383 0.096049 153 0 76
-0.231450 -0.028648 0.259321 0 127 127
-0.302251 -0.063313 0.559128 0 0 255
0.300859 0.046142 0.610117 0 127 127
-0.214456 0.380427 -0.518786 127 127 0
0.514628 -0.285186 -0.226744 76 0 153
0.188047 0.642440 -0.587082 127 127 0
-0.182151 -0.413658 0.415600 0 0 255
-0.189848 0.471155 -0.506778 127 127 0
0.162768 -0.122173 0.202351 0 127 127
-0.249252 -0.120179 0.184166 0 127 127
-0.020147 0.342227 -0.440478 127 127 0
-0.477518 0.087416 -0.310355 127 127 0
-0.054477 -0.191862 0.056212 0 127 127
0.200415 -0.042712 0.227538 0 127 127
-0.533354 -0.244698 -0.173305 153 0 76
-0.324175 0.492477 -0.565793 127 127 0
-0.428129 0.468055 -0.516107 255 0 0
-0.484184 0.059355 -0.266968 127 127 0
-0.021927 -0.384367 0.442273 0 0 255
0.389318 -0.024636 0.198257 0 127 127
0.400563 0.216665 -0.403248 127 127 0
-0.474375 0.066299 0.476120 0 127 127
0.023393 -0.005550 0.543680 0 0 255
0.117231 -0.097571 0.103483 0 127 127
-0.320244 0.194250 -0.329813 127 127 0
0.530653 -0.112857 -0.020431 76 153 0
0.298797 -0.071574 0.118274 0 127 127
0.477572 -0.596208 -0.573755 76 0 153
0.241939 0.144505 -0.367960 127 127 0
-0.271183 0.206886 -0.342649 127 127 0
0.068584 0.070943 -0.249649 127 127 0
-0.370530 -0.023798 0.452608 0 127 127
-0.382795 0.015758 -0.257549 127 127 0
-0.091394 0.551632 -0.603775 127 127 0
0.339541 0.017898 -0.189939 127 127 0
-0.451805 0.001748 0.501188 0 127 127
0.512897 -0.015545 0.405027 76 153 0
-0.535587 0.042916 0.433876 0 127 127
0.530636 -0.040669 0.247904 76 153 0
0.247428 -0.007001 -0.247941 127 127 0
0.510834 0.100340 0.514599 153 0 76
0.143507 -0.563478 0.458568 153 0 76
0.005100 -0.194514 0.053246 0 127 127
-0.134373 0.202275 -0.346755 127 127 0
0.050162 -0.544461 0.436274 153 0 76
-0.484184 0.086840 -0.282058 127 127 0
-0.533354 0.068263 0.586697 153 0 76
-0.163204 0.288272 -0.468133 127 127 0
-0.303592 0.013725 0.558516 0 0 255
-0.510309 -0.137160 0.062034 153 0 76
0.373643 -0.554291 0.438310 153 0 76
0.383189 0.282971 -0.447982 127 127 0
-0.002752 -0.535932 0.468587 153 0 76
0.317525 0.014129 -0.261861 127 127 0
-0.365170 0.327561 -0.477448 127 127 0
0.065217 0.026633 0.611574 0 127 127
0.174374 0.578485 -0.557318 127 127 0
-0.507255 -0.023025 0.236180 153 0 76
-0.048495 0.590314 -0.566110 127 127 0
-0.235681 0.420817 -0.478173 127 127 0
0.004118 0.115668 -0.355367 127 127 0
-0.012808 0.301674 -0.479722 127 127 0
-0.336581 0.148272 -0.295327 127 127 0
0.001173 -0.059543 0.441140 0 127 127
-0.445087 -0.092243 0.013910 0 127 127
0.161202 -0.048656 0.462369 0 127 127
-0.030344 -0.095777 0.115328 0 127 127
-0.479698 -0.469711 -0.473133 153 0 76
0.282116 0.039784 0.531394 0 127 127
0.482193 0.393570 -0.503270 127 127 0
0.309198 -0.044289 0.403045 0 127 127
-0.479823 -0.206864 -0.085230 153 0 76
0.422814 -0.022485 0.407511 0 127 127
-0.276860 -0.004210 0.323607 0 127 127
0.314346 -0.050360 -0.195966 127 127 0
-0.512723 -0.060171 0.133001 153 0 76
0.158636 -0.034754 0.545283 0 127 127
-0.395330 0.523559 -0.571806 127 127 0
-0.074720 0.585883 -0.563920 127 127 0
-0.201401 0.512755 -0.582978 127 127 0
0.086090 -0.140713 0.022108 0 127 127
-0.423155 -0.085430 0.196329 0 127 127
0.448193 -0.543112 0.496066 76 0 153
0.180389 -0.542289 0.470652 153 0 76
-0.461685 0.474874 -0.489120 127 127 0
-0.428129 0.157391 -0.326840 255 0 0
0.142048 0.653558 -0.612786 127 127 0
-0.447785 0.043205 -0.202399 127 127 0
-0.346304 -0.062471 0.120664 0 127 127
-0.534913 0.027033 0.388102 0 127 127
-0.459513 0.030506 0.327996 0 127 127
-0.428253 -0.064118 -0.136408 255 0 0
-0.221200 0.152658 -0.307120 127 127 0
0.066411 -0.120341 0.058471 0 127 127
0.016685 0.650254 -0.626802 127 127 0
-0.187044 0.138329 -0.367176 127 127 0
-0.465142 -0.167954 -0.004892 255 0 0
-0.161622 0.030942 0.565934 0 127 127
-0.188492 -0.051359 0.206835 0 127 127
0.089310 0.263189 -0.454909 127 127 0
0.474241 -0.553841 0.516836 76 0 153
-0.428129 -0.288402 0.086685 153 76 0
-0.461439 -0.578002 0.559162 153 76 0
0.141231 0.178561 -0.396687 127 127 0
0.136792 0.047534 -0.228539 127 127 0
-0.167635 -0.084057 0.315085 0 127 127
-0.244823 -0.550065 0.470693 153 0 76
0.426141 -0.565597 0.463946 76 0 153
0.023881 -0.047319 -0.216980 127 127 0
-0.512570 -0.645513 -0.595140 153 0 76
0.348236 0.474174 -0.555218 127 127 0
-0.503371 0.050060 0.384572 0 127 127
0.339598 0.325401 -0.478254 127 127 0
-0.444183 0.263223 -0.367824 255 0 0
0.499167 -0.210279 -0.073632 76 0 153
0.408092 -0.080479 0.218099 0 127 127
-0.202450 -0.092589 0.099465 0 127 127
-0.428113 0.340381 -0.478526 127 127 0
0.426138 -0.475657 0.329501 76 0 153
-0.362657 -0.082792 0.238475 0 127 127
0.482960 -0.076454 0.024516 76 153 0
0.422195 -0.094587 0.171864 0 127 127
0.169793 0.028527 0.537965 0 127 127
-0.116203 0.574800 -0.558032 127 127 0
-0.410989 0.411125 -0.518829 127 127 0
-0.268652 0.612719 -0.567157 127 127 0
0.426139 -0.577434 0.490007 76 0 153
-0.472950 -0.230535 -0.014081 153 76 0
0.426138 0.043977 -0.239652 0 255 0
-0.109444 -0.039951 -0.221604 127 127 0
-0.505055 0.073817 0.511603 153 0 76
-0.420594 0.046442 0.432209 0 127 127
0.511828 0.050842 0.387882 0 127 127
0.158648 -0.019191 0.313454 0 127 127
-0.367189 -0.010702 0.530733 0 127 127
0.193205 -0.001724 0.565412 0 0 255
-0.027147 -0.018866 0.625117 0 127 127
-0.500208 -0.059522 0.252065 153 0 76
0.091100 0.396190 -0.532485 127 127 0
0.533596 0.039590 0.453052 0 127 127
-0.251174 0.383300 -0.518220 127 127 0
-0.236086 0.465689 -0.501331 127 127 0
-0.361680 -0.149423 0.073959 0 127 127
0.038210 0.173004 -0.328401 127 127 0
0.506828 -0.007425 0.188191 0 127 127
0.399855 0.029156 -0.193053 127 127 0
-0.248125 -0.262920 0.486466 0 0 255
0.350071 0.132776 -0.350825 127 127 0
-0.319425 0.531817 -0.582673 127 127 0
0.490525 0.070214 0.374580 153 0 76
0.222081 -0.068087 0.551089 0 0 255
-0.480088 -0.237191 -0.185255 153 0 76
-0.507798 -0.453630 -0.424787 153 0 76
-0.392851 -0.026310 0.420772 0 127 127
-0.220825 0.377956 -0.455051 127 127 0
-0.479656 0.094406 0.383454 153 76 0
-0.218838 -0.099753 0.250456 0 127 127
-0.063299 -0.140707 0.169300 0 127 127
-0.236361 0.038628 0.588055 0 127 127
-0.013561 0.017683 -0.205594 127 127 0
-0.079902 -0.035640 0.576117 0 127 127
-0.226409 0.113046 -0.346493 127 127 0
0.263828 0.117985 -0.347343 127 127 0
-0.125579 0.151055 -0.378477 127 127 0
-0.037501 -0.068426 0.182464 0 127 127
0.440795 -0.128641 0.080729 0 127 127
0.365416 -0.131857 0.110208 0 127 127
0.021609 -0.046313 0.245321 0 127 127
-0.191339 0.033308 0.578247 0 127 127
-0.033968 0.617037 -0.578788 127 127 0
0.224556 -0.048110 -0.184930 127 127 0
0.118571 0.172244 -0.393135 127 127 0
-0.146174 0.582926 -0.560457 127 127 0
0.370614 -0.019568 0.472579 0 127 127
0.249229 0.142768 -0.297730 127 127 0
0.230998 -0.089479 0.275860 0 127 127
0.046842 -0.198297 0.037988 0 127 127
-0.273212 -0.284582 0.457635 0 0 255
-0.181704 -0.005506 0.572614 0 0 255
0.472882 -0.179488 -0.066263 0 255 0
0.514095 -0.081704 0.082661 0 127 127
0.218658 -0.060369 0.383901 0 127 127
0.120382 -0.088522 0.547964 0 0 255
0.529221 -0.125342 -0.067630 76 153 0
0.180491 -0.012393 -0.180425 127 127 0
-0.385761 -0.016667 0.224600 0 127 127
0.481540 0.053404 0.399725 0 127 127
-0.423383 0.534191 -0.517486 127 127 0
-0.320778 0.100103 -0.330142 127 127 0
0.339094 -0.000578 0.299798 0 127 127
0.346612 -0.043575 -0.170357 127 127 0
0.023655 0.047823 -0.231389 127 127 0
0.361593 0.609137 -0.608601 127 127 0
0.288265 0.008928 0.367913 0 127 127
-0.089474 -0.050214 0.229597 0 127 127
0.520446 -0.401128 -0.440523 76 0 153
-0.110510 -0.093875 0.113573 0 127 127
0.426142 0.143241 -0.302074 0 255 0
0.436854 -0.091974 0.017007 0 127 127
0.159637 0.159309 -0.382767 127 127 0
-0.125349 -0.184126 0.065531 0 127 127
-0.386338 0.477870 -0.553465 127 127 0
0.336329 -0.529004 0.453607 153 0 76
-0.141981 0.446681 -0.496469 127 127 0
-0.188565 0.500396 -0.521545 127 127 0
-0.479781 0.031489 0.518533 153 0 76
0.426138 -0.294079 0.099842 76 0 153
0.495176 -0.028528 0.355358 76 153 0
0.462997 -0.421492 0.219270 76 0 153
0.406546 0.104594 -0.254712 127 127 0
-0.025014 -0.017975 0.539157 0 0 255
-0.294102 -0.045519 -0.203377 127 127 0
0.526407 0.107389 0.575045 153 0 76
0.304841 0.001000 0.546063 0 0 255
-0.516942 0.023133 0.621425 153 0 76
-0.195231 0.060196 -0.308445 127 127 0
-0.252693 -0.333536 0.460767 0 0 255
-0.014370 -0.132554 0.193607 0 127 127
-0.152768 -0.422942 0.391759 0 0 255
-0.168568 0.025986 0.522244 0 127 127
0.477712 -0.289948 -0.310091 76 0 153
-0.479563 0.009210 0.446109 153 0 76
-0.278857 -0.220904 0.489250 0 0 255
-0.481982 -0.195191 -0.000045 153 76 0
0.457191 -0.193178 -0.052416 0 255 0
-0.178898 -0.045446 0.473306 0 127 127
-0.069202 -0.051814 -0.203394 127 127 0
0.228168 0.254174 -0.442726 127 127 0
-0.533351 -0.439712 -0.420747 153 0 76
0.129258 -0.088800 0.121725 0 127 127
0.005850 -0.021181 -0.178905 127 127 0
0.062239 0.118149 -0.287353 127 127 0
0.336794 0.370705 -0.504079 127 127 0
0.477918 -0.372530 0.154307 76 0 153
0.477572 0.029798 0.345041 76 153 0
-0.422748 0.242569 -0.353003 127 127 0
-0.310317 0.408305 -0.527229 127 127 0
0.114112 -0.001498 0.395572 0 127 127
-0.229031 -0.011863 0.316391 0 127 127
-0.499327 -0.358306 -0.396131 153 0 76
-0.142846 0.396828 -0.469433 127 127 0
-0.428305 -0.066415 -0.167726 255 0 0
-0.403610 0.584230 -0.541851 127 127 0
-0.340579 0.531323 -0.524818 127 127 0
-0.148461 -0.045018 0.486659 0 127 127
-0.179601 0.465948 -0.563745 127 127 0
-0.101620 -0.032984 0.585319 0 127 127
-0.080415 0.229874 -0.367776 127 127 0
-0.533354 -0.471380 -0.461819 153 0 76
0.002486 0.431785 -0.491768 127 127 0
-0.502686 -0.043890 0.299078 153 0 76
-0.085077 -0.130002 0.040705 0 127 127
0.410968 -0.034770 0.366385 0 127 127
0.197479 -0.138850 0.152892 0 127 127
-0.470835 -0.009224 0.422125 0 127 127
0.267924 -0.089129 0.087715 0 127 127
-0.480010 0.109499 0.533043 153 76 0
-0.487488 -0.099749 0.144545 153 0 76
-0.479563 -0.373665 -0.373864 153 0 76
0.477572 -0.117676 0.035291 76 153 0
0.234457 0.425728 -0.540945 127 127 0
0.084238 0.312538 -0.485409 127 127 0
-0.332565 0.367356 -0.440886 127 127 0
0.240007 0.372008 -0.512374 127 127 0
0.212874 -0.053199 0.418136 0 127 127
-0.427559 0.014626 -0.178924 127 127 0
0.477647 0.101748 -0.320637 127 127 0
-0.533354 -0.131118 -0.011265 153 0 76
0.426138 -0.094794 -0.124440 0 255 0
-0.512300 -0.268768 -0.288102 153 0 76
0.236776 -0.335397 0.451339 0 0 255
0.459024 0.208099 -0.394698 127 127 0
0.530924 -0.156805 -0.092010 76 0 153
-0.481951 -0.384764 0.195225 153 76 0
0.037567 0.064410 -0.244734 127 127 0
0.145467 0.567703 -0.553792 127 127 0
0.324510 0.185134 -0.389518 127 127 0
0.175561 0.025404 0.514654 0 127 127
0.221378 0.537425 -0.591898 127 127 0
0.440134 -0.075422 0.045812 0 127 127
0.259294 0.097880 -0.262918 127 127 0
-0.257343 0.096863 -0.332922 127 127 0
0.487455 0.107426 0.567992 153 0 76
0.060528 0.432418 -0.491387 127 127 0
-0.059402 -0.015239 0.347931 0 127 127
0.271336 -0.013637 0.599061 0 127 127
-0.393296 0.058104 0.533702 0 127 127
0.278094 -0.082543 0.515660 0 0 255
0.487172 -0.003595 0.200224 76 153 0
0.107503 0.025978 -0.283948 127 127 0
0.531201 0.058526 0.481924 76 153 0
-0.331092 0.055639 -0.295149 127 127 0
0.100692 -0.033911 -0.227379 127 127 0
0.017853 -0.074501 0.374773 0 127 127
0.485141 -0.192768 -0.043342 76 153 0
-0.411740 0.222268 -0.406276 127 127 0
0.193773 0.003163 0.391120 0 127 127
-0.428176 0.648143 -0.603611 255 0 0
-0.071866 0.063840 -0.243949 127 127 0
-0.069677 0.521700 -0.535301 127 127 0
-0.217720 -0.059213 0.390465 0 127 127
-0.390573 -0.017705 0.465755 0 127 127
0.013818 0.493009 -0.580138 127 127 0
-0.243255 -0.452409 0.381035 0 0 255
0.186398 0.232114 -0.365214 127 127 0
-0.428644 0.478962 -0.539121 255 0 0
-0.263257 -0.423321 0.428091 0 0 255
-0.533354 -0.103057 0.024575 153 0 76
0.524316 -0.065063 0.048742 76 153 0
0.458026 -0.139862 0.048579 0 127 127
-0.114478 0.077284 -0.325595 127 127 0
0.315400 0.606816 -0.612017 127 127 0
-0.322398 -0.128004 0.138122 0 127 127
0.105467 0.551184 -0.602964 127 127 0
-0.006660 -0.116164 0.238377 0 127 127
0.479818 -0.606203 0.564640 76 0 153
0.413465 0.020617 0.589674 0 0 255
-0.480717 -0.573593 0.546897 153 76 0
0.531363 -0.486484 -0.489549 76 0 153
0.529003 -0.028515 0.130789 0 127 127
0.287347 -0.027181 0.241676 0 127 127
-0.506831 -0.509957 -0.543057 153 0 76
-0.377092 0.035189 0.420085 0 127 127
0.533596 -0.021204 0.161101 0 127 127
-0.251671 -0.060719 0.368207 0 127 127
-0.263103 -0.533085 0.465038 153 0 76
-0.075710 0.119213 -0.357174 127 127 0
-0.530493 -0.134724 -0.085280 153 0 76
0.438848 -0.010261 0.208019 0 127 127
0.372147 0.440107 -0.476652 127 127 0
0.180096 0.064348 -0.240492 127 127 0
-0.281285 -0.170442 0.006945 0 127 127
-0.210725 0.577125 -0.554852 127 127 0
-0.433899 -0.023670 0.174241 0 127 127
0.169256 0.107343 -0.345316 127 127 0
-0.207146 -0.056913 0.185746 0 127 127
0.374101 0.216339 -0.339614 127 127 0
0.531353 -0.532859 -0.549667 76 0 153
0.396402 0.483468 -0.554386 127 127 0
-0.460290 -0.293874 0.058414 153 76 0
0.477463 0.660087 -0.601294 0 255 0
0.458037 -0.348172 0.122367 76 0 153
0.114772 -0.046563 0.235496 0 127 127
0.438197 -0.034574 -0.136166 0 255 0
-0.157024 -0.052941 0.442343 0 127 127
-0.365224 -0.481315 0.386069 0 0 255
0.501537 0.077288 0.331006 153 0 76
0.429394 -0.339372 0.113046 76 0 153
0.294161 -0.162079 0.072373 0 127 127
-0.126619 -0.001575 0.629033 0 127 127
-0.325369 -0.035472 -0.165919 127 127 0
-0.084626 0.047770 -0.230706 127 127 0
-0.307832 0.008810 0.354936 0 127 127
-0.010142 0.059665 -0.241255 127 127 0
0.400237 -0.111560 0.141635 0 127 127
0.011544 -0.085634 0.333623 0 127 127
0.523394 -0.258319 -0.147774 76 0 153
0.315518 0.598119 -0.556029 127 127 0
0.355618 0.352023 -0.492000 127 127 0
0.531363 -0.413554 -0.424345 76 0 153
0.426184 0.221072 -0.384229 0 255 0
-0.404180 0.049917 -0.211257 127 127 0
0.435000 -0.590112 0.581943 76 0 153
0.448377 -0.063176 0.068149 0 127 127
0.478430 -0.100132 0.126354 0 127 127
-0.136670 0.092888 -0.265610 127 127 0
-0.479563 -0.277213 -0.263485 153 0 76
0.210752 -0.027891 0.563340 0 127 127
-0.027314 0.168787 -0.392704 127 127 0
-0.261470 0.562863 -0.545592 127 127 0
0.451810 -0.557463 0.522829 76 0 153
0.286485 0.534195 -0.530168 127 127 0
-0.479658 0.044766 0.600976 153 0 76
0.394628 -0.014931 0.473349 0 127 127
-0.379557 -0.007820 -0.168479 127 127 0
-0.426913 0.043545 0.623102 0 127 127
-0.083042 0.206628 -0.351486 127 127 0
-0.000481 0.066762 -0.318992 127 127 0
0.333558 0.093366 -0.253148 127 127 0
0.415931 -0.005003 -0.166198 127 127 0
-0.333411 0.600385 -0.555883 127 127 0
-0.399114 -0.495801 0.401718 0 0 255
0.150872 -0.030584 0.580248 0 127 127
0.426138 0.292623 -0.409800 0 255 0
0.321661 0.464475 -0.552894 127 127 0
-0.409460 -0.558297 0.441082 153 0 76
0.225926 0.505493 -0.578226 127 127 0
-0.388012 0.097520 -0.251554 127 127 0
-0.479966 -0.103469 -0.015728 153 0 76
0.479991 -0.109392 -0.102080 0 255 0
0.247419 0.463115 -0.558144 127 127 0
0.340182 0.166084 -0.375092 127 127 0
0.469437 -0.150623 -0.022162 0 255 0
-0.116270 0.165142 -0.321177 127 127 0
0.498033 -0.099836 0.144663 76 153 0
0.430884 -0.013427 -0.222783 0 255 0
-0.344686 -0.027048 0.457930 0 127 127
0.029542 -0.408460 0.433499 0 0 255
-0.459595 0.051717 0.416690 0 127 127
0.200276 0.589121 -0.613709 127 127 0
-0.260295 -0.120265 0.538385 0 0 255
-0.480496 -0.070140 0.135840 153 0 76
0.443135 0.510506 -0.559018 0 255 0
0.498721 -0.255148 -0.269989 76 0 153
-0.053977 -0.061171 0.559905 0 0 255
-0.112198 -0.003237 0.389300 0 127 127
0.027766 0.306766 -0.482593 127 127 0
0.252220 -0.168852 0.499806 0 0 255
-0.038336 0.363911 -0.453497 127 127 0
-0.499642 -0.582236 -0.601563 153 0 76
0.292336 -0.053645 0.165956 0 127 127
0.422710 -0.003839 0.502314 0 127 127
0.482193 0.416732 -0.473075 127 127 0
0.161387 0.368759 -0.515008 127 127 0
0.386858 0.017642 0.587187 0 0 255
-0.262770 -0.030238 0.507888 0 127 127
0.478766 0.078351 0.544993 0 127 127
0.101872 0.559692 -0.551697 127 127 0
0.196552 -0.107007 0.236619 0 127 127
-0.018274 -0.176709 0.089603 0 127 127
0.437256 0.421223 -0.460957 127 127 0
0.476910 0.415923 -0.518736 127 127 0
-0.468479 0.401929 -0.450558 127 127 0
-0.061458 0.431471 -0.490976 127 127 0
0.115860 -0.133805 0.181154 0 127 127
0.495624 -0.040789 0.309108 76 153 0
0.448419 -0.652678 0.615871 76 0 153
0.291796 0.638057 -0.621536 127 127 0
0.513746 -0.421242 -0.391316 76 0 153
0.342486 -0.012330 0.544136 0 127 127
0.530251 -0.653135 -0.616232 76 0 153
-0.000110 -0.047870 -0.217291 127 127 0
-0.428132 0.041094 -0.248980 255 0 0
0.163243 0.005953 0.627768 0 127 127
-0.438323 -0.648985 0.622336 153 76 0
-0.481191 -0.551801 0.500640 153 76 0
0.531000 0.036655 0.566638 76 153 0
-0.459816 -0.448314 0.255620 153 76 0
0.323396 0.284290 -0.454669 127 127 0
-0.428993 0.118612 -0.318534 255 0 0
-0.163737 -0.071398 0.545121 0 0 255
-0.311246 -0.141541 -0.001821 0 127 127
0.019204 -0.371154 0.415058 0 0 255
-0.018202 0.561323 -0.608518 127 127 0
0.411199 0.011771 -0.250351 127 127 0
0.262489 0.505637 -0.519162 127 127 0
0.482193 0.366095 -0.470956 127 127 0
-0.530748 0.098218 0.491025 153 76 0
0.363453 0.115275 -0.267505 127 127 0
0.024034 -0.037161 0.573992 0 127 127
0.202566 -0.531515 0.444763 153 0 76
0.209555 -0.179696 0.011536 0 127 127
0.123822 0.601735 -0.621702 127 127 0
-0.223902 -0.067929 0.550961 0 0 255
0.150195 -0.075128 0.350999 0 127 127
-0.119511 0.428677 -0.488066 127 127 0
0.479991 -0.046243 -0.170268 0 255 0
0.208177 0.394168 -0.464548 127 127 0
-0.484184 0.128366 -0.308050 127 127 0
-0.236950 0.022624 0.624576 0 127 127
-0.360916 -0.044855 -0.198261 127 127 0
0.446915 0.351151 -0.483946 127 127 0
0.102008 -0.091389 0.306068 0 127 127
-0.236488 -0.048637 0.198696 0 127 127
0.360764 0.053027 0.536093 0 127 127
-0.457409 -0.471101 0.286915 153 76 0
-0.341518 -0.024407 0.547919 0 0 255
0.509040 0.044755 0.540496 0 127 127
-0.345975 -0.105469 0.183992 0 127 127
-0.277485 -0.053519 0.562681 0 0 255
-0.466035 0.173098 -0.371144 127 127 0
0.533596 -0.000400 0.271067 0 127 127
0.292487 0.005340 0.577648 0 0 255
0.368197 0.346525 -0.424375 127 127 0
-0.324864 0.583237 -0.602841 127 127 0
0.067008 -0.012591 0.356865 0 127 127
0.034228 -0.016154 -0.247559 127 127 0
-0.533087 -0.380168 -0.353756 153 0 76
0.482193 0.101453 -0.281985 127 127 0
0.505684 0.066895 0.623526 76 153 0
-0.287257 0.350938 -0.434770 127 127 0
-0.172108 0.117622 -0.283848 127 127 0
0.478968 -0.277642 0.112124 76 0 153
-0.125021 -0.023691 0.537076 0 0 255
0.531362 -0.166147 -0.035232 76 153 0
0.113902 0.040693 -0.223374 127 127 0
-0.304628 -0.071190 0.117565 0 127 127
0.076097 0.233554 -0.370295 127 127 0
0.358867 0.640161 -0.573081 127 127 0
-0.058590 0.129527 -0.295971 127 127 0
0.468409 0.640833 -0.565409 0 255 0
0.490422 -0.267043 -0.181450 76 0 153
0.414727 0.313853 -0.399468 127 127 0
0.115005 0.416458 -0.481209 127 127 0
0.526284 -0.071615 0.214543 76 153 0
0.052455 0.230002 -0.368105 127 127 0
-0.481982 -0.561202 0.470953 153 76 0
0.163372 -0.033554 0.264617 0 127 127
-0.360271 0.021206 -0.264356 127 127 0
0.471120 0.031544 -0.195015 0 255 0
0.446390 -0.125966 -0.121362 0 255 0
0.451868 -0.504143 0.338650 76 0 153
-0.275053 -0.094616 0.245498 0 127 127
-0.506116 -0.538652 -0.505836 153 0 76
-0.533354 -0.023565 0.283566 153 0 76
0.239711 0.523059 -0.528558 127 127 0
0.477572 -0.628406 -0.595626 76 0 153
-0.134341 0.333246 -0.496401 127 127 0
0.072914 -0.045174 0.510423 0 127 127
-0.164381 0.328649 -0.428749 127 127 0
-0.085350 -0.529700 0.460384 153 0 76
0.029577 -0.064951 0.558530 0 0 255
-0.333346 0.023490 0.625907 0 127 127
0.502131 0.020791 0.406937 0 127 127
-0.414264 -0.159598 0.014279 0 127 127
-0.407769 0.305912 -0.459839 127 127 0
-0.107295 -0.043184 0.515438 0 127 127
0.477572 -0.155592 -0.067826 76 153 0
0.323615 -0.080887 0.262458 0 127 127
0.211563 0.235543 -0.366040 127 127 0
-0.328461 0.035990 0.465115 0 127 127
-0.360756 0.050708 0.522240 0 127 127
0.081805 -0.053774 0.219826 0 127 127
-0.424320 0.014033 0.604693 0 127 127
-0.465230 0.634106 -0.609878 255 0 0
-0.035865 -0.050051 0.486605 0 127 127
-0.492622 0.134205 0.556463 153 76 0
0.464886 0.334162 -0.474482 127 127 0
0.339269 0.267039 -0.442675 127 127 0
0.530362 -0.014490 0.296345 76 153 0
-0.479857 0.360325 -0.489393 127 127 0
-0.120513 0.032570 -0.289062 127 127 0
-0.411521 -0.047967 0.124617 0 127 127
0.181532 0.436410 -0.549187 127 127 0
-0.091559 0.026861 0.585144 0 127 127
-0.324954 0.051001 0.607686 0 127 127
0.468549 0.170707 -0.369152 127 127 0
-0.466792 0.088681 -0.241546 255 0 0
-0.535587 -0.026952 0.201197 153 0 76
0.409215 -0.063320 0.267988 0 127 127
-0.116550 -0.051245 -0.201852 127 127 0
-0.192592 0.178346 -0.327551 127 127 0
0.243321 -0.038528 0.224562 0 127 127
-0.437191 -0.119850 0.103070 0 127 127
-0.428234 0.103761 -0.288193 255 0 0
0.274785 -0.448204 0.419033 0 0 255
-0.351341 -0.114601 0.011378 0 127 127
-0.275463 -0.264626 0.485195 0 0 255
-0.326179 0.333127 -0.420698 127 127 0
0.482193 0.051856 -0.238895 127 127 0
-0.382681 -0.158132 0.047933 0 127 127
0.466210 0.516597 -0.508470 127 127 0
0.376569 0.060295 -0.222004 127 127 0
-0.487933 -0.264275 -0.159154 153 0 76
-0.329849 0.309898 -0.470120 127 127 0
-0.093638 0.631337 -0.633610 127 127 0
-0.193594 0.641082 -0.586327 127 127 0
-0.481980 0.184519 -0.357276 255 0 0
-0.473412 0.009590 0.521430 0 127 127
-0.468998 0.059255 0.444576 0 127 127
-0.372621 0.513710 -0.513532 127 127 0
0.426148 0.510244 -0.524204 0 255 0
-0.263480 -0.132444 0.006630 0 127 127
0.230215 -0.149872 0.002650 0 127 127
-0.380128 0.016664 0.585300 0 0 255
0.160763 -0.130305 0.030633 0 127 127
0.520772 -0.018826 0.248397 0 127 127
0.158228 0.279797 -0.462948 127 127 0
-0.062388 0.600809 -0.623060 127 127 0
-0.342561 -0.079332 0.258536 0 127 127
0.344214 -0.036187 -0.209130 127 127 0
-0.242906 0.653930 -0.598915 127 127 0
0.528608 -0.010813 0.425273 76 153 0
-0.362007 0.353790 -0.492812 127 127 0
-0.206903 -0.459494 0.404696 0 0 255
0.426142 -0.151672 -0.075239 0 255 0
-0.498920 0.104628 0.544765 153 76 0
0.389052 -0.503983 0.362266 0 0 255
-0.004870 -0.045069 0.250379 0 127 127
0.452588 0.159201 -0.293510 127 127 0
-0.005749 0.439765 -0.555470 127 127 0
-0.480192 -0.007410 0.316249 153 0 76
-0.479771 -0.039028 0.282999 153 0 76
0.458788 -0.093818 0.152315 0 127 127
-0.195409 -0.028616 0.573934 0 127 127
0.169689 -0.015634 0.540012 0 0 255
0.144895 0.125516 -0.359416 127 127 0
-0.526541 0.012899 0.569407 153 0 76
0.036881 0.391809 -0.530902 127 127 0
-0.036116 -0.036449 0.275742 0 127 127
0.100918 0.144935 -0.374942 127 127 0
0.380680 -0.104026 0.171124 0 127 127
0.166508 -0.071652 0.552572 0 0 255
0.477572 -0.464160 -0.465504 76 0 153
0.233286 0.273412 -0.389701 127 127 0
-0.452509 0.590158 -0.592262 255 0 0
0.165464 -0.162315 0.003979 0 127 127
-0.003146 0.007784 0.457107 0 127 127
-0.533330 -0.260004 -0.189697 153 0 76
0.196558 0.535798 -0.592673 127 127 0
-0.082583 -0.106417 0.087601 0 127 127
0.486243 -0.309854 -0.259678 76 0 153
0.231577 0.284138 -0.461551 127 127 0
-0.433872 -0.304569 0.072111 153 76 0
0.112338 -0.109743 0.076680 0 127 127
0.161588 -0.183606 0.013382 0 127 127
-0.258132 -0.561366 0.445311 153 0 76
0.138548 0.445070 -0.495579 127 127 0
-0.419779 0.451821 -0.478075 127 127 0
-0.294487 -0.429570 0.389456 0 0 255
0.252512 -0.440706 0.385296 0 0 255
-0.484184 0.213163 -0.382395 127 127 0
-0.207203 0.245313 -0.373042 127 127 0
-0.192818 -0.085052 0.305906 0 127 127
0.269554 0.651377 -0.588571 127 127 0
0.351637 0.013880 0.579522 0 0 255
0.218613 -0.168271 0.080361 0 127 127
0.073838 0.199308 -0.413115 127 127 0
-0.111115 0.190948 -0.339636 127 127 0
0.410590 0.461339 -0.483319 127 127 0
0.220331 -0.046110 0.210886 0 127 127
0.513723 -0.328222 -0.283763 76 0 153
-0.328634 -0.019462 0.515658 0 127 127
0.257392 0.011066 0.392759 0 127 127
-0.375683 -0.007866 0.256933 0 127 127
0.264379 0.042214 0.592459 0 127 127
0.301175 -0.498056 0.387840 0 0 255
0.505626 -0.618440 -0.572949 76 0 153
-0.238568 -0.334914 0.443507 0 0 255
-0.512994 0.084751 0.431911 153 76 0
-0.138339 -0.069651 0.375217 0 127 127
-0.465380 -0.145209 -0.004068 0 127 127
-0.479325 -0.082624 -0.159959 255 0 0
-0.021897 -0.553412 0.438025 153 0 76
0.477774 0.114479 0.469257 153 0 76
0.477572 -0.226032 -0.118199 76 0 153
0.211045 -0.011794 0.622760 0 127 127
0.477573 -0.353314 -0.327431 76 0 153
-0.210680 -0.118866 0.199992 0 127 127
-0.387407 0.009943 0.549313 0 0 255
0.130629 0.014832 -0.274017 127 127 0
0.338582 0.052541 0.568011 0 127 127
-0.374136 -0.012894 0.509672 0 127 127
-0.479563 -0.508009 -0.524304 153 0 76
0.479619 -0.464407 0.322250 76 0 153
0.424009 0.027831 0.344886 0 127 127
-0.221069 0.056294 -0.303766 127 127 0
-0.121670 -0.059787 0.196700 0 127 127
0.491282 -0.043426 0.095601 0 127 127
-0.428456 -0.526714 0.405903 153 76 0
0.475923 0.604719 -0.596841 0 255 0
-0.356445 0.145463 -0.359743 127 127 0
-0.472732 -0.017062 0.386443 0 127 127
0.182929 0.515171 -0.528311 127 127 0
-0.164501 -0.135959 0.020646 0 127 127
-0.180415 0.205229 -0.347055 127 127 0
-0.171196 0.488488 -0.574511 127 127 0
0.479991 -0.018213 -0.184852 0 255 0
0.275501 -0.034169 0.475316 0 127 127
-0.442077 -0.049222 0.105166 0 127 127
0.223978 -0.118502 0.196006 0 127 127
0.004892 0.408780 -0.540565 127 127 0
-0.398484 -0.048461 0.326873 0 127 127
0.190012 0.036637 -0.216659 127 127 0
0.216815 0.144044 -0.369127 127 127 0
0.110796 -0.008427 -0.253254 127 127 0
-0.442087 0.093769 -0.244312 127 127 0
-0.139337 -0.075682 0.530117 0 0 255
-0.103502 -0.014253 0.625700 0 127 127
-0.451899 0.637663 -0.563822 255 0 0
-0.281081 0.116290 -0.345160 127 127 0
-0.300600 0.612062 -0.614702 127 127 0
0.213728 0.612181 -0.570074 127 127 0
0.497372 -0.633574 -0.634973 76 0 153
0.497903 -0.228995 -0.234641 76 0 153
0.416222 -0.047095 -0.167272 127 127 0
0.482500 0.026502 0.623780 76 153 0
0.250389 -0.292430 0.439264 0 0 255
-0.465977 0.497240 -0.556992 127 127 0
0.002524 0.276425 -0.399415 127 127 0
0.528375 -0.053930 0.265737 76 153 0
0.359874 -0.006968 0.563787 0 127 127
-0.356887 -0.137816 0.100756 0 127 127
0.217398 0.352788 -0.440314 127 127 0
0.431766 0.535826 -0.517459 127 127 0
-0.088322 -0.064033 0.522392 0 0 255
0.429494 0.142223 -0.344080 0 255 0
0.300980 0.489959 -0.508416 127 127 0
-0.343414 0.076481 -0.239178 127 127 0
-0.202856 -0.426347 0.390524 0 0 255
0.264416 -0.076595 0.304875 0 127 127
-0.237128 -0.002904 -0.252653 127 127 0
0.081347 0.439987 -0.494960 127 127 0
0.432625 -0.018468 0.188396 0 127 127
0.443122 -0.606233 0.610272 76 0 153
0.472498 0.372690 -0.495943 127 127 0
0.479807 -0.585999 0.493194 76 0 153
-0.330321 0.022632 0.398197 0 127 127
-0.069623 0.052810 -0.306886 127 127 0
0.082178 0.260581 -0.388022 127 127 0
-0.235393 0.037675 0.559910 0 127 127
-0.051536 -0.042382 0.531709 0 127 127
-0.252490 -0.045358 0.565659 0 0 255
-0.429843 -0.275139 0.041208 153 76 0
-0.480563 -0.024575 0.183504 153 0 76
-0.504679 0.026862 0.294918 153 0 76
0.273603 -0.400548 0.399916 0 0 255
0.306338 0.316389 -0.475528 127 127 0
-0.411723 -0.533581 0.441917 153 0 76
0.322079 0.285758 -0.391071 127 127 0
0.178587 0.641957 -0.626926 127 127 0
-0.167956 0.055637 -0.234345 127 127 0
-0.388361 0.430747 -0.530627 127 127 0
0.216962 0.003457 0.557064 0 0 255
0.005321 0.573654 -0.559463 127 127 0
0.029153 0.000794 0.417964 0 127 127
0.458530 -0.304524 0.070970 76 0 153
-0.051733 -0.120609 0.058806 0 127 127
0.260816 -0.036121 -0.171235 127 127 0
0.480316 -0.145954 -0.107243 76 0 153
0.311890 0.187632 -0.325396 127 127 0
0.156350 -0.132963 0.175536 0 127 127
-0.071356 0.560176 -0.607468 127 127 0
-0.037621 -0.091368 0.312316 0 127 127
0.455113 0.108770 -0.319795 0 255 0
0.080505 0.325211 -0.429301 127 127 0
0.418392 -0.146099 0.054933 0 127 127
0.480260 -0.524616 -0.555162 76 0 153
0.407421 0.404729 -0.453656 127 127 0
0.513474 0.037720 0.496570 0 127 127
-0.290653 -0.128335 0.150628 0 127 127
0.416551 0.654468 -0.587953 127 127 0
0.361890 0.259757 -0.370199 127 127 0
-0.209128 -0.110364 0.223147 0 127 127
0.005298 0.543440 -0.545874 127 127 0
-0.440795 -0.345339 0.119031 153 76 0
-0.430196 -0.573423 0.549817 153 76 0
-0.535007 0.008971 0.249689 153 0 76
0.426150 -0.367539 0.208281 76 0 153
0.074326 0.397069 -0.471554 127 127 0
-0.180970 0.314413 -0.419277 127 127 0
0.317478 0.550846 -0.590448 127 127 0
-0.394306 0.061699 0.568715 0 127 127
-0.288184 -0.053294 0.380027 0 127 127
-0.529186 0.102014 0.616722 153 76 0
-0.266661 0.483586 -0.508399 127 127 0
0.231921 -0.020171 0.285701 0 127 127
0.291134 0.404887 -0.464853 127 127 0
0.364031 0.076667 -0.308500 127 127 0
-0.447534 0.069124 0.529516 0 127 127
-0.300755 -0.004354 0.310752 0 127 127
-0.489540 -0.140262 -0.097817 153 0 76
-0.384964 0.051196 -0.286168 127 127 0
-0.042305 0.055594 -0.309453 127 127 0
0.477952 0.440679 -0.471054 127 127 0
-0.414872 -0.020052 -0.156324 127 127 0
-0.029188 0.040026 -0.296925 127 127 0
-0.411763 0.243686 -0.420315 127 127 0
0.533105 -0.047994 0.085643 0 127 127
-0.186835 0.534735 -0.537227 127 127 0
0.363031 -0.167020 0.014390 0 127 127
-0.299410 0.214775 -0.345864 127 127 0
0.108227 0.212011 -0.354294 127 127 0
-0.034198 0.016857 0.505573 0 127 127
-0.459506 0.394116 -0.501566 255 0 0
-0.170668 -0.034088 0.261674 0 127 127
-0.407311 0.065054 0.592901 0 127 127
0.526171 0.079642 0.557762 76 153 0
0.463120 -0.002601 0.214560 0 127 127
0.473977 -0.321288 0.170401 76 0 153
-0.448980 0.286343 -0.381107 127 127 0
0.030995 -0.113545 0.244103 0 127 127
-0.130780 -0.099638 0.272843 0 127 127
0.427976 0.028244 -0.193233 0 255 0
0.105085 -0.185808 0.014214 0 127 127
-0.490727 0.060013 0.430427 0 127 127
0.170153 0.384457 -0.461340 127 127 0
0.113247 0.445059 -0.556010 127 127 0
0.272069 -0.045665 -0.204637 127 127 0
0.351749 0.251289 -0.431099 127 127 0
-0.388931 -0.030053 -0.211677 127 127 0
0.044687 0.267079 -0.458103 127 127 0
-0.480018 -0.109500 0.081305 153 0 76
-0.481982 0.160059 -0.324631 255 0 0
-0.236991 -0.167289 0.004332 0 127 127
-0.054022 -0.169095 0.006164 0 127 127
-0.104048 -0.429573 0.399055 0 0 255
0.082224 -0.017982 0.539154 0 0 255
0.067794 0.004799 -0.196043 127 127 0
0.399710 -0.030865 -0.209145 127 127 0
-0.472287 -0.476185 0.388863 153 76 0
-0.026322 0.148253 -0.310280 127 127 0
0.098256 0.362027 -0.513570 127 127 0
-0.207112 0.310177 -0.415172 127 127 0
-0.436321 -0.569359 0.441730 153 76 0
0.531052 -0.094713 0.027641 76 153 0
0.477572 -0.238387 -0.194690 76 0 153
-0.071662 0.376437 -0.522175 127 127 0
0.384091 -0.006323 -0.236542 127 127 0
0.078978 -0.041048 -0.180636 127 127 0
0.498313 0.137737 0.588907 153 0 76
-0.474060 0.533396 -0.568431 255 0 0
-0.099256 0.398113 -0.471665 127 127 0
0.135916 0.002667 -0.192576 127 127 0
-0.087939 0.343397 -0.440419 127 127 0
-0.045509 -0.101612 0.532607 0 0 255
-0.121853 -0.139541 0.165630 0 127 127
0.473162 -0.290484 0.133838 76 0 153
-0.054581 0.502768 -0.583800 127 127 0
-0.433576 -0.030086 -0.206853 255 0 0
-0.074944 0.281460 -0.401954 127 127 0
0.479327 -0.403941 0.272695 76 0 153
-0.253359 0.175590 -0.322098 127 127 0
-0.349935 0.405205 -0.460510 127 127 0
0.088052 0.357653 -0.448967 127 127 0
-0.336601 -0.021072 0.236132 0 127 127
-0.150095 0.190036 -0.337657 127 127 0
0.166343 -0.080039 0.135558 0 127 127
0.133396 0.002673 0.407635 0 127 127
-0.136449 -0.145451 0.149131 0 127 127
-0.155617 0.432328 -0.548600 127 127 0
0.040688 -0.007609 0.558001 0 0 255
-0.030507 0.023359 0.550559 0 127 127
-0.121006 -0.050371 0.468867 0 127 127
0.104416 -0.102562 0.269514 0 127 127
-0.428163 -0.376632 0.191981 153 76 0
0.479726 -0.572140 0.534722 76 0 153
-0.533354 -0.433870 -0.445267 153 0 76
0.433378 -0.485467 0.402953 76 0 153
0.221419 0.449294 -0.493585 127 127 0
0.189931 0.464327 -0.562105 127 127 0
0.006360 0.538865 -0.599466 127 127 0
-0.447244 -0.615884 0.623457 153 76 0
0.250114 0.222739 -0.420835 127 127 0
-0.415911 0.507787 -0.563030 127 127 0
-0.034102 0.570529 -0.557828 127 127 0
-0.098163 -0.536758 0.438776 153 0 76
-0.293994 0.599601 -0.558759 127 127 0
0.063294 -0.379592 0.421290 0 0 255
-0.449892 -0.338211 0.192538 153 76 0
0.479972 -0.512717 0.377394 76 0 153
0.531363 -0.384686 -0.367677 76 0 153
0.465997 -0.048970 0.274349 0 127 127
-0.133899 0.250265 -0.445052 127 127 0
0.223853 0.080325 -0.250864 127 127 0
-0.296944 -0.021094 -0.166909 127 127 0
0.047126 -0.063915 0.416736 0 127 127
-0.063265 -0.189039 0.016003 0 127 127
0.034836 -0.176143 0.008020 0 127 127
-0.290965 -0.561823 0.461703 153 0 76
-0.533354 -0.015366 0.307286 153 0 76
0.508179 -0.177552 -0.158222 76 0 153
0.369253 -0.009423 -0.168101 127 127 0
0.258915 -0.371717 0.446867 0 0 255
-0.152197 -0.084662 0.127645 0 127 127
0.080279 0.056118 -0.237495 127 127 0
0.333017 -0.071300 0.288107 0 127 127
-0.457197 0.361666 -0.427662 127 127 0
0.426168 0.433781 -0.513463 0 255 0
0.533596 0.014465 0.330760 0 127 127
-0.176436 -0.100265 0.261402 0 127 127
0.280020 -0.492428 0.394954 0 0 255
-0.364152 -0.561425 0.445392 153 0 76
-0.325326 -0.074170 0.284080 0 127 127
0.256807 0.010548 0.550823 0 0 255
-0.428292 0.550876 -0.566964 255 0 0
-0.435284 -0.026049 0.382357 0 127 127
-0.451238 -0.434567 0.237004 153 76 0
0.477572 -0.260112 -0.243474 76 0 153
-0.155172 0.583073 -0.613802 127 127 0
-0.095808 0.590957 -0.565637 127 127 0
-0.397019 -0.486422 0.382208 0 0 255
0.467856 -0.081765 0.178516 0 127 127
0.283669 -0.040121 0.439552 0 127 127
-0.362706 0.124670 -0.344151 127 127 0
0.288479 -0.044450 0.417328 0 127 127
-0.085497 0.243490 -0.442254 127 127 0
-0.039291 -0.024067 0.317110 0 127 127
-0.515297 -0.052222 0.076960 153 0 76
0.481401 0.037072 0.324935 76 153 0
0.196704 0.040137 -0.291680 127 127 0
-0.455543 0.536454 -0.520490 255 0 0
-0.403069 -0.008291 0.503399 0 127 127
0.428681 -0.483481 0.308767 76 0 153
-0.178080 -0.001734 0.627420 0 127 127
-0.515480 0.025008 0.427629 0 127 127
0.064425 -0.176045 0.088400 0 127 127
-0.299168 0.568480 -0.599215 127 127 0
-0.189533 0.618058 -0.574740 127 127 0
-0.072264 -0.020889 -0.242300 127 127 0
0.479728 0.107778 -0.254902 127 127 0
0.468275 -0.345817 0.203492 76 0 153
-0.533354 0.037688 0.369077 153 0 76
0.264369 0.651648 -0.614992 127 127 0
0.420173 0.005630 0.269353 0 127 127
-0.019910 0.085104 -0.261761 127 127 0
-0.038897 0.350241 -0.508224 127 127 0
-0.420856 0.220909 -0.338432 127 127 0
0.133761 0.131989 -0.295651 127 127 0
-0.180239 0.118020 -0.352791 127 127 0
0.531107 -0.507599 -0.494406 76 0 153
0.518606 0.125081 0.496652 153 0 76
-0.256696 0.107950 -0.271719 127 127 0
0.205353 -0.025555 0.278648 0 127 127
-0.237121 -0.390403 0.440066 0 0 255
-0.481982 -0.297107 0.098292 153 76 0
0.131914 -0.052122 0.563197 0 0 255
0.304167 0.551472 -0.536566 127 127 0
0.286271 -0.156567 -0.001443 0 127 127
0.191382 -0.042161 0.566827 0 0 255
0.458787 -0.068592 0.220017 0 127 127
-0.318277 -0.023431 -0.225833 127 127 0
-0.455676 -0.208012 -0.037200 255 0 0
0.016286 0.414077 -0.481777 127 127 0
0.098417 0.509716 -0.585802 127 127 0
-0.225543 0.416137 -0.537161 127 127 0
-0.230674 -0.039693 0.531249 0 0 255
-0.479955 -0.610335 -0.597068 153 0 76
0.348924 0.290885 -0.456403 127 127 0
-0.509278 -0.030718 0.347022 153 0 76
0.439407 -0.627672 0.548549 76 0 153
0.009434 0.160621 -0.387242 127 127 0
0.496548 -0.447355 -0.487125 76 0 153
0.005750 0.358841 -0.513263 127 127 0
-0.409574 -0.070893 0.246290 0 127 127
0.505056 -0.505079 -0.475107 76 0 153
-0.039241 0.117321 -0.287092 127 127 0
0.071793 0.034686 -0.219300 127 127 0
0.047312 0.066942 -0.318551 127 127 0
-0.031303 0.311297 -0.485349 127 127 0
-0.251786 0.613013 -0.618859 127 127 0
-0.402615 -0.031617 0.388622 0 127 127
0.311998 0.041579 -0.212502 127 127 0
0.451533 0.054398 0.436705 0 127 127
-0.228307 -0.032419 -0.172104 127 127 0
0.073739 -0.099129 0.283932 0 127 127
-0.157320 0.014338 -0.272861 127 127 0
0.125326 0.029109 0.611530 0 127 127
-0.456457 -0.352691 0.212330 153 76 0
0.023999 -0.033432 0.286270 0 127 127
-0.479897 0.026127 0.379918 153 0 76
0.530702 -0.135711 0.022033 76 153 0
-0.533354 -0.295950 -0.291771 153 0 76
-0.268166 -0.379233 0.427937 0 0 255
0.359960 0.022699 0.559180 0 0 255
-0.533354 0.013852 0.306798 153 0 76
0.526987 -0.332721 -0.365999 76 0 153
-0.292836 -0.031145 -0.219381 127 127 0
-0.441722 0.145929 -0.352399 127 127 0
-0.231074 -0.082464 0.114586 0 127 127
0.531172 -0.193619 -0.151032 76 0 153
0.001777 -0.022394 0.326391 0 127 127
0.477572 -0.140348 0.004322 76 153 0
-0.031738 -0.042772 -0.221278 127 127 0
0.405370 0.129727 -0.273840 127 127 0
-0.126945 -0.040017 0.252692 0 127 127
-0.275979 0.609529 -0.615916 127 127 0
0.063328 0.560134 -0.552760 127 127 0
-0.000707 -0.138985 0.029090 0 127 127
-0.191122 0.028249 0.526484 0 127 127
0.473803 0.551949 -0.527649 0 255 0
-0.247497 0.150971 -0.372469 127 127 0
0.023875 -0.175851 0.091031 0 127 127
-0.476753 -0.430751 0.318022 153 76 0
0.441018 -0.079679 0.199734 0 127 127
-0.041642 -0.399286 0.400370 0 0 255
0.477572 -0.073981 0.125272 76 153 0
-0.273086 -0.016703 0.281687 0 127 127
-0.258413 0.241997 -0.367889 127 127 0
0.216866 -0.083621 0.300587 0 127 127
0.002616 0.471796 -0.511987 127 127 0
0.351077 -0.108818 0.020824 0 127 127
-0.531875 -0.170471 -0.007404 153 0 76
0.030822 0.156158 -0.316062 127 127 0
0.453474 -0.615437 0.526075 76 0 153
0.434747 0.177182 -0.373576 127 127 0
-0.341422 0.631830 -0.617868 127 127 0
-0.035396 -0.192982 0.018491 0 127 127
0.384660 0.325123 -0.473376 127 127 0
0.131299 0.022844 0.518090 0 127 127
0.286543 0.025032 0.442522 0 127 127
0.038170 0.134913 -0.368959 127 127 0
0.325272 0.095570 -0.325969 127 127 0
0.295590 0.006598 -0.185790 127 127 0
0.327551 0.408393 -0.463818 127 127 0
0.165372 0.015583 0.460567 0 127 127
-0.399885 0.019862 0.336362 0 127 127
0.206197 -0.033980 0.524801 0 127 127
-0.073655 0.513507 -0.588088 127 127 0
0.001976 -0.409740 0.396567 0 0 255
0.478984 0.532600 -0.563955 0 255 0
-0.312801 -0.025585 0.493404 0 127 127
0.295082 0.436955 -0.541863 127 127 0
-0.469437 0.026228 0.304315 0 127 127
-0.160754 -0.063948 0.392189 0 127 127
0.169196 0.029451 0.614120 0 127 127
0.272665 -0.081790 0.284625 0 127 127
-0.366292 0.346897 -0.425318 127 127 0
-0.484184 0.431116 -0.525155 127 127 0
-0.428245 -0.614043 0.566549 153 76 0
0.120959 -0.043337 0.507429 0 127 127
-0.285694 -0.138382 0.512755 0 0 255
0.189439 -0.136490 0.016015 0 127 127
-0.478607 0.010271 -0.179113 255 0 0
-0.479807 0.095718 0.407760 153 76 0
-0.302218 0.000471 -0.250960 127 127 0
0.368129 -0.026485 0.439079 0 127 127
0.332842 0.036533 0.462484 0 127 127
-0.516748 0.044453 0.544084 0 127 127
0.025020 -0.053216 0.225370 0 127 127
-0.381985 0.025028 0.371640 0 127 127
-0.169355 -0.042415 0.236393 0 127 127
-0.446701 -0.061247 -0.180386 255 0 0
-0.425686 -0.046814 0.311707 0 127 127
0.057395 0.166619 -0.390789 127 127 0
0.431471 0.107587 -0.324784 127 127 0
-0.038572 -0.017337 -0.181202 127 127 0
-0.236043 0.083719 -0.253274 127 127 0
-0.003870 0.635005 -0.588336 127 127 0
0.288013 -0.098117 0.529839 0 0 255
0.379910 0.471566 -0.491733 127 127 0
0.254479 -0.465798 0.376166 0 0 255
-0.458093 0.602391 -0.549075 255 0 0
-0.140344 -0.113994 0.229260 0 127 127
0.051757 0.592823 -0.620240 127 127 0
-0.303633 -0.120389 0.016901 0 127 127
-0.526779 -0.193747 -0.045013 153 0 76
0.418821 -0.036825 0.147970 0 127 127
0.284904 0.482318 -0.564359 127 127 0
0.377338 0.323592 -0.409382 127 127 0
-0.024348 -0.015592 -0.248196 127 127 0
0.403595 0.058011 0.614310 0 127 127
0.036519 0.013829 0.485920 0 127 127
0.531363 -0.273795 -0.233494 76 0 153
-0.110277 0.261470 -0.453212 127 127 0
-0.003248 0.593095 -0.567812 127 127 0
0.313740 -0.117256 0.018393 0 127 127
-0.428137 -0.190130 -0.003239 153 76 0
-0.425965 0.589529 -0.541756 127 127 0
0.167324 0.356537 -0.445472 127 127 0
0.007434 -0.132081 0.195148 0 127 127
0.248540 0.050507 -0.225253 127 127 0
0.451898 0.443141 -0.472332 127 127 0
0.397040 0.635471 -0.612965 127 127 0
-0.310153 0.117483 -0.274546 127 127 0
-0.305888 -0.035105 0.449413 0 127 127
-0.469479 0.258089 -0.362552 127 127 0
-0.166984 0.621731 -0.627572 127 127 0
0.308608 0.451781 -0.488489 127 127 0
-0.044588 -0.027172 -0.236250 127 127 0
-0.484184 0.522830 -0.531408 127 127 0
-0.515878 -0.554671 -0.520480 153 0 76
0.097992 -0.145358 0.155826 0 127 127
-0.449703 0.182685 -0.312976 255 0 0
0.461978 -0.408414 0.286800 76 0 153
0.531222 0.022727 0.591164 76 153 0
-0.467797 0.034684 -0.268813 127 127 0
-0.407556 0.331479 -0.475358 127 127 0
-0.318712 0.038527 0.489720 0 127 127
-0.052698 -0.062407 0.197341 0 127 127
0.167720 0.011110 0.436844 0 127 127
-0.500054 0.019636 0.270047 153 0 76
-0.367132 0.099246 -0.255149 127 127 0
-0.313892 0.384162 -0.451815 127 127 0
0.278802 0.055084 -0.298482 127 127 0
0.531363 0.034053 0.357254 76 153 0
0.421814 0.066622 0.549620 0 127 127
-0.289295 0.298038 -0.402253 127 127 0
-0.282369 0.589332 -0.608678 127 127 0
-0.428129 -0.137159 -0.084819 255 0 0
0.533596 0.060641 0.455856 0 127 127
0.273218 -0.023377 0.259343 0 127 127
0.426160 0.593420 -0.582441 0 255 0
0.362188 0.541013 -0.582166 127 127 0
0.479573 -0.600518 0.516120 76 0 153
0.330396 -0.076935 0.092749 0 127 127
0.145450 -0.052544 0.212030 0 127 127
-0.533354 -0.516914 -0.518788 153 0 76
-0.428472 0.299474 -0.402682 255 0 0
0.453464 -0.018856 -0.218323 0 255 0
-0.007466 0.381156 -0.525468 127 127 0
-0.334065 0.031744 -0.202532 127 127 0
-0.271345 -0.448762 0.418829 0 0 255
0.430178 0.627137 -0.607190 0 255 0
0.361051 -0.503419 0.364739 0 0 255
0.289929 0.066858 -0.235269 127 127 0
0.032111 -0.125175 0.211496 0 127 127
-0.498624 0.036685 0.328677 153 0 76
-0.352702 -0.025024 0.216880 0 127 127
-0.159208 -0.026155 0.289919 0 127 127
-0.403626 -0.137049 0.082251 0 127 127
-0.015577 0.622259 -0.631374 127 127 0
-0.476107 -0.031519 0.327463 0 127 127
-0.481895 -0.058766 -0.126306 255 0 0
0.528262 -0.541390 -0.569391 76 0 153
-0.484184 0.251014 -0.418953 127 127 0
-0.460386 0.504626 -0.506859 255 0 0
-0.518683 0.039518 0.513165 0 127 127
