ply
format ascii 1.0
element vertex 1258
property float x
property float y
property float z
property uchar red
property uchar green
property uchar blue
end_header
0.414740 -0.149376 0.040911 0 127 127
0.176788 -0.066872 0.374846 0 127 127
0.478766 0.009631 0.458637 76 153 0
-0.508309 0.132736 0.554352 153 76 0
-0.513681 0.014308 0.571688 153 0 76
0.466533 0.156273 -0.359292 127 127 0
0.091059 0.248714 -0.379953 127 127 0
-0.491197 -0.150099 0.032429 153 0 76
0.230301 -0.109286 0.054224 0 127 127
0.446089 0.252033 -0.423544 0 255 0
-0.502514 -0.094433 0.052903 153 0 76
0.119797 0.467889 -0.507776 127 127 0
-0.071628 -0.030366 0.599696 0 127 127
-0.070610 -0.121892 0.217686 0 127 127
0.067000 -0.133836 0.034842 0 127 127
0.254529 -0.049515 0.412713 0 127 127
0.452696 -0.007625 -0.161410 0 255 0
-0.084384 0.179828 -0.399672 127 127 0
0.478766 -0.350347 -0.324374 76 0 153
-0.198366 -0.088593 0.109948 0 127 127
-0.532160 -0.082509 0.169002 153 0 76
0.201323 0.241713 -0.370707 127 127 0
-0.508142 -0.350055 -0.385024 153 0 76
-0.303212 -0.442429 0.386987 0 0 255
-0.454776 -0.146392 0.037560 0 127 127
-0.488982 -0.150528 -0.113904 153 0 76
0.123930 -0.152902 0.016957 0 127 127
-0.046517 -0.020745 0.328738 0 127 127
0.265492 -0.061113 0.359683 0 127 127
0.504270 -0.053629 0.148704 0 127 127
-0.114328 -0.021475 0.586194 0 127 127
0.258222 0.005304 -0.187969 127 127 0
0.098635 0.021671 0.525110 0 127 127
0.371895 -0.529004 0.455974 153 0 76
0.053719 0.018529 0.512837 0 127 127
-0.174789 0.525747 -0.533850 127 127 0
0.192868 -0.454696 0.402000 0 0 255
-0.456950 -0.479605 0.302395 153 76 0
0.501884 -0.313224 -0.341775 76 0 153
-0.417124 0.200609 -0.324624 127 127 0
-0.532160 -0.053499 0.225529 153 0 76
-0.082391 -0.058187 0.560983 0 0 255
0.050834 0.272590 -0.396308 127 127 0
0.277498 -0.001692 0.331730 0 127 127
0.507547 0.079280 0.558988 0 127 127
-0.342349 0.243743 -0.427620 127 127 0
-0.480757 -0.076755 0.060308 153 0 76
0.172291 -0.148303 0.006439 0 127 127
0.177593 0.623180 -0.625618 127 127 0
0.508897 -0.616676 -0.626833 76 0 153
0.205280 0.545850 -0.540936 127 127 0
-0.011035 -0.067124 0.406624 0 127 127
0.324685 0.438041 -0.539946 127 127 0
0.420805 -0.126416 0.043987 0 127 127
-0.419864 0.060855 0.608037 0 127 127
-0.402976 -0.079050 0.226815 0 127 127
-0.451089 -0.233545 0.065485 153 76 0
-0.029825 -0.103737 0.532496 0 0 255
-0.350873 0.013506 0.622546 0 127 127
-0.045937 0.244726 -0.443508 127 127 0
0.447735 -0.474973 0.295125 76 0 153
-0.454108 0.025206 -0.255230 255 0 0
0.353710 -0.063544 0.114306 0 127 127
-0.400410 -0.053534 0.307779 0 127 127
0.260481 -0.138786 0.531646 0 0 255
-0.298798 -0.157129 -0.000884 0 127 127
-0.145079 -0.171732 0.088130 0 127 127
-0.429354 0.001563 -0.191348 255 0 0
0.421879 -0.013366 -0.194121 0 255 0
0.039484 0.607875 -0.604811 127 127 0
-0.502604 -0.133098 -0.082297 153 0 76
-0.433316 -0.035191 0.348324 0 127 127
-0.066188 0.566043 -0.609803 127 127 0
0.020118 0.337804 -0.501499 127 127 0
0.530169 0.115433 0.471335 153 0 76
0.354600 0.010675 0.576693 0 0 255
-0.051007 0.504412 -0.527663 127 127 0
-0.503129 0.097019 0.488297 153 76 0
0.460894 0.481649 -0.545681 0 255 0
0.300215 -0.016078 0.569562 0 0 255
0.120627 0.174911 -0.394900 127 127 0
0.533596 -0.018255 0.243320 0 127 127
-0.302269 0.362600 -0.502918 127 127 0
-0.483322 0.093688 -0.244248 127 127 0
-0.322460 0.011267 0.355060 0 127 127
0.459329 0.335731 -0.468941 127 127 0
-0.474445 -0.051444 0.261620 0 127 127
0.096135 -0.050439 0.476887 0 127 127
0.194389 0.033926 -0.286762 127 127 0
0.222750 -0.021107 -0.235398 127 127 0
-0.497133 -0.607341 -0.619578 153 0 76
0.272245 0.006380 -0.258451 127 127 0
0.460773 -0.603839 0.507309 76 0 153
0.447736 -0.599812 0.597104 76 0 153
-0.314337 0.030240 0.447785 0 127 127
0.436236 0.044994 0.620207 0 127 127
-0.265465 0.322319 -0.419048 127 127 0
0.303754 0.106464 -0.335670 127 127 0
-0.060027 -0.028639 -0.177503 127 127 0
-0.374253 0.612116 -0.597860 127 127 0
-0.098380 0.621317 -0.629813 127 127 0
-0.464055 -0.452131 0.262849 153 76 0
0.362595 -0.496288 0.365067 0 0 255
-0.135938 0.407249 -0.537142 127 127 0
0.166201 -0.013983 -0.210075 127 127 0
-0.055285 0.275074 -0.463125 127 127 0
-0.049960 0.328381 -0.431682 127 127 0
-0.163025 0.550221 -0.545413 127 127 0
0.478766 -0.408923 -0.396598 76 0 153
-0.207044 -0.547246 0.471609 153 0 76
0.247515 0.647609 -0.619918 127 127 0
0.475737 0.138576 -0.346798 127 127 0
0.451691 -0.386662 0.174132 76 0 153
0.354372 0.263465 -0.438799 127 127 0
-0.271652 -0.069479 0.133014 0 127 127
0.478766 -0.630249 0.604714 76 0 153
-0.382202 -0.067568 0.093937 0 127 127
-0.290660 0.245012 -0.432667 127 127 0
-0.186936 0.654404 -0.603585 127 127 0
0.481435 0.571937 -0.587486 127 127 0
-0.076862 -0.399785 0.400193 0 0 255
0.345146 0.352284 -0.493250 127 127 0
-0.371324 0.057116 0.557230 0 127 127
-0.425707 0.286786 -0.381807 127 127 0
-0.445074 0.049951 0.423475 0 127 127
-0.504537 -0.336792 -0.296583 153 0 76
0.229173 0.605487 -0.617984 127 127 0
-0.018678 0.605184 -0.625144 127 127 0
0.478766 -0.060708 0.173579 76 153 0
0.497008 -0.252635 -0.141098 76 0 153
-0.531162 -0.230003 -0.106262 153 0 76
-0.006451 -0.012977 -0.206332 127 127 0
0.302760 0.283996 -0.391500 127 127 0
-0.507228 0.093991 0.357017 153 76 0
0.419335 -0.009423 -0.229957 127 127 0
0.453825 -0.127161 0.077372 0 127 127
-0.350970 -0.046305 0.366986 0 127 127
-0.043250 -0.143459 0.163899 0 127 127
-0.489435 -0.298024 -0.323926 153 0 76
-0.470770 -0.075921 -0.165631 255 0 0
0.481784 0.409541 -0.515569 127 127 0
-0.532160 -0.166713 -0.034315 153 0 76
-0.142163 0.626159 -0.626810 127 127 0
-0.301100 0.621553 -0.617817 127 127 0
0.478766 -0.520867 -0.525143 76 0 153
-0.312675 -0.068002 0.311268 0 127 127
-0.133297 -0.047317 0.480254 0 127 127
0.035620 0.201548 -0.348400 127 127 0
-0.108746 -0.130129 0.038386 0 127 127
-0.507732 -0.526803 -0.556497 153 0 76
0.183485 0.013477 -0.198023 127 127 0
0.144019 -0.009909 0.576257 0 0 255
0.195356 0.482126 -0.511711 127 127 0
0.227597 0.003011 -0.258341 127 127 0
0.452802 -0.102469 -0.073265 0 255 0
0.297795 -0.445757 0.410971 0 0 255
-0.356231 0.242015 -0.359631 127 127 0
0.406526 0.423816 -0.524861 127 127 0
0.419782 -0.529442 0.460029 153 0 76
-0.430098 -0.289952 0.055686 153 76 0
0.035234 0.179467 -0.332959 127 127 0
-0.160049 0.262023 -0.451852 127 127 0
-0.462550 -0.034828 0.128784 0 127 127
-0.454264 -0.098008 -0.145871 255 0 0
-0.532160 -0.289755 -0.268909 153 0 76
0.472560 -0.025766 0.350224 76 153 0
0.465259 -0.521437 0.368046 76 0 153
0.215750 0.221401 -0.421982 127 127 0
0.225905 -0.052211 0.191478 0 127 127
-0.015776 0.489438 -0.520780 127 127 0
0.062138 0.617103 -0.627160 127 127 0
0.067180 0.022884 0.595015 0 127 127
0.498306 0.131475 0.544375 153 0 76
0.327710 0.186320 -0.390072 127 127 0
-0.142397 -0.123118 0.045828 0 127 127
-0.429354 0.245843 -0.396978 255 0 0
0.118995 -0.394510 0.419167 0 0 255
0.288583 -0.064483 0.139807 0 127 127
0.322316 -0.484916 0.369205 0 0 255
0.194648 0.006696 0.405837 0 127 127
0.445163 -0.646022 0.584725 76 0 153
0.149362 -0.074610 0.555013 0 0 255
-0.148543 0.006032 -0.194601 127 127 0
-0.484184 0.224023 -0.347792 127 127 0
-0.409365 -0.069062 0.076374 0 127 127
0.055016 0.561034 -0.553269 127 127 0
0.035022 0.243564 -0.377384 127 127 0
0.530169 -0.147730 -0.105155 76 0 153
-0.245059 -0.024142 -0.178683 127 127 0
-0.532160 -0.022267 0.238324 153 0 76
-0.079208 -0.085568 0.328051 0 127 127
-0.003885 -0.026649 0.310677 0 127 127
-0.263345 0.209580 -0.411672 127 127 0
0.173217 -0.053883 0.431644 0 127 127
0.348533 0.053958 0.559980 0 127 127
-0.354154 0.642137 -0.575058 127 127 0
-0.473354 0.583351 -0.538583 255 0 0
0.015685 0.419173 -0.545426 127 127 0
0.038408 0.002249 0.424305 0 127 127
0.329733 0.592138 -0.552308 127 127 0
-0.522220 -0.010232 0.425000 153 0 76
-0.217062 0.077976 -0.321515 127 127 0
-0.528988 -0.147589 -0.108759 153 0 76
-0.199870 -0.426845 0.390343 0 0 255
0.470384 -0.452911 0.350709 76 0 153
0.459218 0.476196 -0.493768 127 127 0
0.482193 0.464307 -0.520648 127 127 0
-0.437785 0.025726 -0.187368 255 0 0
0.121850 -0.126177 0.199813 0 127 127
-0.454462 -0.626559 0.549006 153 76 0
0.106037 0.501086 -0.581908 127 127 0
-0.275430 -0.053147 0.173729 0 127 127
-0.154069 -0.079761 0.333147 0 127 127
-0.182405 0.389329 -0.525514 127 127 0
-0.143072 0.122876 -0.357783 127 127 0
0.318191 0.082491 -0.245603 127 127 0
0.202584 -0.134893 0.160696 0 127 127
-0.102851 -0.019297 0.624115 0 127 127
-0.299996 0.399524 -0.523273 127 127 0
-0.153539 -0.117159 0.217525 0 127 127
-0.079419 0.039705 -0.296111 127 127 0
-0.480757 0.301320 -0.412306 255 0 0
-0.292808 -0.066980 0.557791 0 0 255
0.407039 -0.487640 0.385634 0 0 255
0.478766 0.056633 0.527354 76 153 0
0.473629 0.134612 -0.275562 127 127 0
0.427363 0.215659 -0.354886 0 255 0
0.478766 -0.127514 0.010779 76 153 0
-0.235686 -0.394048 0.438740 0 0 255
-0.113154 0.268488 -0.457711 127 127 0
-0.242145 0.279224 -0.393352 127 127 0
-0.480757 -0.422686 -0.427784 153 0 76
0.361308 0.005213 0.307447 0 127 127
0.002920 -0.530956 0.462111 153 0 76
0.041488 0.147704 -0.309631 127 127 0
0.272713 0.445243 -0.488138 127 127 0
-0.221908 -0.086865 0.288780 0 127 127
0.510974 -0.408684 -0.380055 76 0 153
-0.461468 -0.103803 0.029850 153 0 76
-0.448049 0.056716 0.454434 0 127 127
-0.463864 0.552366 -0.528620 127 127 0
-0.154349 -0.024252 0.605739 0 127 127
0.518846 -0.522128 -0.552323 76 0 153
-0.215333 -0.036275 -0.173899 127 127 0
-0.123456 -0.007814 -0.253561 127 127 0
0.470581 -0.400963 0.275481 76 0 153
0.107974 0.042065 -0.224785 127 127 0
0.206522 0.055489 -0.303593 127 127 0
0.108646 0.504983 -0.526600 127 127 0
0.253379 -0.130285 0.037977 0 127 127
-0.165763 0.008214 0.627229 0 127 127
-0.431199 -0.497166 0.419119 153 76 0
0.066209 -0.426871 0.406903 0 0 255
0.192569 -0.108195 0.066840 0 127 127
0.375655 -0.012818 -0.165094 127 127 0
0.293031 0.329726 -0.420905 127 127 0
-0.532160 -0.414964 -0.389017 153 0 76
0.416625 0.466904 -0.544493 127 127 0
-0.061874 0.059403 -0.240464 127 127 0
0.145312 -0.021982 0.306660 0 127 127
-0.400217 -0.040157 -0.199314 127 127 0
0.123873 0.011802 -0.271461 127 127 0
0.023253 0.366298 -0.454951 127 127 0
0.172408 -0.075641 0.145611 0 127 127
-0.007056 0.433507 -0.492613 127 127 0
-0.280268 0.609581 -0.598396 127 127 0
0.423903 0.440427 -0.471340 127 127 0
-0.480757 -0.110280 -0.096129 255 0 0
-0.260997 -0.086259 0.514306 0 0 255
0.001555 -0.148996 0.011740 0 127 127
-0.429354 -0.438309 0.288165 153 76 0
-0.255609 -0.030428 0.244211 0 127 127
0.417977 -0.116567 0.120212 0 127 127
-0.482156 -0.179890 -0.159804 153 0 76
-0.321036 -0.049483 -0.181356 127 127 0
-0.377172 0.180880 -0.381969 127 127 0
0.021717 -0.081692 0.149392 0 127 127
-0.178527 -0.012167 -0.203313 127 127 0
-0.335694 0.367129 -0.440504 127 127 0
0.399878 0.300141 -0.392654 127 127 0
-0.271625 -0.035776 0.470613 0 127 127
-0.393443 -0.008429 -0.189369 127 127 0
0.098545 0.205684 -0.350211 127 127 0
-0.429354 -0.000463 -0.230348 255 0 0
-0.450341 -0.094469 -0.081464 255 0 0
0.203779 0.456160 -0.557368 127 127 0
-0.480757 0.056743 0.523874 153 0 76
-0.361763 0.451124 -0.483823 127 127 0
-0.032436 -0.057906 0.446120 0 127 127
-0.141298 -0.557086 0.468216 153 0 76
-0.376664 0.352621 -0.490630 127 127 0
0.482716 -0.007902 0.436941 76 153 0
-0.037586 0.093544 -0.268405 127 127 0
-0.434674 0.022830 0.319532 0 127 127
-0.480757 -0.018573 0.222763 153 0 76
0.427363 0.531413 -0.540059 0 255 0
0.454223 -0.472894 0.381598 76 0 153
-0.032697 -0.008506 0.559999 0 0 255
0.328262 0.265916 -0.442845 127 127 0
0.530169 -0.055082 0.185337 76 153 0
-0.337675 0.040575 0.482989 0 127 127
0.377674 0.005359 0.601662 0 127 127
0.357694 0.232664 -0.352772 127 127 0
-0.116262 -0.128782 0.194491 0 127 127
0.487590 -0.100716 0.139357 76 153 0
-0.303263 -0.053249 0.162959 0 127 127
0.353826 0.044102 0.486246 0 127 127
-0.188181 0.221100 -0.357702 127 127 0
0.450269 0.070388 0.586690 0 127 127
-0.363341 -0.035659 -0.170659 127 127 0
-0.294589 -0.049179 0.527797 0 0 255
-0.060033 -0.176071 0.088686 0 127 127
-0.429354 -0.362954 0.178077 153 76 0
0.060367 -0.050776 -0.205137 127 127 0
0.390422 0.036926 0.623845 0 127 127
0.189320 -0.044166 0.226820 0 127 127
0.183138 0.268376 -0.454684 127 127 0
0.130739 0.206718 -0.416427 127 127 0
0.193306 0.034047 0.595059 0 127 127
0.329940 0.651902 -0.585200 127 127 0
0.427363 -0.184270 -0.055453 0 255 0
-0.008163 -0.039032 0.269587 0 127 127
-0.209099 0.279996 -0.395776 127 127 0
0.207313 0.332469 -0.492275 127 127 0
-0.333688 0.039879 -0.282110 127 127 0
-0.456362 -0.061354 0.069178 0 127 127
-0.448087 -0.138146 0.057967 0 127 127
-0.429354 -0.632269 0.609660 153 76 0
0.478766 0.064641 0.456113 0 127 127
-0.152496 0.604940 -0.569687 127 127 0
-0.253620 0.422464 -0.538569 127 127 0
0.240508 0.506331 -0.520911 127 127 0
0.034597 -0.067445 0.402596 0 127 127
-0.446879 -0.090575 0.168932 0 127 127
-0.106242 0.096999 -0.269993 127 127 0
-0.063956 -0.428289 0.412607 0 0 255
-0.532160 -0.532444 -0.509418 153 0 76
0.502376 -0.132785 0.068408 76 153 0
-0.229756 -0.002082 0.575877 0 0 255
0.482193 0.166389 -0.318747 0 255 0
-0.223107 -0.392884 0.416050 0 0 255
-0.296427 -0.139020 0.123005 0 127 127
0.035659 0.382903 -0.526051 127 127 0
-0.112465 0.587431 -0.616977 127 127 0
-0.184479 0.345761 -0.501593 127 127 0
0.530169 -0.620807 -0.617035 76 0 153
0.240875 0.527556 -0.530533 127 127 0
-0.487063 -0.077117 0.093383 153 0 76
-0.331201 0.511816 -0.516727 127 127 0
0.349882 0.408475 -0.461840 127 127 0
-0.468757 -0.451187 0.348044 153 76 0
0.101605 0.169099 -0.324445 127 127 0
-0.283936 0.032026 0.618375 0 127 127
-0.431420 0.429239 -0.468194 127 127 0
0.215964 -0.547746 0.436185 153 0 76
-0.401449 -0.063256 0.275191 0 127 127
0.202871 0.609942 -0.597042 127 127 0
0.001530 0.165596 -0.390768 127 127 0
-0.456001 0.079528 -0.233113 255 0 0
0.516618 -0.033237 0.206992 0 127 127
-0.028118 -0.134789 0.186926 0 127 127
0.478766 0.523766 -0.544276 0 255 0
-0.310686 -0.545365 0.435981 153 0 76
0.429493 0.060817 -0.282092 0 255 0
-0.458970 -0.567125 0.439930 153 76 0
0.478766 -0.216058 -0.168540 76 0 153
-0.429354 -0.319858 0.127054 153 76 0
-0.342864 -0.011246 -0.179306 127 127 0
-0.510497 0.017187 0.389258 0 127 127
0.009970 -0.000076 0.415985 0 127 127
0.322882 0.162436 -0.374000 127 127 0
0.222360 -0.008229 0.618829 0 127 127
0.341943 -0.048410 0.363502 0 127 127
0.109501 0.404665 -0.536465 127 127 0
0.365009 0.654619 -0.592718 127 127 0
-0.532160 0.033900 0.334036 153 0 76
0.058802 -0.091610 0.123216 0 127 127
-0.423292 0.615132 -0.603662 255 0 0
-0.100315 0.416431 -0.542885 127 127 0
-0.532160 -0.565187 -0.562726 153 0 76
0.254474 -0.221372 0.501590 0 0 255
-0.359018 0.226307 -0.414476 127 127 0
-0.532160 0.001050 0.377472 153 0 76
0.095243 -0.058886 0.433783 0 127 127
0.460109 0.038425 -0.197947 0 255 0
-0.242919 0.001569 0.360350 0 127 127
-0.448096 -0.301997 0.069868 153 76 0
-0.014999 -0.005913 0.390568 0 127 127
-0.038934 0.383751 -0.464591 127 127 0
0.478766 -0.129098 -0.086684 0 255 0
-0.226697 0.435138 -0.546216 127 127 0
0.449409 -0.630476 0.556194 76 0 153
0.207415 -0.054898 0.413542 0 127 127
-0.484184 0.032709 -0.199349 255 0 0
0.296546 -0.167910 0.059363 0 127 127
0.459995 0.266919 -0.371216 127 127 0
-0.068034 0.643156 -0.614114 127 127 0
0.294381 0.294063 -0.462980 127 127 0
0.212943 -0.037657 0.237629 0 127 127
-0.430947 -0.032563 0.152985 0 127 127
0.478766 -0.632293 -0.614729 76 0 153
0.510162 0.109638 0.571614 153 0 76
0.395723 -0.087899 0.204822 0 127 127
0.427363 -0.245350 0.041271 76 0 153
-0.002613 -0.006601 0.553358 0 0 255
0.002337 -0.012589 -0.251336 127 127 0
-0.484184 0.129632 -0.285907 127 127 0
0.433933 -0.214363 0.043023 76 0 153
0.149354 0.118273 -0.284878 127 127 0
-0.367791 -0.513654 0.390968 0 0 255
0.419363 0.569219 -0.533331 127 127 0
-0.351863 0.153544 -0.297821 127 127 0
0.030759 -0.171949 0.099053 0 127 127
0.263435 -0.425551 0.427280 0 0 255
-0.535587 0.000750 0.212454 153 0 76
-0.461666 -0.147876 -0.026727 255 0 0
-0.429354 -0.077174 -0.150987 255 0 0
0.471184 -0.543282 0.495553 76 0 153
-0.447173 -0.058011 -0.181653 255 0 0
0.077571 0.119823 -0.288411 127 127 0
-0.188651 -0.058185 0.408732 0 127 127
-0.481355 0.124955 0.502092 153 76 0
0.304773 0.478370 -0.560961 127 127 0
0.239709 0.496892 -0.573806 127 127 0
-0.535587 0.065797 0.525547 0 127 127
-0.091834 -0.003869 -0.189750 127 127 0
-0.296883 -0.050298 -0.192445 127 127 0
-0.460976 -0.216930 -0.026298 255 0 0
0.230973 0.195865 -0.337216 127 127 0
0.530169 0.066215 0.356301 153 0 76
0.502113 0.010561 0.542805 76 153 0
-0.253771 0.612459 -0.568127 127 127 0
0.478766 -0.608535 0.589055 76 0 153
0.140187 -0.034761 0.554681 0 127 127
0.158042 0.629112 -0.581724 127 127 0
0.338432 0.376200 -0.506948 127 127 0
-0.429354 -0.239421 0.057556 153 76 0
0.030017 -0.428334 0.420646 0 0 255
-0.503058 0.038232 0.507283 0 127 127
0.250230 0.036207 0.532611 0 127 127
-0.431557 -0.076728 0.048266 0 127 127
0.297056 -0.020026 0.538411 0 0 255
-0.276017 0.284657 -0.459206 127 127 0
0.193189 0.360273 -0.446315 127 127 0
0.036175 -0.120517 0.059746 0 127 127
0.385870 0.077660 -0.235084 127 127 0
0.267350 -0.471270 0.410637 0 0 255
-0.259097 -0.117645 0.187589 0 127 127
-0.367726 -0.003998 -0.240931 127 127 0
-0.376486 0.344546 -0.422809 127 127 0
0.528870 -0.101314 0.137878 76 153 0
0.425562 0.340982 -0.478568 127 127 0
-0.385442 -0.045831 0.145189 0 127 127
-0.182438 0.103206 -0.341885 127 127 0
0.021833 0.344031 -0.441516 127 127 0
-0.164960 -0.029572 0.277562 0 127 127
-0.434983 0.070046 0.560483 0 127 127
0.453399 0.635124 -0.564045 0 255 0
0.525572 -0.575173 -0.539300 76 0 153
-0.340708 0.405142 -0.461368 127 127 0
0.323426 0.233507 -0.422006 127 127 0
0.119703 0.015671 0.625078 0 127 127
0.384319 0.036247 0.571667 0 0 255
-0.343107 -0.162123 0.003138 0 127 127
0.348886 0.164934 -0.306065 127 127 0
0.478766 -0.508266 0.406581 76 0 153
-0.469630 0.175292 -0.305649 255 0 0
0.448685 -0.005128 0.464193 0 127 127
-0.443788 -0.039337 -0.166514 255 0 0
-0.366373 0.369848 -0.438995 127 127 0
0.245356 0.411988 -0.472333 127 127 0
0.160709 0.576824 -0.557178 127 127 0
0.353810 0.005393 0.619603 0 127 127
0.207324 -0.449350 0.418617 0 0 255
-0.275175 -0.449782 0.418459 0 0 255
-0.234383 0.028573 0.497759 0 127 127
-0.032419 0.046860 -0.302453 127 127 0
-0.296655 -0.022861 0.573842 0 0 255
-0.114886 -0.076512 0.355767 0 127 127
0.425075 0.026000 0.573994 0 0 255
0.478064 0.008549 -0.175926 0 255 0
0.282481 0.182114 -0.390893 127 127 0
0.495590 -0.227607 -0.102574 76 0 153
-0.082909 -0.052111 -0.206500 127 127 0
0.482193 0.405483 -0.471539 127 127 0
0.053562 0.016726 -0.204417 127 127 0
-0.035414 0.272792 -0.396682 127 127 0
-0.182907 -0.046541 0.221773 0 127 127
0.347202 0.480667 -0.558413 127 127 0
-0.514825 -0.077786 0.091819 153 0 76
-0.431256 0.106145 -0.316285 127 127 0
0.431229 0.663251 -0.585497 0 255 0
-0.084249 -0.384797 0.425464 0 0 255
0.287976 -0.146879 0.107144 0 127 127
-0.329442 0.088481 -0.250045 127 127 0
-0.380320 0.210138 -0.335159 127 127 0
-0.346128 -0.001712 0.601432 0 127 127
-0.239181 -0.010192 0.541987 0 0 255
-0.162728 0.289063 -0.404204 127 127 0
0.389629 0.215887 -0.337656 127 127 0
0.296398 0.566234 -0.543911 127 127 0
0.506502 -0.088403 0.169796 76 153 0
-0.087468 -0.055921 0.525345 0 0 255
0.375887 0.632535 -0.567376 127 127 0
-0.411602 -0.030044 0.387075 0 127 127
-0.199918 -0.030719 0.570993 0 127 127
0.363398 -0.019903 0.225357 0 127 127
0.230754 0.025150 0.623914 0 127 127
-0.076234 -0.047606 0.237965 0 127 127
-0.091259 0.308980 -0.419256 127 127 0
0.441710 -0.084020 -0.092173 0 255 0
0.282110 -0.415597 0.394440 0 0 255
-0.512581 -0.096301 0.150270 153 0 76
-0.506199 -0.283132 -0.226002 153 0 76
0.232347 -0.059493 0.560511 0 0 255
0.221333 0.008478 -0.192363 127 127 0
0.478766 0.015333 0.328612 76 153 0
-0.322591 0.166940 -0.310373 127 127 0
0.101232 0.640436 -0.630619 127 127 0
0.174021 0.149404 -0.307120 127 127 0
-0.267754 0.038445 0.535970 0 127 127
-0.208132 0.417562 -0.538858 127 127 0
-0.321784 -0.048164 0.378551 0 127 127
0.184535 0.029807 0.539943 0 127 127
-0.480757 0.013304 0.333729 153 0 76
-0.532160 -0.014519 0.395194 153 0 76
0.240225 -0.152731 0.107714 0 127 127
-0.480757 0.013691 0.447523 153 0 76
-0.432276 -0.600408 0.598175 153 76 0
-0.259160 0.072020 -0.242430 127 127 0
0.139935 0.079909 -0.326381 127 127 0
-0.384755 0.118202 -0.337128 127 127 0
0.484737 0.024576 0.293240 76 153 0
-0.091327 0.023643 0.596737 0 127 127
0.530169 0.009202 0.388123 0 127 127
-0.021442 -0.087644 0.325761 0 127 127
0.283216 0.593410 -0.609785 127 127 0
-0.532160 -0.191172 -0.092420 153 0 76
0.283794 -0.027442 0.508438 0 127 127
0.507442 -0.073749 0.101258 0 127 127
-0.480757 -0.027080 0.281426 153 0 76
0.217347 0.014643 0.430997 0 127 127
-0.133405 0.168033 -0.322742 127 127 0
-0.013619 -0.400157 0.400053 0 0 255
-0.055944 -0.015412 0.625930 0 127 127
0.427363 -0.357785 0.181081 76 0 153
0.478766 -0.000925 0.261924 76 153 0
-0.182189 -0.414516 0.417968 0 0 255
-0.344495 -0.040312 0.177743 0 127 127
-0.097474 0.633898 -0.586464 127 127 0
-0.430999 -0.063408 0.254295 0 127 127
-0.007514 0.479937 -0.574748 127 127 0
-0.457658 -0.627314 0.628454 153 76 0
0.102210 -0.393884 0.436004 0 0 255
0.164715 0.445205 -0.554261 127 127 0
0.185571 -0.004732 0.576944 0 0 255
-0.480757 -0.195027 -0.087290 153 0 76
0.117345 0.264858 -0.455007 127 127 0
0.514130 -0.544579 -0.512853 76 0 153
0.195997 -0.547894 0.471399 153 0 76
0.045836 -0.007243 0.381503 0 127 127
-0.243491 -0.441420 0.385035 0 0 255
0.380036 0.443159 -0.536955 127 127 0
-0.358409 0.540939 -0.527388 127 127 0
-0.393861 0.427547 -0.528512 127 127 0
-0.208329 -0.184157 0.045930 0 127 127
0.033760 -0.074486 0.555061 0 0 255
-0.356572 0.494513 -0.506285 127 127 0
-0.060382 -0.002649 0.400004 0 127 127
-0.352772 0.283634 -0.452117 127 127 0
0.482863 0.136454 0.583760 153 0 76
0.247137 0.441715 -0.547880 127 127 0
-0.048489 -0.002825 0.545132 0 0 255
-0.203923 0.002721 0.555264 0 0 255
-0.177492 -0.041798 0.492958 0 127 127
-0.334231 -0.150232 0.082801 0 127 127
-0.248631 0.573214 -0.604951 127 127 0
-0.348954 -0.490864 0.403508 0 0 255
-0.524993 -0.061196 0.130604 153 0 76
-0.500640 -0.476108 -0.511232 153 0 76
-0.429354 -0.339275 0.145069 153 76 0
0.530169 -0.027560 0.264849 76 153 0
-0.210383 -0.146902 0.130689 0 127 127
0.269413 -0.132613 0.004509 0 127 127
0.208128 0.379693 -0.456452 127 127 0
0.520263 -0.169373 -0.143364 76 0 153
-0.443381 0.574984 -0.588938 127 127 0
-0.433881 0.106595 -0.254398 255 0 0
0.533596 0.034525 0.410788 0 127 127
-0.367598 0.017734 0.350947 0 127 127
-0.185801 0.032568 0.564060 0 127 127
0.248395 0.391466 -0.460673 127 127 0
-0.532160 -0.166164 -0.127103 153 0 76
0.001723 -0.402857 0.435540 0 0 255
-0.480757 -0.413899 0.256934 153 76 0
0.427363 -0.308327 0.115644 76 0 153
-0.255877 -0.043894 0.205494 0 127 127
-0.480757 -0.107892 -0.073688 255 0 0
-0.331913 -0.039488 0.566844 0 0 255
0.288284 0.016620 0.400923 0 127 127
0.027379 0.197547 -0.412473 127 127 0
-0.502774 -0.401806 -0.372595 153 0 76
-0.023186 0.411400 -0.480239 127 127 0
-0.258594 -0.383296 0.406192 0 0 255
0.416239 -0.537871 0.438414 153 0 76
0.358345 -0.563478 0.455791 153 0 76
0.172974 -0.143184 0.147650 0 127 127
0.289795 -0.090766 0.250578 0 127 127
0.432090 0.529739 -0.514613 127 127 0
-0.463535 0.548965 -0.578557 127 127 0
0.508538 -0.610841 -0.568124 76 0 153
-0.429354 0.060940 -0.257848 255 0 0
0.213200 0.309034 -0.413803 127 127 0
-0.191451 0.529571 -0.590609 127 127 0
0.119165 0.332082 -0.496029 127 127 0
-0.049087 -0.029211 0.298093 0 127 127
-0.532160 -0.477736 -0.453322 153 0 76
-0.505653 -0.539473 -0.508182 153 0 76
-0.031783 0.283097 -0.468251 127 127 0
0.292362 -0.034432 0.218622 0 127 127
0.158960 0.000237 0.551919 0 0 255
-0.193854 0.304415 -0.412417 127 127 0
-0.120415 0.017971 0.582630 0 127 127
-0.378797 0.374172 -0.502176 127 127 0
0.478766 -0.166961 -0.032126 76 153 0
0.047185 0.004752 0.576989 0 127 127
0.129586 -0.143440 0.052114 0 127 127
0.215720 -0.043138 0.465332 0 127 127
-0.137607 0.141564 -0.371523 127 127 0
0.238159 0.027886 -0.279276 127 127 0
-0.280884 -0.176322 0.047499 0 127 127
0.210455 0.465979 -0.502662 127 127 0
0.427363 -0.636817 0.621630 76 0 153
0.533596 0.045907 0.503797 76 153 0
0.153375 0.162555 -0.385225 127 127 0
-0.509188 -0.368481 -0.333632 153 0 76
0.409645 -0.154515 0.000128 0 127 127
0.457732 0.522727 -0.562814 127 127 0
-0.010648 -0.089724 0.513042 0 0 255
-0.503175 0.052409 0.395435 0 127 127
-0.480757 -0.556750 0.484081 153 76 0
0.150474 0.283507 -0.465473 127 127 0
0.487308 -0.149865 -0.112869 76 0 153
0.202565 0.060612 -0.236144 127 127 0
0.001781 0.654803 -0.609923 127 127 0
-0.109744 0.591067 -0.565199 127 127 0
0.200989 -0.000335 0.372443 0 127 127
0.185385 0.097006 -0.336870 127 127 0
-0.318293 0.211729 -0.342194 127 127 0
-0.236294 0.584403 -0.556470 127 127 0
0.419280 0.191521 -0.317472 127 127 0
0.291808 -0.117569 0.024959 0 127 127
0.267636 -0.383465 0.423936 0 0 255
0.040179 0.652038 -0.622116 127 127 0
-0.511019 -0.004861 0.452522 153 0 76
0.478766 -0.461151 0.321451 76 0 153
-0.510030 -0.138822 0.055863 153 0 76
-0.532160 -0.495175 -0.522190 153 0 76
-0.349183 0.473188 -0.496290 127 127 0
-0.480757 -0.247616 -0.230529 153 0 76
0.305983 -0.073998 0.294235 0 127 127
-0.432548 -0.119846 -0.055455 255 0 0
0.327260 -0.073534 0.283979 0 127 127
0.355571 -0.088885 0.223327 0 127 127
-0.060184 0.541697 -0.600068 127 127 0
0.394561 -0.045245 0.340478 0 127 127
0.062314 0.109683 -0.350297 127 127 0
0.500980 0.086013 0.432040 153 0 76
-0.260680 -0.166646 0.073015 0 127 127
-0.044872 -0.116795 0.233863 0 127 127
0.329796 -0.003671 0.603225 0 127 127
0.427363 0.630438 -0.589067 0 255 0
0.338675 0.034114 0.573610 0 127 127
0.271281 -0.046764 -0.197590 127 127 0
-0.235759 -0.092332 0.090284 0 127 127
-0.085949 -0.002036 0.626131 0 127 127
0.199860 0.368896 -0.513034 127 127 0
-0.442131 -0.604208 0.507986 153 76 0
-0.472508 0.262601 -0.365515 127 127 0
-0.535587 -0.039910 0.183540 153 0 76
-0.480757 -0.478422 -0.452212 153 0 76
-0.480757 -0.186580 -0.122171 153 0 76
-0.056015 -0.094410 0.300928 0 127 127
0.170520 -0.153248 0.124394 0 127 127
0.478766 -0.179446 -0.075904 0 255 0
-0.024417 0.071327 -0.250545 127 127 0
0.373524 0.049448 0.499252 0 127 127
-0.069949 -0.063389 0.416905 0 127 127
0.424381 0.001297 -0.169630 0 255 0
-0.374102 0.023467 -0.191295 127 127 0
0.132319 0.625687 -0.630101 127 127 0
-0.380744 -0.006104 0.545676 0 0 255
-0.108864 0.052695 -0.233992 127 127 0
0.266835 -0.457596 0.379153 0 0 255
-0.161770 0.643892 -0.611381 127 127 0
0.460677 -0.061532 0.239373 0 127 127
-0.047578 0.463580 -0.566438 127 127 0
0.172294 0.185436 -0.400289 127 127 0
-0.480757 0.058493 0.458976 153 0 76
0.007702 0.018977 0.587851 0 127 127
0.476006 -0.002046 0.207938 76 153 0
0.373903 0.537044 -0.579261 127 127 0
0.125309 0.373841 -0.519067 127 127 0
-0.195573 0.191564 -0.403443 127 127 0
0.149733 -0.053573 0.208195 0 127 127
-0.453849 -0.255100 0.090725 153 76 0
0.206418 -0.018537 0.605062 0 127 127
-0.372151 0.019389 -0.261626 127 127 0
0.069607 -0.018120 0.575567 0 0 255
0.477398 0.655888 -0.573765 0 255 0
0.361990 0.620219 -0.609780 127 127 0
0.077999 0.369944 -0.518452 127 127 0
0.093950 -0.038447 0.550326 0 127 127
0.248545 -0.158457 0.008476 0 127 127
-0.314606 0.020499 0.400275 0 127 127
0.120374 -0.020920 0.317149 0 127 127
-0.226630 0.499219 -0.518797 127 127 0
0.263781 -0.037532 -0.178959 127 127 0
-0.498082 0.107784 0.413221 153 76 0
-0.480757 -0.072724 -0.136621 255 0 0
0.003790 -0.184073 0.074982 0 127 127
0.263053 -0.158702 0.088559 0 127 127
0.115649 -0.012881 -0.248974 127 127 0
-0.480757 -0.159994 -0.086164 255 0 0
-0.264671 0.526800 -0.585043 127 127 0
-0.198705 0.566587 -0.550994 127 127 0
0.301078 0.034908 0.483206 0 127 127
-0.400942 0.509502 -0.565323 127 127 0
0.071767 0.282620 -0.467426 127 127 0
-0.267193 0.024466 0.575325 0 127 127
0.427363 0.272845 -0.375458 127 127 0
-0.459027 -0.499498 0.422723 153 76 0
0.236565 -0.083431 0.293456 0 127 127
-0.063901 0.187297 -0.405051 127 127 0
-0.123151 0.252192 -0.446687 127 127 0
-0.210043 0.364356 -0.510264 127 127 0
-0.122540 -0.036937 0.263652 0 127 127
-0.104177 -0.120025 0.219566 0 127 127
-0.104733 0.457395 -0.503172 127 127 0
0.243151 0.445812 -0.490546 127 127 0
0.157462 0.566099 -0.606973 127 127 0
0.478766 0.041956 0.458864 76 153 0
-0.213630 -0.058798 0.394378 0 127 127
0.153257 0.002076 0.399028 0 127 127
-0.429354 -0.285456 0.101491 153 76 0
-0.305169 0.610756 -0.563175 127 127 0
0.374970 -0.050359 -0.186797 127 127 0
0.478766 0.004167 0.396723 76 153 0
0.357183 -0.123353 0.006802 0 127 127
0.029908 -0.018618 0.337865 0 127 127
-0.267929 -0.379073 0.430025 0 0 255
-0.297722 -0.070585 0.121832 0 127 127
0.230463 0.638839 -0.582741 127 127 0
-0.066110 -0.023957 0.573444 0 127 127
-0.462565 -0.018726 -0.216798 255 0 0
-0.453394 0.235562 -0.347616 127 127 0
0.493776 -0.024424 0.147990 0 127 127
0.530169 -0.212604 -0.148720 76 0 153
-0.147285 0.063275 -0.241245 127 127 0
-0.156758 0.581270 -0.559381 127 127 0
0.446343 -0.302283 0.070204 76 0 153
0.232714 0.173461 -0.388468 127 127 0
0.410673 0.051275 0.573369 0 127 127
-0.173694 0.027363 -0.282960 127 127 0
0.067881 0.014915 0.488154 0 127 127
0.512531 -0.193960 -0.047543 76 0 153
0.437640 -0.507753 0.346571 76 0 153
-0.446381 -0.016862 -0.195037 255 0 0
0.518769 -0.356955 -0.393125 76 0 153
0.427363 -0.586155 0.519227 76 0 153
0.277771 -0.105623 0.049091 0 127 127
0.508650 -0.512522 -0.483532 76 0 153
0.293958 -0.015841 -0.179350 127 127 0
0.373418 -0.136677 0.096015 0 127 127
0.431332 -0.244387 0.078180 76 0 153
-0.113521 -0.073835 0.161812 0 127 127
-0.306571 0.076932 -0.242549 127 127 0
-0.484184 0.425993 -0.520842 127 127 0
0.425867 0.552257 -0.580152 127 127 0
0.430207 -0.434237 0.321843 76 0 153
-0.208950 -0.054906 0.190380 0 127 127
0.447281 -0.552108 0.416181 76 0 153
-0.405792 -0.117743 0.000941 0 127 127
-0.209257 -0.042480 0.473975 0 127 127
0.337998 0.023189 -0.267658 127 127 0
0.357813 -0.076183 0.259134 0 127 127
-0.431840 0.211256 -0.397194 255 0 0
-0.308960 0.277827 -0.452377 127 127 0
-0.121523 -0.065884 0.180647 0 127 127
0.525837 -0.062976 0.237905 76 153 0
0.099381 0.303881 -0.415692 127 127 0
-0.009230 -0.027729 0.616551 0 127 127
-0.107311 0.132553 -0.297207 127 127 0
0.265597 0.008929 0.573683 0 0 255
-0.170184 0.327974 -0.491966 127 127 0
-0.238829 -0.068760 0.343802 0 127 127
0.030389 -0.046085 0.510962 0 127 127
0.135673 0.018996 0.492100 0 127 127
-0.519117 -0.220013 -0.090885 153 0 76
0.250155 -0.132310 0.152702 0 127 127
-0.519496 -0.015851 0.170448 153 0 76
0.427363 -0.072444 -0.143524 0 255 0
-0.529168 -0.076246 0.199848 153 0 76
0.478766 -0.035395 0.186451 76 153 0
0.427363 0.432041 -0.515254 0 255 0
-0.275493 -0.208254 0.469901 0 0 255
0.040758 0.349180 -0.507560 127 127 0
-0.450322 -0.575621 0.553648 153 76 0
0.288874 -0.092013 0.519138 0 0 255
0.000870 -0.068378 0.184780 0 127 127
-0.209023 0.632216 -0.580878 127 127 0
0.164505 -0.409191 0.411365 0 0 255
0.530169 0.031682 0.538276 76 153 0
0.359489 -0.039700 0.171730 0 127 127
0.427363 -0.408634 0.284803 76 0 153
-0.270055 0.250323 -0.372422 127 127 0
0.266594 0.028734 0.473694 0 127 127
0.530169 0.051747 0.585329 76 153 0
0.396025 0.125704 -0.271830 127 127 0
-0.349133 0.073177 -0.307833 127 127 0
-0.480757 -0.521420 0.370650 153 76 0
0.434058 -0.029848 0.366108 0 127 127
-0.042754 -0.004923 -0.189707 127 127 0
0.383612 -0.003392 -0.239293 127 127 0
0.308591 -0.129489 0.045290 0 127 127
0.267228 -0.337778 0.457655 0 0 255
-0.404052 0.640220 -0.574727 127 127 0
0.152000 -0.078113 0.339337 0 127 127
-0.168688 0.009916 0.431145 0 127 127
-0.272612 -0.289040 0.447935 0 0 255
0.358978 0.474277 -0.495317 127 127 0
-0.462977 -0.404187 0.279808 153 76 0
0.328502 0.006544 0.332581 0 127 127
-0.165304 -0.011622 -0.248586 127 127 0
-0.284425 -0.154378 0.510234 0 0 255
-0.015575 -0.110571 0.253935 0 127 127
-0.199814 0.128033 -0.290011 127 127 0
0.250189 -0.075535 0.124542 0 127 127
-0.383018 -0.140597 0.050014 0 127 127
0.265883 0.093691 -0.258982 127 127 0
0.324529 0.056660 -0.296001 127 127 0
0.013592 -0.083818 0.340246 0 127 127
0.443636 -0.040733 -0.168931 0 255 0
-0.202506 -0.130559 0.172217 0 127 127
-0.204570 0.028318 0.518007 0 127 127
0.312798 0.322626 -0.414936 127 127 0
0.492173 -0.319704 -0.274455 76 0 153
-0.211505 -0.019314 0.596893 0 127 127
0.100162 -0.101130 0.274628 0 127 127
0.407160 -0.070757 0.246984 0 127 127
-0.169544 0.544225 -0.597953 127 127 0
0.153275 0.511321 -0.527899 127 127 0
-0.349967 0.022387 0.554586 0 0 255
-0.426985 0.336868 -0.476578 127 127 0
-0.429354 -0.080919 -0.128373 255 0 0
-0.317706 -0.033673 0.209303 0 127 127
0.223693 0.030460 -0.209272 127 127 0
-0.414381 -0.084783 0.203177 0 127 127
-0.310588 -0.034780 0.533041 0 0 255
0.106730 -0.017277 0.334179 0 127 127
0.519273 0.065243 0.466248 0 127 127
-0.026297 -0.127016 0.207219 0 127 127
-0.402514 0.345711 -0.484133 127 127 0
0.317176 0.084207 -0.318362 127 127 0
0.303399 0.041671 0.522957 0 127 127
-0.071028 -0.115513 0.068571 0 127 127
-0.296874 0.045945 0.588422 0 127 127
0.090394 0.088640 -0.263587 127 127 0
0.080715 0.475961 -0.571910 127 127 0
-0.130018 -0.185154 0.056417 0 127 127
0.276584 -0.218180 0.466289 0 0 255
-0.523999 -0.113978 -0.047383 153 0 76
-0.231149 -0.016586 0.607510 0 127 127
0.357758 0.008209 0.548684 0 0 255
-0.484184 0.494218 -0.537187 255 0 0
0.483376 -0.189449 -0.174747 76 0 153
0.427363 0.013994 -0.238538 0 255 0
-0.215111 0.426027 -0.482281 127 127 0
-0.239658 -0.025356 0.266753 0 127 127
0.332811 -0.012051 -0.178509 127 127 0
-0.480757 0.015012 0.473864 153 0 76
-0.345472 0.290030 -0.392379 127 127 0
0.251733 -0.178304 0.509830 0 0 255
0.253648 0.278089 -0.456585 127 127 0
0.274105 0.138752 -0.361616 127 127 0
-0.293897 0.649570 -0.615313 127 127 0
-0.243058 -0.024180 0.564579 0 127 127
0.248060 -0.098177 0.244029 0 127 127
0.111189 -0.001128 0.545294 0 0 255
-0.480757 -0.609149 0.573040 153 76 0
0.175271 0.122534 -0.356058 127 127 0
-0.429354 -0.144571 -0.095639 255 0 0
0.518565 -0.024662 0.365515 76 153 0
-0.119920 -0.392631 0.415183 0 0 255
0.114347 -0.008608 0.568335 0 0 255
-0.480757 -0.378422 -0.409532 153 0 76
-0.343898 0.097754 -0.326545 127 127 0
-0.017487 0.019831 0.526658 0 127 127
0.508539 0.043488 0.353871 0 127 127
0.375503 0.043835 -0.280584 127 127 0
-0.024091 -0.037206 -0.220779 127 127 0
-0.463537 0.033709 0.572894 153 0 76
0.302735 0.352522 -0.496944 127 127 0
0.427363 0.488757 -0.547709 127 127 0
-0.280507 -0.001210 0.545257 0 0 255
0.126648 -0.058665 0.425145 0 127 127
-0.072030 -0.074131 0.371529 0 127 127
-0.532160 -0.032234 0.269349 153 0 76
0.119708 0.473040 -0.569224 127 127 0
-0.376183 0.265898 -0.373260 127 127 0
0.353810 0.039371 -0.206850 127 127 0
0.344808 -0.030843 -0.214975 127 127 0
-0.121336 -0.157372 0.015265 0 127 127
0.242080 0.110659 -0.343467 127 127 0
-0.158057 -0.133392 0.174464 0 127 127
-0.488149 -0.445122 -0.483565 153 0 76
-0.429354 0.401658 -0.467449 255 0 0
-0.143071 -0.079848 0.140793 0 127 127
0.497852 0.075632 0.388597 153 0 76
-0.208185 0.543790 -0.540095 127 127 0
-0.167898 -0.529004 0.457601 153 0 76
-0.165127 0.196501 -0.341660 127 127 0
0.213767 -0.145963 0.131328 0 127 127
-0.207912 -0.135001 0.040180 0 127 127
0.283416 0.519823 -0.523889 127 127 0
-0.153279 0.502579 -0.581045 127 127 0
-0.411383 -0.004924 0.513449 0 127 127
-0.221447 0.501933 -0.577277 127 127 0
0.351399 -0.031252 0.198714 0 127 127
0.371824 0.284080 -0.449856 127 127 0
0.003496 -0.051510 0.231740 0 127 127
0.061706 0.074636 -0.324634 127 127 0
-0.165182 -0.021724 0.302905 0 127 127
-0.173138 0.500236 -0.522370 127 127 0
-0.430894 0.444653 -0.533314 255 0 0
0.137584 -0.423090 0.428173 0 0 255
-0.395807 0.286763 -0.449489 127 127 0
0.132268 0.112907 -0.350680 127 127 0
0.239345 -0.064933 0.357025 0 127 127
-0.343083 -0.089897 0.227565 0 127 127
-0.532160 0.013308 0.559272 153 0 76
-0.480757 -0.217441 -0.016551 153 76 0
-0.217845 0.319250 -0.420096 127 127 0
-0.480757 -0.103900 0.078465 153 0 76
-0.498203 0.078412 0.552445 0 127 127
-0.169057 -0.039035 0.514315 0 127 127
-0.247962 0.063310 -0.307913 127 127 0
0.478766 -0.554872 0.449596 76 0 153
0.427363 -0.390046 0.220640 76 0 153
0.478766 0.385233 -0.479703 127 127 0
-0.206549 0.245358 -0.373110 127 127 0
-0.239829 0.021134 0.575733 0 127 127
-0.531900 -0.376711 -0.343255 153 0 76
0.214990 0.278903 -0.394393 127 127 0
-0.439533 0.515908 -0.565094 127 127 0
-0.456829 0.623846 -0.604988 255 0 0
-0.220697 0.382444 -0.519525 127 127 0
-0.412423 0.110216 -0.259177 127 127 0
-0.279711 0.125129 -0.282724 127 127 0
-0.429354 -0.176918 -0.067018 255 0 0
-0.300761 -0.532964 0.464873 153 0 76
0.112764 0.196549 -0.410092 127 127 0
0.533596 0.071538 0.526029 0 127 127
0.475871 -0.039919 0.296951 0 127 127
-0.480757 -0.004679 -0.200588 255 0 0
0.230830 -0.166314 0.058642 0 127 127
0.478766 -0.315760 -0.306738 76 0 153
-0.346869 0.053564 0.567873 0 127 127
-0.077644 0.618015 -0.578792 127 127 0
-0.239637 -0.317805 0.431531 0 0 255
-0.204027 0.058009 -0.306153 127 127 0
-0.423077 0.229256 -0.409666 127 127 0
-0.166170 0.122895 -0.357002 127 127 0
0.310736 0.021773 -0.195289 127 127 0
0.393142 0.016284 0.551622 0 0 255
0.001279 -0.122991 0.219138 0 127 127
-0.241926 0.021978 0.624798 0 127 127
0.429663 -0.043817 0.123608 0 127 127
0.043248 -0.051184 0.479536 0 127 127
-0.042700 -0.085565 0.551030 0 0 255
-0.532160 -0.239813 -0.194546 153 0 76
-0.219739 -0.078106 0.128049 0 127 127
-0.441196 0.043545 0.397217 0 127 127
0.096603 0.231495 -0.433874 127 127 0
0.243450 0.009059 0.391219 0 127 127
0.520058 -0.041815 0.301609 76 153 0
0.141384 0.224212 -0.361653 127 127 0
-0.530733 -0.626008 -0.633062 153 0 76
-0.203611 0.610206 -0.614774 127 127 0
-0.130331 -0.062717 0.406947 0 127 127
0.478766 -0.213735 -0.210737 76 0 153
0.126608 -0.193599 0.030548 0 127 127
-0.167191 0.367969 -0.514602 127 127 0
-0.480757 0.004685 0.299291 153 0 76
-0.204623 -0.452379 0.387135 0 0 255
-0.285222 0.046950 -0.219853 127 127 0
-0.402943 -0.019781 -0.157765 127 127 0
0.332644 0.423181 -0.471673 127 127 0
0.017537 -0.067440 0.521153 0 0 255
-0.122199 -0.036012 0.555871 0 127 127
0.123349 0.536336 -0.540325 127 127 0
-0.475837 -0.552148 0.416244 153 76 0
-0.484184 0.470979 -0.520996 127 127 0
0.518342 -0.002647 0.307147 0 127 127
0.377550 0.008374 -0.179440 127 127 0
-0.255320 -0.086508 0.098071 0 127 127
0.314646 0.207527 -0.339090 127 127 0
-0.071469 -0.054694 0.218062 0 127 127
0.300570 0.394299 -0.519957 127 127 0
-0.311416 -0.121178 0.158847 0 127 127
-0.125853 0.362807 -0.513212 127 127 0
-0.411757 -0.516693 0.391239 0 0 255
0.014425 -0.013436 0.358345 0 127 127
-0.229530 0.023138 0.468306 0 127 127
-0.333821 -0.071484 0.288174 0 127 127
-0.429354 -0.368153 0.200229 153 76 0
-0.082933 -0.156079 0.131880 0 127 127
0.339561 -0.011020 0.558089 0 127 127
0.041786 0.259814 -0.453376 127 127 0
0.310834 0.248605 -0.432935 127 127 0
-0.268417 -0.100467 0.063091 0 127 127
0.461074 -0.369890 0.233792 76 0 153
0.299089 0.620641 -0.568393 127 127 0
-0.122703 0.032202 -0.288687 127 127 0
0.131683 0.643122 -0.605954 127 127 0
0.056177 0.144674 -0.375681 127 127 0
0.096983 -0.424415 0.391222 0 0 255
0.375686 -0.011796 0.243152 0 127 127
0.433574 0.185645 -0.379358 127 127 0
-0.388024 -0.506362 0.363912 0 0 255
0.181830 0.022402 0.493139 0 127 127
-0.096373 0.438634 -0.493982 127 127 0
0.124335 -0.149306 0.141876 0 127 127
-0.222205 -0.025828 0.571051 0 127 127
-0.491125 -0.292335 -0.238194 153 0 76
0.427363 -0.439241 0.297952 76 0 153
-0.026190 0.636582 -0.599332 127 127 0
0.080945 -0.066066 0.185639 0 127 127
0.397732 -0.041970 0.146935 0 127 127
0.126618 -0.074309 0.360355 0 127 127
-0.094761 -0.018805 0.538856 0 0 255
-0.493073 -0.182047 -0.026354 255 0 0
0.113405 -0.087295 0.316786 0 127 127
0.478766 0.099275 0.496258 153 0 76
-0.133983 0.518869 -0.532193 127 127 0
0.478766 0.038382 0.540681 76 153 0
-0.282379 0.542585 -0.534680 127 127 0
0.478766 -0.591057 -0.589009 76 0 153
-0.459479 -0.146914 -0.003189 0 127 127
-0.241397 0.285596 -0.462198 127 127 0
-0.355708 -0.048613 0.151351 0 127 127
-0.261759 -0.478931 0.381265 0 0 255
-0.331235 -0.477237 0.372003 0 0 255
0.195284 0.580691 -0.610728 127 127 0
0.481849 0.487365 -0.552411 127 127 0
0.482193 0.083009 -0.235631 127 127 0
-0.490445 -0.167179 0.000091 153 0 76
0.504505 -0.649597 -0.601004 76 0 153
-0.479673 -0.314955 0.160813 153 76 0
-0.470704 -0.128334 -0.117180 255 0 0
-0.297922 0.440600 -0.543784 127 127 0
0.298874 0.176373 -0.318587 127 127 0
-0.433002 -0.033937 -0.203190 255 0 0
0.427363 0.080557 -0.244630 0 255 0
-0.048972 0.523811 -0.536492 127 127 0
0.170320 -0.540910 0.437428 153 0 76
0.441204 -0.187681 0.014068 76 0 153
0.533366 0.009754 0.236005 0 127 127
0.166725 -0.085966 0.308589 0 127 127
-0.463467 0.022133 -0.184278 127 127 0
0.196985 0.221350 -0.357056 127 127 0
0.135659 0.193692 -0.340502 127 127 0
0.028397 -0.145138 0.052220 0 127 127
0.448627 -0.241254 -0.001346 76 0 153
-0.014538 -0.426416 0.415377 0 0 255
0.020531 0.493231 -0.580149 127 127 0
0.129300 -0.038327 0.535638 0 127 127
-0.252093 -0.029234 0.522214 0 127 127
0.085430 -0.167149 0.014569 0 127 127
0.129392 0.492583 -0.519913 127 127 0
0.026940 0.458866 -0.505159 127 127 0
0.430687 0.068442 0.549069 0 127 127
-0.019130 -0.151303 0.146879 0 127 127
0.084525 -0.092682 0.528544 0 0 255
0.138583 -0.009904 -0.183843 127 127 0
-0.256299 0.416381 -0.474497 127 127 0
0.403177 0.631507 -0.563961 127 127 0
0.246634 -0.308331 0.433477 0 0 255
0.145312 0.097521 -0.339012 127 127 0
-0.484184 0.146153 -0.319220 127 127 0
0.530169 -0.090744 0.039271 76 153 0
-0.038182 0.480981 -0.574846 127 127 0
-0.438461 -0.120598 0.100613 0 127 127
-0.277077 -0.412883 0.425056 0 0 255
-0.204010 0.471518 -0.506140 127 127 0
-0.137563 0.012720 0.456713 0 127 127
0.478766 -0.464647 -0.450670 76 0 153
-0.136693 -0.068928 0.378365 0 127 127
0.325452 -0.165600 0.053254 0 127 127
-0.217030 0.015806 0.575637 0 127 127
-0.134055 0.030039 0.606015 0 127 127
0.073011 -0.058599 0.206660 0 127 127
-0.248282 -0.050691 -0.200836 127 127 0
0.140182 0.325057 -0.491023 127 127 0
0.453159 0.009887 0.549014 0 127 127
0.016035 -0.145115 0.031084 0 127 127
0.432283 0.124944 -0.337115 127 127 0
0.367998 0.350125 -0.489653 127 127 0
-0.463757 0.278856 -0.441128 255 0 0
-0.480757 0.035173 0.536659 153 0 76
-0.512365 -0.148957 0.034802 153 0 76
-0.205971 0.184778 -0.331273 127 127 0
-0.492128 -0.040507 0.305547 153 0 76
-0.177533 0.432412 -0.547766 127 127 0
-0.345383 0.603833 -0.608322 127 127 0
0.478766 -0.491369 -0.497017 76 0 153
-0.460369 0.476689 -0.548072 255 0 0
-0.010037 -0.160845 0.064815 0 127 127
-0.484184 0.562291 -0.579751 127 127 0
-0.188747 -0.033262 0.542215 0 127 127
0.308509 -0.106143 0.198353 0 127 127
0.510547 0.028104 0.442830 0 127 127
0.142036 0.313933 -0.420316 127 127 0
0.242638 -0.023197 -0.213505 127 127 0
-0.338543 -0.098801 0.042800 0 127 127
0.170677 0.220729 -0.424197 127 127 0
-0.169372 0.628714 -0.630018 127 127 0
0.002621 -0.197827 0.033512 0 127 127
0.248294 -0.030392 0.516150 0 127 127
0.213606 -0.134627 0.043417 0 127 127
-0.481114 -0.233993 -0.112404 153 0 76
0.029659 -0.011343 0.627471 0 127 127
0.441340 0.398394 -0.502467 127 127 0
-0.429354 0.586621 -0.574353 255 0 0
0.067771 -0.012726 -0.205383 127 127 0
-0.480757 -0.122270 -0.001805 153 0 76
-0.322624 0.654261 -0.597762 127 127 0
-0.188438 0.022625 0.492510 0 127 127
-0.088017 -0.143838 0.051383 0 127 127
0.078422 -0.067039 0.399874 0 127 127
0.427363 -0.485340 0.361184 76 0 153
-0.454441 -0.368420 0.231818 153 76 0
-0.236597 -0.129289 0.164540 0 127 127
-0.243931 -0.416634 0.430520 0 0 255
0.398041 -0.022143 0.199866 0 127 127
0.076068 -0.008102 -0.254583 127 127 0
0.036491 -0.006579 0.554976 0 0 255
0.427741 -0.612059 0.522395 76 0 153
0.492745 0.041587 0.331720 153 0 76
0.112891 -0.186262 0.056605 0 127 127
0.478180 -0.356510 0.215840 76 0 153
0.478766 -0.252916 -0.222308 76 0 153
-0.275383 -0.004047 0.324854 0 127 127
0.081462 -0.002900 0.544646 0 0 255
0.521219 -0.491129 -0.524644 76 0 153
0.254488 -0.074487 0.315683 0 127 127
0.462960 0.367251 -0.485805 127 127 0
0.461217 0.225100 -0.399541 127 127 0
0.153007 0.030319 -0.285855 127 127 0
0.200311 0.235352 -0.432034 127 127 0
0.471499 -0.515511 0.447475 76 0 153
-0.408923 0.006656 -0.246453 127 127 0
-0.303414 0.036451 0.492500 0 127 127
0.427363 0.583595 -0.564132 0 255 0
-0.179254 -0.086369 0.118938 0 127 127
-0.300800 -0.002909 0.581101 0 0 255
0.132045 0.029222 0.573523 0 127 127
0.031491 0.632671 -0.628533 127 127 0
0.530169 -0.001812 0.462345 76 153 0
0.282923 -0.153258 0.525061 0 0 255
-0.134432 -0.051986 0.455560 0 127 127
-0.511184 -0.609595 -0.567117 153 0 76
0.113561 -0.073872 0.161342 0 127 127
0.524491 -0.483307 -0.456811 76 0 153
0.478766 -0.564989 0.532410 76 0 153
-0.037931 0.002233 0.424514 0 127 127
-0.002649 0.273170 -0.397297 127 127 0
-0.006938 0.587333 -0.565310 127 127 0
-0.397525 0.558616 -0.531292 127 127 0
-0.205874 0.605743 -0.567464 127 127 0
-0.296857 -0.153842 0.057142 0 127 127
-0.532160 -0.026080 0.348635 153 0 76
0.402437 0.605289 -0.602880 127 127 0
0.510748 -0.265811 -0.180962 76 0 153
0.530169 0.089802 0.594972 153 0 76
0.450853 0.584933 -0.539024 127 127 0
0.426633 0.306203 -0.457469 0 255 0
0.308851 -0.003427 -0.246395 127 127 0
-0.014954 -0.044223 -0.184463 127 127 0
0.273161 -0.263942 0.471914 0 0 255
-0.112778 0.312480 -0.484556 127 127 0
0.064307 -0.103616 0.270495 0 127 127
-0.345850 0.263245 -0.374702 127 127 0
-0.532160 -0.373330 -0.366076 153 0 76
0.427363 -0.564766 0.457384 76 0 153
0.265742 0.355142 -0.438694 127 127 0
0.381049 -0.556765 0.468518 153 0 76
0.054170 -0.399537 0.436753 0 0 255
0.346630 0.557895 -0.535886 127 127 0
-0.049831 0.307804 -0.419099 127 127 0
-0.189388 -0.529004 0.457782 153 0 76
-0.531698 -0.287904 -0.232324 153 0 76
-0.387192 0.523069 -0.516249 127 127 0
-0.410143 0.014055 0.583766 0 0 255
-0.043367 0.013494 0.483143 0 127 127
-0.082207 -0.093352 0.528231 0 0 255
-0.291391 0.039111 -0.284925 127 127 0
0.092466 0.643486 -0.591410 127 127 0
-0.495537 -0.086404 0.174737 153 0 76
0.242889 0.229952 -0.360373 127 127 0
-0.532160 -0.196898 -0.157708 153 0 76
-0.049325 -0.068832 0.395232 0 127 127
-0.409833 0.547754 -0.580424 127 127 0
-0.230914 0.652033 -0.593793 127 127 0
-0.501224 -0.115505 0.104318 153 0 76
0.462327 -0.107932 0.116608 0 127 127
-0.429354 -0.217367 0.023266 153 76 0
0.051796 -0.077743 0.359618 0 127 127
0.358817 -0.014058 0.516151 0 127 127
0.475499 0.617976 -0.602540 0 255 0
-0.309178 0.013565 0.625555 0 127 127
0.307456 0.358603 -0.437378 127 127 0
-0.040493 0.159575 -0.386205 127 127 0
0.343079 -0.555461 0.468941 153 0 76
0.530169 -0.399369 -0.378211 76 0 153
-0.030481 -0.021688 0.582224 0 0 255
0.319033 -0.134994 0.006398 0 127 127
0.436871 -0.428795 0.231226 76 0 153
0.431849 -0.107118 0.005910 0 127 127
-0.484184 0.230117 -0.377143 127 127 0
0.401763 -0.063164 0.273836 0 127 127
0.362710 0.037700 0.573010 0 0 255
0.184052 0.399628 -0.469024 127 127 0
0.435450 -0.118793 0.105456 0 127 127
-0.358049 0.524838 -0.576261 127 127 0
-0.443490 0.373579 -0.496775 127 127 0
0.443292 0.634949 -0.609280 0 255 0
0.478766 -0.019795 0.219004 0 127 127
-0.468499 -0.042544 -0.130069 255 0 0
0.463825 0.431305 -0.520076 0 255 0
-0.497579 -0.258685 -0.150411 153 0 76
0.477698 0.106234 -0.316352 127 127 0
-0.480757 -0.048822 0.141224 153 0 76
0.081674 -0.004238 0.390798 0 127 127
-0.070917 0.057254 -0.310489 127 127 0
-0.381959 0.136293 -0.281806 127 127 0
0.175909 0.426121 -0.544574 127 127 0
-0.532160 -0.226142 -0.226326 153 0 76
-0.055571 0.123501 -0.360518 127 127 0
0.088560 -0.532144 0.443896 153 0 76
-0.399100 0.439590 -0.474071 127 127 0
-0.019689 0.030287 -0.289103 127 127 0
-0.480757 -0.038522 0.215849 153 0 76
0.279968 0.043394 0.567513 0 127 127
0.138231 0.033145 -0.215903 127 127 0
0.345165 0.272340 -0.380258 127 127 0
0.478766 0.025592 0.494598 76 153 0
0.465914 -0.182609 0.008870 76 0 153
