ply
format ascii 1.0
element vertex 1249
property float x
property float y
property float z
property uchar red
property uchar green
property uchar blue
end_header
-0.367268 0.683637 -0.280961 204 51 127
-0.328600 -0.059287 -0.216429 76 0 153
0.364474 -0.557658 -0.271294 153 0 76
0.306805 0.086921 0.168510 76 0 153
-0.459586 0.007296 0.039024 76 0 153
0.447274 -0.771884 0.392189 76 153 0
-0.459321 0.427091 -0.272603 204 51 127
-0.328600 -0.335887 0.444257 0 127 127
-0.335911 -0.479871 -0.279176 76 0 153
-0.187088 -0.011410 0.028721 76 0 153
0.016471 0.509142 -0.280962 204 51 127
-0.442981 -0.287643 -0.280850 76 0 153
-0.405960 -0.011410 -0.063281 76 0 153
-0.018776 -0.011410 -0.134596 76 0 153
-0.459418 -0.021554 -0.268902 76 0 153
-0.440251 -0.194403 0.352769 0 127 127
0.158801 -0.011410 0.408068 76 0 153
-0.316876 0.152706 -0.182631 204 51 127
-0.442725 -0.651267 -0.150041 76 0 153
-0.328600 -0.569619 -0.210008 76 0 153
-0.384978 -0.401828 -0.280962 76 0 153
0.069580 0.668853 -0.280962 204 51 127
0.079877 -0.011410 -0.099843 76 0 153
-0.355302 -0.451506 0.352833 0 127 127
0.279721 0.087312 -0.072964 76 0 153
0.450058 -0.231256 0.352765 76 153 0
-0.459615 -0.727952 -0.253580 76 0 153
-0.198899 0.322372 -0.182631 204 51 127
-0.344080 -0.595101 0.483649 0 127 127
0.243150 0.086921 -0.137737 76 0 153
-0.459618 0.015304 -0.191324 76 0 153
0.083564 -0.011410 -0.196868 76 0 153
0.495245 0.097066 -0.218934 76 0 153
-0.170961 0.230902 -0.280962 204 51 127
-0.459618 -0.165768 0.393680 0 127 127
0.186434 -0.011410 0.324729 76 0 153
0.364227 -0.548297 -0.188159 153 0 76
0.495245 0.030722 0.366426 76 0 153
-0.387987 0.086921 -0.025747 76 0 153
0.415908 -0.756592 -0.280859 153 0 76
-0.007252 0.454819 -0.181876 204 51 127
0.495245 0.113188 -0.227265 204 51 127
0.156899 0.561157 -0.182631 204 51 127
0.477277 0.546420 -0.280893 204 51 127
-0.012427 0.622345 -0.280962 204 51 127
-0.332244 0.046469 0.483240 76 0 153
-0.442748 0.086894 0.114887 76 0 153
0.461595 -0.258763 0.352766 76 153 0
0.364290 -0.331966 0.374250 76 153 0
0.402486 -0.011410 -0.047610 76 0 153
0.495028 -0.336314 0.418233 76 153 0
0.453060 0.227449 -0.280962 204 51 127
0.392853 0.500140 -0.182631 204 51 127
0.333467 0.554743 -0.280962 204 51 127
0.422333 -0.348801 -0.150279 153 0 76
0.495020 0.065581 -0.039095 76 0 153
-0.324194 -0.031075 0.443809 0 127 127
0.473773 0.360353 -0.280947 204 51 127
-0.178218 0.173740 -0.182631 204 51 127
0.387803 -0.011410 0.244635 76 0 153
0.303740 0.314575 -0.182631 204 51 127
0.494201 0.675451 -0.197364 204 51 127
0.193713 0.233877 -0.181630 204 51 127
-0.319448 0.375110 -0.280962 204 51 127
-0.220566 -0.011410 0.405773 76 0 153
-0.459618 -0.128943 -0.228495 76 0 153
0.223052 0.351331 -0.280962 204 51 127
0.431786 0.086921 0.391524 76 0 153
0.156037 0.110028 -0.280962 204 51 127
0.494853 -0.751634 -0.164053 153 0 76
0.487905 -0.011192 0.099415 76 0 153
0.495245 -0.689611 -0.223334 153 0 76
-0.386221 -0.769552 -0.275628 76 0 153
-0.052996 0.720980 -0.217235 204 51 127
-0.106288 -0.011410 0.176380 76 0 153
-0.239469 -0.011410 0.366126 76 0 153
0.253720 0.086921 0.371515 76 0 153
-0.328830 -0.732114 0.373389 0 127 127
0.387563 0.548266 -0.280962 204 51 127
0.495180 0.043599 0.050998 76 0 153
0.391432 -0.438618 -0.150005 153 0 76
-0.328600 -0.306911 -0.208807 76 0 153
-0.310073 -0.011407 -0.098370 76 0 153
0.004940 -0.011410 0.352362 76 0 153
0.450562 -0.362163 0.352765 76 153 0
0.017027 -0.011345 -0.261628 76 0 153
-0.377400 -0.755486 0.482718 0 127 127
0.382891 -0.771778 -0.218559 153 0 76
-0.365464 0.627583 -0.280962 204 51 127
-0.149524 0.009968 0.483104 76 0 153
-0.356839 0.332582 -0.182631 204 51 127
-0.122950 0.086921 0.091892 76 0 153
0.353389 -0.011410 0.270366 76 0 153
0.435380 -0.696047 0.483279 76 153 0
-0.019585 0.086921 0.260082 76 0 153
-0.233041 0.086921 -0.127823 76 0 153
0.382596 -0.220922 -0.280741 153 0 76
0.488219 0.084953 0.177985 76 0 153
-0.121098 0.401057 -0.182631 204 51 127
0.401626 -0.011410 0.081036 76 0 153
-0.124387 0.086921 0.029023 76 0 153
0.262138 -0.011410 -0.033388 76 0 153
-0.091353 -0.011410 -0.164107 76 0 153
-0.399430 -0.737862 -0.150448 76 0 153
-0.329328 0.087840 0.162873 76 0 153
0.385578 -0.011410 0.225256 76 0 153
-0.407173 -0.176418 0.483127 0 127 127
-0.398146 -0.756023 0.482954 0 127 127
-0.306084 -0.011410 0.148605 76 0 153
0.408485 -0.337916 -0.150234 153 0 76
0.488296 -0.243115 -0.151827 153 0 76
-0.071834 0.133755 -0.280962 204 51 127
-0.372111 0.548252 -0.280962 204 51 127
-0.420925 -0.083027 0.482846 0 127 127
0.364227 -0.079478 -0.230998 153 0 76
-0.072829 0.250837 -0.280962 204 51 127
-0.070991 0.543870 -0.181630 204 51 127
0.008501 0.086921 0.394618 76 0 153
-0.454036 0.719921 -0.260511 204 51 127
0.420066 -0.011410 -0.073041 76 0 153
0.139421 0.320337 -0.181737 204 51 127
0.106456 0.086921 -0.117207 76 0 153
0.429111 -0.117444 -0.150569 153 0 76
-0.276872 -0.011410 0.234570 76 0 153
-0.242096 0.161804 -0.280962 204 51 127
-0.288916 0.685968 -0.181631 204 51 127
0.395919 -0.262642 0.483747 76 153 0
-0.298087 0.055641 0.483427 76 0 153
0.268210 -0.011410 0.133662 76 0 153
0.097859 0.077559 -0.280962 76 0 153
-0.346698 0.087113 0.454604 76 0 153
0.420748 -0.377068 0.483782 76 153 0
0.364407 -0.752627 -0.242022 153 0 76
0.460850 -0.011408 0.226687 76 0 153
0.224263 0.619563 -0.280962 204 51 127
-0.380267 -0.771149 -0.170894 76 0 153
-0.459618 -0.558412 -0.196467 76 0 153
-0.231925 -0.011410 -0.123218 76 0 153
0.453705 -0.115418 0.352765 76 153 0
0.494970 -0.398726 0.366324 76 153 0
-0.328600 -0.695758 -0.188171 76 0 153
-0.206852 0.525216 -0.280962 204 51 127
0.495245 -0.051076 0.420507 76 153 0
0.374383 -0.619260 0.482558 76 153 0
0.416947 -0.770200 0.361897 76 153 0
0.380393 0.125244 -0.181635 204 51 127
-0.243418 0.718350 -0.188454 204 51 127
0.399867 0.443741 -0.182631 204 51 127
-0.328600 -0.098740 -0.182890 76 0 153
-0.328861 -0.289045 -0.238749 76 0 153
0.304834 -0.011410 0.275895 76 0 153
-0.459614 -0.299772 -0.256588 76 0 153
0.494862 -0.229341 -0.256730 153 0 76
-0.199858 -0.011410 0.430780 76 0 153
0.319497 0.088345 -0.163148 76 0 153
0.364330 -0.044103 -0.212662 153 0 76
0.406770 0.425299 -0.182631 204 51 127
-0.200244 0.720979 -0.251190 204 51 127
0.266535 0.721201 -0.236721 204 51 127
-0.439554 -0.771878 -0.200516 76 0 153
0.032754 0.195830 -0.280962 204 51 127
0.031388 0.445854 -0.182527 204 51 127
0.000644 0.235968 -0.182631 204 51 127
-0.405733 0.087922 0.394365 76 0 153
0.495237 -0.648823 -0.192781 153 0 76
-0.330331 -0.128865 0.363176 0 127 127
0.247658 0.531032 -0.182631 204 51 127
-0.381736 -0.086162 -0.150082 76 0 153
-0.438732 0.087921 0.260432 76 0 153
0.234962 0.186470 -0.181630 204 51 127
-0.047470 0.249781 -0.280962 204 51 127
-0.030716 -0.010661 -0.274861 76 0 153
0.364227 -0.626519 0.391384 76 153 0
-0.459607 0.058926 0.117651 76 0 153
-0.414984 -0.011410 0.183232 76 0 153
-0.418321 0.468490 -0.182631 204 51 127
-0.104077 0.086886 -0.148417 76 0 153
0.211274 0.243101 -0.280962 204 51 127
-0.329101 -0.347505 -0.244589 76 0 153
-0.221003 0.087651 0.301379 76 0 153
-0.260226 -0.011410 0.398843 76 0 153
0.016696 0.228262 -0.182320 204 51 127
-0.127596 -0.011410 0.202187 76 0 153
-0.238446 0.540222 -0.182574 204 51 127
-0.350557 -0.247158 0.483726 0 127 127
0.472657 -0.450970 0.352769 76 153 0
0.434723 -0.085566 0.352765 76 153 0
0.102887 0.362446 -0.280962 204 51 127
-0.384138 -0.663207 0.352765 0 127 127
0.495095 -0.430742 -0.231089 153 0 76
-0.024414 0.611880 -0.181630 204 51 127
-0.014797 0.247557 -0.182631 204 51 127
0.364545 -0.753498 -0.166435 153 0 76
-0.376329 0.242563 -0.182631 204 51 127
-0.373915 -0.608255 -0.280962 76 0 153
0.361612 -0.011399 0.306665 76 0 153
-0.303810 0.493981 -0.182631 204 51 127
0.191082 0.087922 0.109092 76 0 153
-0.037049 -0.004312 0.482870 76 0 153
-0.452580 -0.011121 0.022314 76 0 153
-0.365923 -0.252934 0.483782 0 127 127
-0.328600 -0.200777 0.397400 0 127 127
0.364227 -0.556575 -0.240874 153 0 76
-0.411875 -0.570797 -0.150193 76 0 153
0.478135 -0.081134 0.483689 76 153 0
-0.403801 -0.387397 -0.149945 76 0 153
-0.416522 -0.429754 -0.280962 76 0 153
0.127755 -0.011410 0.116312 76 0 153
-0.244816 0.274591 -0.182631 204 51 127
0.495147 0.005233 0.171811 76 0 153
-0.459613 0.449103 -0.257750 204 51 127
-0.073877 0.087626 0.199243 76 0 153
-0.024684 -0.011410 0.024404 76 0 153
0.191358 -0.011410 0.238860 76 0 153
0.389634 0.682363 -0.280962 204 51 127
-0.359548 -0.771883 0.445270 0 127 127
-0.440148 -0.303930 0.483767 0 127 127
0.401045 0.328489 -0.280962 204 51 127
-0.182366 0.441666 -0.182631 204 51 127
0.494882 0.065906 0.031582 76 0 153
0.444576 -0.712243 0.483092 76 153 0
0.059345 0.640508 -0.280962 204 51 127
-0.178486 0.087813 0.161572 76 0 153
0.067360 0.721035 -0.245012 204 51 127
0.408180 0.508875 -0.182631 204 51 127
-0.338812 -0.307766 0.354862 0 127 127
0.017083 0.224142 -0.280962 204 51 127
0.344443 0.235903 -0.280962 204 51 127
0.364227 -0.250170 -0.190777 153 0 76
0.364227 -0.729393 0.424163 76 153 0
0.062205 -0.011410 0.430397 76 0 153
0.226037 0.284402 -0.280962 204 51 127
0.396665 -0.304403 -0.149994 153 0 76
-0.459618 -0.285628 -0.214365 76 0 153
-0.007330 0.066700 0.482820 76 0 153
-0.208161 -0.011410 0.090348 76 0 153
-0.427475 -0.573320 0.352766 0 127 127
-0.005413 -0.011147 0.475265 76 0 153
-0.366619 0.164523 -0.280962 204 51 127
-0.350777 -0.657077 -0.150274 76 0 153
-0.459618 0.033810 0.079098 76 0 153
0.489764 -0.076102 0.354302 76 153 0
0.495200 -0.044308 0.371430 76 153 0
-0.459618 -0.493619 -0.208369 76 0 153
0.495226 -0.531653 0.376123 76 153 0
-0.422589 0.013296 -0.280962 76 0 153
-0.135248 0.086921 -0.051326 76 0 153
-0.240310 0.250385 -0.182631 204 51 127
-0.088505 -0.011410 0.110712 76 0 153
0.036970 -0.011410 -0.140983 76 0 153
0.291436 0.420311 -0.182631 204 51 127
-0.391139 0.450366 -0.182631 204 51 127
-0.399029 -0.285290 0.483449 0 127 127
-0.390602 -0.011410 0.025575 76 0 153
0.342368 0.330360 -0.182631 204 51 127
-0.158166 0.634175 -0.181630 204 51 127
-0.244261 -0.011410 -0.216014 76 0 153
-0.332682 0.166592 -0.280962 204 51 127
0.247839 0.115609 -0.280962 204 51 127
0.494618 0.316786 -0.193173 204 51 127
0.495043 0.072271 0.415357 76 0 153
-0.312582 0.087547 0.148499 76 0 153
-0.329197 -0.380199 0.378376 0 127 127
0.372158 0.494661 -0.280962 204 51 127
-0.198336 0.622552 -0.280962 204 51 127
-0.322075 0.086921 0.434931 76 0 153
0.449718 0.086921 0.355583 76 0 153
0.416444 0.642667 -0.182631 204 51 127
0.475126 0.087788 0.130760 76 0 153
-0.207645 -0.011406 -0.251831 76 0 153
0.201795 0.086961 -0.048662 76 0 153
0.488377 -0.367652 -0.280156 153 0 76
0.366095 -0.180054 -0.159385 153 0 76
0.396312 0.294033 -0.280962 204 51 127
-0.356832 -0.149490 0.352802 0 127 127
0.156500 0.190501 -0.280962 204 51 127
-0.266476 0.674193 -0.181630 204 51 127
-0.328882 -0.710083 0.458907 0 127 127
-0.459618 -0.011397 -0.232233 76 0 153
-0.430347 0.555894 -0.182633 204 51 127
0.085931 0.315143 -0.181630 204 51 127
-0.145460 0.718975 -0.276057 204 51 127
0.364227 -0.721345 0.441170 76 153 0
0.205570 -0.011410 -0.081445 76 0 153
-0.268873 0.254740 -0.182631 204 51 127
-0.393219 0.360368 -0.182631 204 51 127
0.463189 -0.310625 -0.149946 153 0 76
-0.171513 0.211065 -0.280962 204 51 127
0.200643 -0.011410 -0.058873 76 0 153
0.085719 0.086921 0.285184 76 0 153
0.495244 -0.124248 -0.181168 153 0 76
-0.189349 -0.011410 0.304192 76 0 153
0.192408 0.558347 -0.182631 204 51 127
-0.395113 -0.483532 -0.280962 76 0 153
-0.328825 -0.212154 0.467380 0 127 127
0.059354 0.548766 -0.182631 204 51 127
0.247505 0.721510 -0.263382 204 51 127
0.364274 -0.065320 0.375606 76 153 0
0.368757 -0.355139 0.481167 76 153 0
-0.408002 0.056673 -0.280962 76 0 153
-0.269463 0.087922 0.237156 76 0 153
0.118450 -0.011410 0.266457 76 0 153
-0.459618 -0.072246 0.432789 0 127 127
0.327222 0.067844 0.482077 76 0 153
0.014372 0.371328 -0.182367 204 51 127
0.003881 0.086921 0.284312 76 0 153
-0.210512 0.607561 -0.280962 204 51 127
0.433530 0.314830 -0.280962 204 51 127
-0.434256 0.212481 -0.280955 204 51 127
0.370186 -0.372570 -0.153359 153 0 76
0.165595 -0.011410 -0.183860 76 0 153
0.311889 0.087921 -0.039953 76 0 153
0.373204 -0.544260 0.482321 76 153 0
0.350105 0.086921 0.245184 76 0 153
-0.310747 0.720980 -0.244533 204 51 127
0.130623 -0.000924 -0.280743 76 0 153
-0.192521 0.086414 0.466054 76 0 153
0.120202 -0.011410 -0.235806 76 0 153
0.324869 0.087922 0.053913 76 0 153
0.364227 -0.414245 0.386193 76 153 0
-0.383290 -0.443229 0.352765 0 127 127
-0.012632 -0.011410 0.346925 76 0 153
0.422479 0.087922 0.036513 76 0 153
0.492621 -0.147817 -0.278802 153 0 76
0.089928 0.556052 -0.280962 204 51 127
0.314942 0.082787 -0.280962 76 0 153
0.042653 0.419964 -0.280962 204 51 127
-0.060892 0.086921 0.103020 76 0 153
-0.396550 -0.682121 0.352765 0 127 127
0.494311 0.457756 -0.199623 204 51 127
0.381397 -0.645788 -0.280718 153 0 76
-0.328828 -0.729717 -0.271253 76 0 153
-0.320922 0.297025 -0.280962 204 51 127
0.477201 0.116739 -0.181143 204 51 127
-0.285579 0.158091 -0.182631 204 51 127
0.364227 -0.081347 -0.211721 153 0 76
-0.459618 0.269770 -0.225678 204 51 127
-0.000862 0.708852 -0.181985 204 51 127
0.037101 0.720997 -0.243116 204 51 127
0.216779 0.086921 0.384439 76 0 153
0.274633 0.720622 -0.207082 204 51 127
-0.308397 0.087922 0.191880 76 0 153
0.364227 -0.405461 -0.192774 153 0 76
-0.223727 0.086921 -0.085773 76 0 153
0.364227 -0.244556 -0.228258 153 0 76
-0.122010 0.694238 -0.181632 204 51 127
-0.459527 -0.384146 0.365451 0 127 127
-0.394092 -0.250156 -0.280962 76 0 153
0.049610 0.577997 -0.182631 204 51 127
0.021508 -0.011410 -0.061520 76 0 153
-0.369715 -0.578749 -0.280962 76 0 153
-0.449581 -0.104247 -0.280600 76 0 153
0.450385 -0.591359 -0.280962 153 0 76
0.481454 -0.011331 0.220382 76 0 153
-0.201971 -0.011410 0.401137 76 0 153
-0.451798 -0.055480 0.353209 0 127 127
-0.438713 -0.723839 0.483772 0 127 127
-0.003199 0.369682 -0.182631 204 51 127
-0.390207 -0.000906 -0.280962 76 0 153
0.364277 -0.593896 0.375413 76 153 0
-0.446981 -0.588028 -0.280699 76 0 153
-0.326031 0.087922 0.324269 76 0 153
-0.331752 -0.657870 0.360387 0 127 127
-0.359239 -0.476100 0.483782 0 127 127
-0.408483 -0.295346 -0.280962 76 0 153
0.106093 0.086921 0.008139 76 0 153
-0.328826 -0.374240 -0.223367 76 0 153
-0.233733 0.236767 -0.182631 204 51 127
-0.455539 0.387545 -0.279402 204 51 127
0.364227 -0.292593 -0.218574 153 0 76
-0.459618 -0.486847 -0.242227 76 0 153
0.494578 0.478019 -0.214881 204 51 127
-0.447691 -0.011298 -0.026692 76 0 153
-0.313028 0.681063 -0.280962 204 51 127
-0.272575 -0.011410 -0.090369 76 0 153
-0.459618 -0.448696 -0.241008 76 0 153
0.145203 0.459549 -0.280962 204 51 127
0.065024 0.706429 -0.182309 204 51 127
-0.438282 -0.090478 0.352768 0 127 127
0.139343 0.026892 -0.280962 76 0 153
0.495245 0.225085 -0.238046 204 51 127
0.159913 0.390330 -0.280962 204 51 127
0.416840 -0.039152 -0.280962 153 0 76
-0.392500 -0.095865 0.483426 0 127 127
0.250727 0.086921 0.269251 76 0 153
0.364227 -0.375707 0.409260 76 153 0
0.364232 -0.695483 0.461757 76 153 0
0.009918 0.266231 -0.182458 204 51 127
-0.435834 0.091477 -0.280954 76 0 153
-0.341567 0.096098 -0.174788 204 51 127
0.397828 -0.724825 -0.280961 153 0 76
-0.173601 0.044656 -0.280962 76 0 153
-0.459618 -0.057132 -0.190374 76 0 153
-0.267693 0.351308 -0.182631 204 51 127
0.428659 -0.011410 0.178532 76 0 153
0.435096 -0.011410 0.112912 76 0 153
-0.352649 0.086921 -0.057929 76 0 153
0.495245 -0.486563 -0.228120 153 0 76
0.494886 -0.250155 0.375012 76 153 0
-0.459615 -0.645449 -0.250413 76 0 153
0.495245 -0.129043 0.421838 76 153 0
-0.421095 0.087922 0.339168 76 0 153
0.329286 -0.011498 0.470953 76 0 153
-0.312587 -0.018180 -0.222698 76 0 153
0.451795 -0.643194 0.483116 76 153 0
-0.206843 0.087035 0.450711 76 0 153
0.403969 -0.269427 -0.280962 153 0 76
-0.269384 0.086886 -0.148427 76 0 153
-0.459616 -0.222243 -0.250163 76 0 153
0.263390 -0.011410 0.180335 76 0 153
0.495245 0.005371 -0.151762 76 0 153
-0.445715 -0.011322 0.052670 76 0 153
0.130202 0.004676 0.483397 76 0 153
0.369985 0.264901 -0.280962 204 51 127
-0.045740 -0.011410 0.043585 76 0 153
-0.339004 -0.144807 -0.151795 76 0 153
-0.331322 -0.351478 0.477880 0 127 127
-0.371083 0.625895 -0.182591 204 51 127
0.423584 0.397308 -0.280962 204 51 127
-0.297198 0.306739 -0.182631 204 51 127
-0.131286 0.103425 -0.280962 76 0 153
0.054050 0.086921 -0.033701 76 0 153
-0.328600 -0.132909 -0.241955 76 0 153
0.268592 0.280504 -0.280962 204 51 127
0.457452 -0.484406 0.483462 76 153 0
0.451481 -0.313141 -0.280962 153 0 76
0.125289 0.086921 0.180658 76 0 153
0.477468 -0.766995 0.481787 76 153 0
-0.404828 -0.633618 0.483420 0 127 127
0.373168 -0.131945 0.355117 76 153 0
0.494735 -0.267434 -0.250736 153 0 76
0.364227 -0.177549 0.450323 76 153 0
0.426157 0.629494 -0.182631 204 51 127
-0.068735 0.458962 -0.182227 204 51 127
0.232551 0.086921 0.192780 76 0 153
-0.329134 0.691420 -0.181632 204 51 127
-0.363859 -0.011410 -0.072592 76 0 153
0.244771 0.087922 0.018351 76 0 153
-0.293937 -0.011410 0.056765 76 0 153
0.436226 -0.697821 0.352765 76 153 0
0.266940 0.138768 -0.280962 204 51 127
-0.162660 -0.011410 0.074524 76 0 153
0.416318 -0.771884 0.392026 76 153 0
0.411799 0.362132 -0.280962 204 51 127
0.281135 0.086921 0.347341 76 0 153
-0.459575 -0.209024 0.468767 0 127 127
0.058624 -0.006065 0.482612 76 0 153
0.263158 0.605433 -0.280962 204 51 127
0.494835 0.302366 -0.270377 204 51 127
-0.328600 -0.686791 -0.221187 76 0 153
-0.459615 -0.238080 -0.252199 76 0 153
0.364227 -0.266108 -0.221909 153 0 76
-0.379480 -0.769181 0.359240 0 127 127
-0.406651 -0.036965 -0.280962 76 0 153
0.364227 -0.168956 -0.241298 153 0 76
0.364340 -0.634678 0.370000 76 153 0
-0.328600 -0.531904 -0.241402 76 0 153
0.202612 0.086921 -0.108836 76 0 153
-0.286834 0.086921 0.076219 76 0 153
-0.228457 -0.011410 0.294130 76 0 153
0.193889 -0.011410 -0.232242 76 0 153
-0.459466 -0.499097 -0.162089 76 0 153
0.451258 0.057754 -0.280962 76 0 153
-0.459583 0.068952 0.241168 76 0 153
-0.101089 0.263788 -0.182631 204 51 127
-0.459587 -0.434291 0.465998 0 127 127
-0.404806 -0.262512 -0.150279 76 0 153
0.006535 0.478825 -0.280962 204 51 127
0.126774 0.252350 -0.280962 204 51 127
-0.331818 -0.270438 -0.275944 76 0 153
-0.218581 0.390283 -0.182631 204 51 127
0.364227 -0.662452 -0.223386 153 0 76
0.077567 -0.011410 -0.030927 76 0 153
0.096290 0.720980 -0.230650 204 51 127
-0.425970 -0.478698 0.352765 0 127 127
-0.187334 0.469226 -0.280962 204 51 127
-0.424122 -0.225528 0.352765 0 127 127
0.426690 0.086921 0.206752 76 0 153
0.144777 0.086921 0.248776 76 0 153
0.375540 -0.011410 0.171621 76 0 153
-0.328677 -0.671229 -0.170101 76 0 153
-0.459591 -0.516533 0.465094 0 127 127
-0.377578 -0.771884 -0.193111 76 0 153
-0.328600 -0.192667 0.423598 0 127 127
0.205013 0.087134 0.455585 76 0 153
0.366488 -0.420863 0.361430 76 153 0
-0.232809 -0.003501 0.482965 76 0 153
0.479474 0.492554 -0.280805 204 51 127
-0.324086 -0.030821 -0.223467 76 0 153
-0.219058 0.343393 -0.182631 204 51 127
0.364227 -0.301857 0.380888 76 153 0
-0.342798 -0.754200 0.353535 0 127 127
-0.104094 0.669898 -0.280962 204 51 127
0.461131 -0.771882 -0.248690 153 0 76
0.117548 0.398395 -0.280962 204 51 127
-0.426972 -0.011776 -0.112666 76 0 153
-0.029829 -0.011410 0.091317 76 0 153
0.492734 -0.375474 -0.154354 153 0 76
0.289696 0.390362 -0.182631 204 51 127
0.364228 -0.373637 0.459482 76 153 0
-0.234895 -0.011410 0.235670 76 0 153
0.314724 0.468816 -0.280962 204 51 127
0.411735 -0.771884 -0.232522 153 0 76
0.425545 0.658056 -0.280962 204 51 127
-0.293450 0.064117 -0.280962 76 0 153
0.408628 -0.425416 0.352765 76 153 0
-0.347990 -0.161742 -0.280764 76 0 153
0.495245 -0.581076 -0.213786 153 0 76
-0.237271 0.091558 -0.169681 76 0 153
-0.202555 0.028555 -0.280962 76 0 153
0.223021 0.604606 -0.280962 204 51 127
-0.434410 0.087921 0.223472 76 0 153
0.430170 -0.462201 -0.280962 153 0 76
0.114289 -0.011410 -0.217173 76 0 153
-0.055812 0.703546 -0.181844 204 51 127
-0.391224 0.319522 -0.280962 204 51 127
0.103290 0.086921 0.267412 76 0 153
0.055008 0.674942 -0.280962 204 51 127
-0.345646 -0.562792 -0.280721 76 0 153
-0.334560 0.336169 -0.280962 204 51 127
-0.370599 -0.110071 0.483782 0 127 127
0.330934 -0.011410 0.013459 76 0 153
-0.323708 -0.029923 -0.195291 76 0 153
0.083288 -0.010744 -0.274248 76 0 153
-0.241359 -0.011407 -0.251218 76 0 153
-0.260493 -0.011410 0.259184 76 0 153
-0.187691 -0.011410 0.115009 76 0 153
-0.328703 -0.442806 -0.224774 76 0 153
0.301475 -0.011410 -0.141603 76 0 153
-0.459519 -0.291272 -0.162568 76 0 153
-0.197027 0.449461 -0.280962 204 51 127
0.210382 -0.011410 0.282235 76 0 153
0.291471 0.595164 -0.280962 204 51 127
0.303141 0.087922 0.059430 76 0 153
0.423564 -0.094805 0.483116 76 153 0
0.438226 -0.633630 -0.150279 153 0 76
-0.210802 0.087922 0.219491 76 0 153
0.162046 0.087197 0.153365 76 0 153
-0.405898 0.106418 -0.280962 204 51 127
-0.428959 0.172536 -0.182633 204 51 127
0.390073 -0.771842 0.457689 76 153 0
-0.420747 0.087922 0.295408 76 0 153
-0.124470 0.617309 -0.181630 204 51 127
-0.159083 -0.011410 0.179825 76 0 153
-0.004156 -0.011410 -0.015076 76 0 153
0.113466 0.232737 -0.280962 204 51 127
0.093103 0.138171 -0.181630 204 51 127
0.166612 0.087781 0.124709 76 0 153
-0.459618 0.046130 -0.088001 76 0 153
0.386301 -0.411581 0.352932 76 153 0
0.495232 -0.722997 0.377318 76 153 0
0.270563 0.095787 -0.280962 76 0 153
-0.097400 -0.011410 0.328833 76 0 153
-0.328600 -0.338993 -0.179095 76 0 153
0.482172 0.154858 -0.280724 204 51 127
-0.365317 0.087922 0.226464 76 0 153
-0.382023 -0.428952 -0.280962 76 0 153
-0.435801 -0.013726 -0.280952 76 0 153
-0.459524 -0.493167 0.365429 0 127 127
0.495161 -0.700196 -0.189068 153 0 76
-0.278805 0.086921 -0.071171 76 0 153
-0.459615 -0.662553 -0.252443 76 0 153
0.477099 -0.647171 -0.280905 153 0 76
0.039795 -0.011410 0.038744 76 0 153
-0.409905 -0.059830 -0.150657 76 0 153
0.182758 -0.011410 0.131596 76 0 153
0.368214 -0.447069 -0.277444 153 0 76
-0.369855 -0.641641 -0.280962 76 0 153
0.300782 0.720516 -0.196454 204 51 127
-0.343247 -0.771651 -0.208757 76 0 153
-0.445514 -0.191257 0.483375 0 127 127
0.439243 0.435220 -0.182631 204 51 127
0.216657 -0.011410 -0.031777 76 0 153
0.252193 0.229558 -0.181630 204 51 127
0.431398 0.087922 0.050639 76 0 153
-0.004459 0.411893 -0.182337 204 51 127
0.494241 -0.509503 -0.164586 153 0 76
-0.408747 0.569374 -0.280962 204 51 127
-0.435735 0.598652 -0.280954 204 51 127
-0.459618 0.030253 0.151149 76 0 153
0.368532 -0.257599 0.480797 76 153 0
-0.398194 -0.771884 0.390239 0 127 127
0.495245 -0.667873 0.443015 76 153 0
0.268448 -0.011362 0.470165 76 0 153
-0.052658 0.086921 0.006510 76 0 153
-0.039323 0.244637 -0.182631 204 51 127
-0.268258 0.087750 0.322601 76 0 153
0.236447 0.087699 -0.018855 76 0 153
-0.043982 0.037238 -0.280962 76 0 153
-0.153526 0.555498 -0.280962 204 51 127
0.266701 0.030553 0.483115 76 0 153
-0.021247 0.123940 -0.280962 204 51 127
-0.400631 -0.055329 0.483260 0 127 127
0.267435 0.062636 -0.280962 76 0 153
0.495245 -0.099035 -0.211157 153 0 76
-0.375315 -0.151561 -0.280962 76 0 153
-0.060335 0.085787 0.469548 76 0 153
-0.200876 -0.011410 -0.197736 76 0 153
0.176067 -0.011410 -0.102148 76 0 153
-0.328600 -0.154995 0.440783 0 127 127
0.495245 -0.722645 0.397220 76 153 0
-0.331086 0.255590 -0.280962 204 51 127
0.494067 0.585788 -0.273698 204 51 127
-0.155618 0.535522 -0.181954 204 51 127
0.487726 0.407929 -0.182615 204 51 127
0.130357 0.086921 0.412711 76 0 153
-0.334591 0.086921 -0.116864 76 0 153
-0.038700 0.086921 -0.026966 76 0 153
-0.051861 0.398510 -0.280962 204 51 127
-0.186939 0.086921 0.415748 76 0 153
0.495245 -0.206946 -0.199493 153 0 76
-0.459617 -0.202111 -0.184825 76 0 153
-0.240767 -0.011410 0.146846 76 0 153
-0.417962 0.288886 -0.280962 204 51 127
-0.326898 0.086921 -0.039546 76 0 153
0.055395 0.533602 -0.182631 204 51 127
0.313164 0.151893 -0.280962 204 51 127
0.495233 -0.190984 0.461452 76 153 0
0.226197 0.010277 0.483552 76 0 153
0.143042 0.459907 -0.182631 204 51 127
-0.152548 0.098403 -0.176237 204 51 127
0.386336 -0.591779 0.483624 76 153 0
0.252453 -0.011410 0.014282 76 0 153
-0.007478 0.086921 0.419949 76 0 153
-0.459616 0.300644 -0.247201 204 51 127
-0.324376 0.667351 -0.280962 204 51 127
0.441013 -0.531487 -0.280962 153 0 76
0.374199 -0.716839 0.354755 76 153 0
-0.250356 0.476508 -0.182631 204 51 127
0.199140 -0.011267 -0.265725 76 0 153
0.495245 -0.064596 0.432157 76 153 0
0.491084 -0.010684 0.185963 76 0 153
-0.109428 -0.011410 0.442005 76 0 153
-0.221282 0.086981 0.357414 76 0 153
-0.171391 -0.011410 -0.086888 76 0 153
0.057211 0.087107 0.063933 76 0 153
0.039054 0.485834 -0.280962 204 51 127
0.205348 0.087743 0.010796 76 0 153
-0.068015 -0.011410 -0.111347 76 0 153
0.146809 0.086921 0.219733 76 0 153
0.418201 0.036906 -0.280962 76 0 153
-0.364045 0.471858 -0.280962 204 51 127
0.400912 0.604292 -0.182631 204 51 127
-0.043057 -0.011410 0.066545 76 0 153
0.317557 -0.011401 -0.195257 76 0 153
-0.272933 0.087922 0.262936 76 0 153
-0.223197 0.086921 0.045160 76 0 153
0.347499 0.086921 0.182795 76 0 153
-0.190213 0.086921 -0.077279 76 0 153
0.377194 -0.208187 0.353701 76 153 0
-0.459617 -0.432980 -0.178310 76 0 153
0.494841 -0.510381 -0.206075 153 0 76
-0.257171 0.086921 0.099950 76 0 153
-0.075007 0.569060 -0.280962 204 51 127
-0.410451 -0.548207 -0.150216 76 0 153
0.105216 -0.011406 0.451306 76 0 153
-0.249539 0.546862 -0.280962 204 51 127
0.333032 -0.012629 -0.169644 76 0 153
0.404837 -0.204562 0.352765 76 153 0
0.459260 0.386500 -0.182631 204 51 127
0.368359 -0.267353 -0.277681 153 0 76
0.041711 0.713030 -0.279903 204 51 127
0.469894 -0.014094 -0.280953 153 0 76
0.495028 0.026011 -0.268449 76 0 153
0.178102 0.086921 0.398795 76 0 153
-0.328619 -0.532409 -0.259714 76 0 153
-0.150637 0.498072 -0.280962 204 51 127
-0.125963 -0.011410 0.375313 76 0 153
-0.417298 -0.011410 0.159945 76 0 153
-0.106894 0.217212 -0.182631 204 51 127
-0.376227 -0.728605 -0.280962 76 0 153
-0.092780 0.086921 0.344080 76 0 153
-0.318794 -0.011410 0.040879 76 0 153
-0.451107 0.086804 0.097132 76 0 153
-0.328600 -0.528976 -0.226938 76 0 153
-0.111438 -0.011410 0.037591 76 0 153
-0.168877 0.007679 -0.280944 76 0 153
-0.370392 -0.227455 0.352765 0 127 127
0.448490 0.123491 -0.181868 204 51 127
-0.089334 -0.011410 -0.219199 76 0 153
0.316087 -0.011410 0.211613 76 0 153
0.494439 -0.267486 -0.157130 153 0 76
-0.273616 0.086921 0.408821 76 0 153
0.020933 0.086921 -0.119018 76 0 153
-0.406974 -0.364523 -0.280962 76 0 153
0.368338 0.086921 0.412831 76 0 153
0.159201 -0.011410 0.179409 76 0 153
0.460656 -0.204438 -0.280961 153 0 76
0.173566 0.154027 -0.280962 204 51 127
-0.222613 0.531343 -0.280962 204 51 127
-0.459053 -0.005076 -0.064043 76 0 153
-0.053949 0.196157 -0.280962 204 51 127
0.282549 0.155758 -0.280962 204 51 127
0.364267 -0.730411 -0.173318 153 0 76
-0.377460 -0.140277 -0.149995 76 0 153
0.337505 -0.011410 -0.073672 76 0 153
-0.388065 0.049023 0.483282 76 0 153
-0.459618 0.488003 -0.229437 204 51 127
-0.458657 0.082082 0.214791 76 0 153
-0.328600 -0.097047 -0.205804 76 0 153
-0.349041 -0.367721 -0.280784 76 0 153
-0.328816 -0.160126 0.374849 0 127 127
-0.059534 0.008510 0.483420 76 0 153
0.163218 -0.011410 0.292246 76 0 153
0.159843 -0.011410 -0.224243 76 0 153
-0.110676 0.496938 -0.280962 204 51 127
0.494742 0.075432 0.205202 76 0 153
-0.459562 0.673181 -0.267813 204 51 127
-0.071490 0.175532 -0.280962 204 51 127
0.073120 0.086921 0.313836 76 0 153
0.477771 0.209390 -0.182325 204 51 127
-0.409611 -0.448306 0.352765 0 127 127
-0.431803 -0.733578 -0.149947 76 0 153
0.415906 -0.011410 0.051073 76 0 153
0.413407 -0.735660 -0.280962 153 0 76
0.036685 0.390062 -0.280962 204 51 127
0.477503 -0.171924 0.352825 76 153 0
-0.459389 -0.445132 -0.161408 76 0 153
-0.239123 0.228910 -0.280962 204 51 127
0.448655 -0.379170 0.352765 76 153 0
-0.130775 -0.011410 -0.114981 76 0 153
0.235670 -0.011406 -0.253143 76 0 153
-0.101723 0.277996 -0.280962 204 51 127
-0.098337 0.498066 -0.181830 204 51 127
-0.174721 0.501696 -0.182529 204 51 127
-0.284819 -0.011395 -0.228955 76 0 153
-0.238876 0.086921 0.073242 76 0 153
0.494813 -0.155290 -0.263775 153 0 76
0.485646 -0.335662 0.483412 76 153 0
-0.238861 0.430382 -0.182631 204 51 127
-0.459528 -0.420348 0.365458 0 127 127
-0.003830 0.086921 0.038695 76 0 153
0.202071 -0.011402 0.457138 76 0 153
0.491970 0.337482 -0.279054 204 51 127
-0.459615 -0.560796 0.378983 0 127 127
-0.201563 -0.011410 0.046451 76 0 153
0.337412 0.086921 0.371071 76 0 153
0.471748 -0.179691 0.483772 76 153 0
-0.417865 0.248760 -0.182631 204 51 127
-0.410234 -0.157348 0.483116 0 127 127
0.229142 -0.011410 0.001883 76 0 153
-0.458693 0.080834 -0.093702 76 0 153
-0.352893 0.223118 -0.280962 204 51 127
0.317156 0.711063 -0.280353 204 51 127
0.393343 -0.011410 0.190623 76 0 153
0.113136 0.333904 -0.280962 204 51 127
0.364227 -0.268869 -0.185127 153 0 76
-0.367444 0.388291 -0.280962 204 51 127
-0.112317 0.212117 -0.280962 204 51 127
-0.354730 -0.636349 0.483500 0 127 127
0.484656 -0.670971 0.483159 76 153 0
-0.389312 -0.739228 -0.280962 76 0 153
-0.328623 0.554855 -0.182631 204 51 127
-0.130775 -0.011410 -0.230588 76 0 153
0.364227 -0.078451 -0.181410 153 0 76
-0.328600 -0.611451 -0.245796 76 0 153
0.052490 -0.011141 -0.271353 76 0 153
-0.387964 -0.104546 -0.150209 76 0 153
0.338373 -0.002109 -0.280729 76 0 153
0.494584 0.432574 -0.218050 204 51 127
0.174622 -0.011410 0.445817 76 0 153
-0.099388 -0.011410 -0.060896 76 0 153
0.112318 -0.011410 0.098638 76 0 153
-0.459618 -0.389808 0.412925 0 127 127
-0.437341 -0.126191 -0.280953 76 0 153
0.407936 -0.483958 0.483782 76 153 0
0.433251 -0.611884 0.483322 76 153 0
-0.448499 -0.113422 0.483123 0 127 127
0.494856 -0.223224 0.475957 76 153 0
0.451974 -0.173389 0.352765 76 153 0
0.226755 0.427595 -0.280962 204 51 127
-0.459618 -0.132072 0.386060 0 127 127
-0.444249 -0.266762 -0.280802 76 0 153
-0.259233 0.580785 -0.280962 204 51 127
-0.043738 0.635153 -0.181630 204 51 127
0.233106 0.286573 -0.182145 204 51 127
-0.080656 -0.011186 -0.269974 76 0 153
-0.310865 0.427860 -0.182631 204 51 127
0.392606 0.086921 0.223553 76 0 153
0.454038 -0.579625 -0.150092 153 0 76
0.483987 -0.199260 0.353065 76 153 0
-0.185155 0.194862 -0.280962 204 51 127
-0.108859 0.653436 -0.280962 204 51 127
-0.199007 0.001757 0.483029 76 0 153
0.295518 0.086921 0.293296 76 0 153
-0.459584 -0.616458 0.372307 0 127 127
-0.105544 0.352466 -0.182631 204 51 127
-0.143886 0.461807 -0.182631 204 51 127
-0.459617 0.481975 -0.214601 204 51 127
0.318098 0.381264 -0.182631 204 51 127
0.300604 -0.011410 0.395061 76 0 153
0.364227 -0.201228 -0.204801 153 0 76
-0.382824 -0.061165 0.352765 0 127 127
0.266390 -0.011308 -0.263592 76 0 153
0.495001 -0.529119 0.458333 76 153 0
-0.459618 0.170260 -0.240842 204 51 127
-0.328935 -0.319653 -0.256853 76 0 153
-0.122862 0.047966 0.483604 76 0 153
-0.422079 -0.524434 -0.149945 76 0 153
0.377688 0.087518 0.137590 76 0 153
0.364227 -0.318246 0.391609 76 153 0
-0.062346 0.674609 -0.181630 204 51 127
0.494687 -0.378722 -0.246801 153 0 76
0.468362 -0.616706 0.483286 76 153 0
-0.430653 -0.178333 0.483246 0 127 127
-0.162425 0.307244 -0.182631 204 51 127
-0.459613 -0.487961 0.453254 0 127 127
-0.357754 -0.682620 -0.280946 76 0 153
-0.348078 -0.591869 -0.280766 76 0 153
0.334994 0.392056 -0.280962 204 51 127
-0.282090 0.087922 0.282664 76 0 153
0.495245 -0.504715 0.394333 76 153 0
0.446215 -0.574215 0.483328 76 153 0
-0.131541 0.648902 -0.181630 204 51 127
-0.037273 0.585279 -0.181630 204 51 127
-0.265738 0.086975 0.380230 76 0 153
0.160159 0.622411 -0.182631 204 51 127
0.142571 0.558413 -0.182631 204 51 127
0.200220 0.433819 -0.280962 204 51 127
-0.213455 0.086921 0.403282 76 0 153
0.031195 -0.011410 0.263781 76 0 153
-0.377767 0.598289 -0.280962 204 51 127
-0.329269 -0.454994 -0.186795 76 0 153
0.064236 0.086921 0.172298 76 0 153
-0.402371 0.693017 -0.182023 204 51 127
0.367800 -0.361606 0.358835 76 153 0
0.205703 0.657884 -0.182631 204 51 127
0.255601 0.647276 -0.280962 204 51 127
0.204184 0.133123 -0.280962 204 51 127
0.039164 0.715380 -0.185044 204 51 127
0.125555 0.720525 -0.197390 204 51 127
0.321258 -0.011395 0.375779 76 0 153
0.253569 -0.011410 0.365985 76 0 153
-0.205618 0.087921 0.169834 76 0 153
0.009183 0.086921 -0.037233 76 0 153
0.347519 -0.011410 0.168193 76 0 153
0.047235 0.652887 -0.182631 204 51 127
-0.004905 0.321187 -0.280962 204 51 127
-0.315492 0.481622 -0.182631 204 51 127
-0.021983 -0.011410 0.122893 76 0 153
-0.261873 0.087921 0.168132 76 0 153
0.477185 -0.456874 0.483723 76 153 0
0.463149 0.086991 0.218385 76 0 153
-0.189297 -0.010480 0.480167 76 0 153
-0.355291 -0.082020 -0.150016 76 0 153
-0.336947 -0.769491 0.412677 0 127 127
0.115631 0.687141 -0.182460 204 51 127
-0.328921 -0.673513 0.457708 0 127 127
-0.069251 0.417704 -0.182622 204 51 127
0.364432 -0.751607 -0.265715 153 0 76
-0.328666 -0.553135 -0.206299 76 0 153
0.133187 -0.011410 0.216406 76 0 153
0.493727 0.623281 -0.189032 204 51 127
-0.060072 -0.011410 0.429724 76 0 153
0.418957 -0.300576 0.352765 76 153 0
-0.459461 -0.035382 -0.160079 76 0 153
0.495245 -0.001880 0.426963 76 0 153
0.427811 0.568112 -0.182631 204 51 127
0.381277 -0.470033 -0.150222 153 0 76
-0.275023 0.199814 -0.182631 204 51 127
0.411239 -0.060400 0.352765 76 153 0
-0.350774 -0.030898 0.347664 0 127 127
0.364563 -0.758995 0.446286 76 153 0
0.114649 0.601062 -0.182631 204 51 127
0.161737 0.136826 -0.181631 204 51 127
0.316477 0.465276 -0.182631 204 51 127
0.103889 0.490606 -0.182631 204 51 127
-0.415340 -0.250946 0.483449 0 127 127
0.490851 -0.319111 -0.153243 153 0 76
-0.335207 -0.597497 0.356058 0 127 127
0.395751 0.204199 -0.182479 204 51 127
0.364227 -0.478133 0.444207 76 153 0
0.494084 -0.528489 -0.162134 153 0 76
-0.444131 -0.282623 0.352914 0 127 127
0.339305 0.087922 0.022308 76 0 153
0.138680 0.187751 -0.181630 204 51 127
0.416631 0.517434 -0.280962 204 51 127
-0.328600 -0.221704 0.441016 0 127 127
0.494272 -0.427408 0.357732 76 153 0
0.418616 0.721287 -0.271270 204 51 127
-0.388799 0.086921 -0.052869 76 0 153
0.304999 -0.011410 0.334648 76 0 153
-0.048253 0.323070 -0.182631 204 51 127
0.140833 -0.011410 0.133314 76 0 153
0.364322 -0.045144 0.412714 76 153 0
0.360614 0.086921 0.373192 76 0 153
-0.382274 0.567801 -0.280962 204 51 127
-0.328601 -0.367745 0.461138 0 127 127
0.364227 -0.313223 0.406894 76 153 0
-0.016471 -0.011410 -0.053185 76 0 153
-0.095007 -0.011410 0.196999 76 0 153
-0.459612 -0.159485 0.453951 0 127 127
0.210310 0.086921 0.249798 76 0 153
-0.083607 0.243437 -0.182631 204 51 127
0.026051 0.090362 -0.167188 76 0 153
0.364227 -0.440379 0.382607 76 153 0
-0.038734 0.086921 0.353537 76 0 153
-0.369385 -0.107379 0.352765 0 127 127
0.366758 -0.596519 -0.158075 153 0 76
0.331072 -0.011410 0.257160 76 0 153
-0.454667 -0.425843 0.482464 0 127 127
0.398611 -0.166524 0.483511 76 153 0
0.117137 -0.011410 -0.027826 76 0 153
-0.459587 -0.644189 -0.169894 76 0 153
0.215703 0.359645 -0.182631 204 51 127
-0.328600 -0.077495 0.383150 0 127 127
-0.459617 0.503523 -0.216021 204 51 127
-0.284369 0.091382 -0.280962 76 0 153
-0.309282 0.720961 -0.266268 204 51 127
0.367991 0.285960 -0.280962 204 51 127
-0.339410 0.061334 -0.280962 76 0 153
-0.459404 0.090255 -0.192545 204 51 127
0.344646 0.123784 -0.280962 204 51 127
-0.387650 -0.677648 0.483116 0 127 127
-0.383101 -0.001068 0.483544 76 0 153
0.495244 -0.275495 -0.181824 153 0 76
-0.207859 0.087560 0.149128 76 0 153
-0.313679 0.087206 0.459173 76 0 153
-0.286901 0.139716 -0.280962 204 51 127
0.359668 0.654984 -0.280962 204 51 127
0.329415 -0.011410 0.292859 76 0 153
0.495245 0.028273 0.237995 76 0 153
-0.457160 -0.040189 0.356004 0 127 127
-0.328623 -0.642592 -0.259956 76 0 153
-0.387686 0.086921 0.115999 76 0 153
0.207932 0.297642 -0.182037 204 51 127
-0.459567 0.275326 -0.200358 204 51 127
0.000524 0.001871 0.483197 76 0 153
-0.131997 0.086921 0.344721 76 0 153
-0.328600 -0.582254 0.419163 0 127 127
0.392730 -0.396183 -0.149977 153 0 76
-0.259972 -0.011410 0.143745 76 0 153
-0.323828 0.066458 0.483348 76 0 153
-0.459618 -0.572408 0.404522 0 127 127
0.240919 0.087419 0.142455 76 0 153
0.445473 -0.143486 -0.280962 153 0 76
-0.313284 -0.011410 0.256580 76 0 153
-0.344377 -0.385575 -0.280697 76 0 153
0.100350 -0.011410 0.149931 76 0 153
-0.038956 -0.011410 0.283788 76 0 153
-0.334145 -0.204465 -0.153552 76 0 153
-0.204874 0.086921 0.357226 76 0 153
0.244973 0.087399 -0.046018 76 0 153
0.099804 0.060764 0.482759 76 0 153
-0.068192 0.164901 -0.182631 204 51 127
0.140393 -0.011410 -0.049972 76 0 153
0.403012 -0.047875 0.483002 76 153 0
-0.302674 -0.004698 -0.280704 76 0 153
0.364227 -0.499490 -0.199983 153 0 76
-0.319424 0.720973 -0.199232 204 51 127
0.364274 -0.395293 0.375601 76 153 0
-0.279161 -0.010581 -0.275434 76 0 153
0.415452 -0.129209 0.483116 76 153 0
-0.065476 0.086921 0.411583 76 0 153
-0.115812 0.566631 -0.181630 204 51 127
-0.210696 -0.011410 0.340441 76 0 153
0.354664 -0.023634 -0.255198 76 0 153
0.228074 0.476681 -0.280962 204 51 127
0.495245 0.033175 -0.036820 76 0 153
-0.328738 -0.697234 -0.164805 76 0 153
0.335909 0.086921 0.207170 76 0 153
-0.332277 -0.058570 0.358695 0 127 127
0.488571 -0.044575 0.483061 76 153 0
-0.328742 -0.061157 -0.267165 76 0 153
-0.338089 0.536528 -0.280962 204 51 127
0.460394 -0.770086 0.361599 76 153 0
0.378712 -0.648430 -0.150351 153 0 76
0.486863 -0.601167 0.353171 76 153 0
0.039940 0.069026 -0.280962 76 0 153
-0.371078 0.221477 -0.182631 204 51 127
0.495245 -0.171153 -0.214873 153 0 76
0.305759 0.439043 -0.280962 204 51 127
0.478054 -0.623448 0.352845 76 153 0
-0.443573 0.007347 0.483036 76 0 153
0.237376 -0.011410 0.072240 76 0 153
-0.363421 -0.765752 -0.154550 76 0 153
0.077746 0.333103 -0.280962 204 51 127
0.364227 -0.460674 0.395626 76 153 0
0.179401 0.352677 -0.182610 204 51 127
0.071884 -0.011410 -0.144186 76 0 153
0.495245 0.026308 0.429036 76 0 153
-0.459570 0.703742 -0.217248 204 51 127
-0.457633 -0.704040 -0.278729 76 0 153
0.364317 -0.633106 -0.168828 153 0 76
-0.392069 -0.011410 0.063432 76 0 153
0.333013 0.332571 -0.280962 204 51 127
-0.275191 0.070254 0.482738 76 0 153
0.495245 -0.440206 0.381868 76 153 0
0.436917 0.601177 -0.280962 204 51 127
-0.215872 0.333190 -0.280962 204 51 127
-0.322494 -0.026494 -0.269590 76 0 153
0.482124 -0.194465 -0.150788 153 0 76
-0.349600 -0.504429 -0.280794 76 0 153
0.224889 0.679500 -0.182614 204 51 127
-0.346752 -0.470546 -0.280741 76 0 153
-0.414997 -0.203135 -0.150466 76 0 153
0.257395 0.086921 0.233275 76 0 153
0.007089 0.197371 -0.182516 204 51 127
0.148819 0.086921 0.187647 76 0 153
0.383729 -0.513601 0.483573 76 153 0
0.315581 0.096882 -0.174852 204 51 127
-0.434266 0.119512 -0.182274 204 51 127
-0.328952 -0.456285 0.370029 0 127 127
0.495245 -0.236890 0.415257 76 153 0
0.216130 0.041437 0.483094 76 0 153
-0.323648 0.086457 -0.280962 76 0 153
0.059357 0.457851 -0.182631 204 51 127
-0.459234 -0.725861 -0.160025 76 0 153
0.391322 -0.201709 -0.280906 153 0 76
-0.459618 0.025123 0.007658 76 0 153
-0.459618 -0.238920 -0.221123 76 0 153
0.236034 -0.011410 -0.086707 76 0 153
0.429126 -0.336972 -0.280962 153 0 76
-0.415798 -0.387377 0.352765 0 127 127
0.445340 -0.203242 -0.280962 153 0 76
0.494985 -0.685855 -0.266001 153 0 76
-0.369256 -0.563629 0.352765 0 127 127
0.495242 -0.691351 -0.249505 153 0 76
0.216493 0.449858 -0.280962 204 51 127
-0.441989 0.017009 -0.280888 76 0 153
0.467878 0.592410 -0.182468 204 51 127
-0.321337 -0.011410 0.155335 76 0 153
0.113674 0.102611 -0.178292 204 51 127
0.051232 0.494722 -0.280962 204 51 127
0.364392 -0.103599 -0.163050 153 0 76
-0.400858 -0.727330 0.352765 0 127 127
-0.037407 -0.011410 0.325652 76 0 153
0.107147 0.512258 -0.280962 204 51 127
0.441517 0.650670 -0.280962 204 51 127
-0.404401 -0.013556 0.322216 76 0 153
-0.459572 0.009204 -0.266026 76 0 153
0.021998 0.087463 0.129408 76 0 153
0.128481 0.087163 0.025208 76 0 153
0.079226 -0.011410 0.103943 76 0 153
0.139364 0.116318 -0.180966 204 51 127
0.382288 0.087922 0.016671 76 0 153
0.441980 0.447284 -0.280962 204 51 127
-0.106314 -0.011410 0.090998 76 0 153
0.495011 -0.428876 0.423885 76 153 0
-0.459618 -0.373006 0.444881 0 127 127
-0.329279 -0.463504 0.442856 0 127 127
-0.328601 -0.253232 0.454602 0 127 127
0.377162 -0.522225 -0.150898 153 0 76
0.332532 0.086837 -0.154566 76 0 153
-0.302391 0.530202 -0.280962 204 51 127
0.320807 -0.011410 -0.047512 76 0 153
0.451884 -0.771884 0.425678 76 153 0
0.300424 0.487166 -0.182631 204 51 127
0.422056 -0.251017 0.483532 76 153 0
-0.441505 -0.273155 0.483723 0 127 127
0.171827 0.095292 -0.173897 204 51 127
-0.205780 0.504478 -0.182631 204 51 127
-0.222444 -0.011410 -0.217687 76 0 153
-0.459618 -0.398298 -0.202864 76 0 153
0.488855 0.526119 -0.183289 204 51 127
0.173769 0.086921 0.296410 76 0 153
0.021783 0.550195 -0.280962 204 51 127
-0.189177 0.086921 0.102655 76 0 153
0.364227 -0.622136 0.446862 76 153 0
-0.393336 -0.423941 -0.149945 76 0 153
-0.459584 0.228047 -0.203575 204 51 127
-0.190548 0.087421 0.142302 76 0 153
-0.348617 0.087922 0.300118 76 0 153
-0.202162 0.423154 -0.182631 204 51 127
0.449181 -0.449795 0.352765 76 153 0
0.117590 0.704222 -0.280877 204 51 127
-0.408385 -0.765731 -0.155093 76 0 153
0.368592 -0.533331 0.357267 76 153 0
-0.351679 -0.039451 -0.149087 76 0 153
-0.330178 -0.324008 -0.159977 76 0 153
-0.329217 -0.411089 -0.178536 76 0 153
0.494245 0.666008 -0.211124 204 51 127
0.364228 -0.655343 -0.258209 153 0 76
0.492911 -0.768801 -0.215986 153 0 76
0.475342 -0.713153 0.483085 76 153 0
-0.225555 0.192784 -0.182631 204 51 127
-0.459617 -0.007327 -0.161180 76 0 153
0.060001 0.023193 0.483685 76 0 153
0.441171 -0.427965 0.483782 76 153 0
0.349912 0.366827 -0.182631 204 51 127
0.446217 -0.079625 0.483507 76 153 0
0.460793 0.035581 -0.280961 76 0 153
0.287228 0.299879 -0.280962 204 51 127
-0.163029 -0.011410 0.250650 76 0 153
-0.459618 -0.307707 -0.220453 76 0 153
0.232791 0.501758 -0.280962 204 51 127
0.356296 -0.011410 -0.027368 76 0 153
0.495198 -0.697171 0.467073 76 153 0
0.494957 0.084694 -0.187785 76 0 153
0.037032 0.697851 -0.280934 204 51 127
-0.396263 -0.734389 0.483216 0 127 127
0.239330 0.087922 0.111421 76 0 153
-0.368455 -0.412122 -0.149945 76 0 153
-0.340135 -0.316822 -0.280027 76 0 153
0.004966 0.551256 -0.182035 204 51 127
-0.060771 0.086921 -0.122051 76 0 153
-0.078271 0.454457 -0.280962 204 51 127
-0.413659 0.554138 -0.182631 204 51 127
-0.372315 -0.494229 -0.149945 76 0 153
-0.152163 -0.011410 -0.157683 76 0 153
-0.358056 -0.022840 -0.138045 76 0 153
-0.328600 -0.668483 -0.237445 76 0 153
-0.180102 -0.011410 -0.137016 76 0 153
0.186036 -0.011410 0.381596 76 0 153
-0.188915 0.718537 -0.277102 204 51 127
0.474630 0.087224 0.439762 76 0 153
-0.163701 0.243177 -0.280962 204 51 127
0.356958 0.174572 -0.280962 204 51 127
0.078972 0.501731 -0.280962 204 51 127
-0.459582 -0.299674 0.371808 0 127 127
-0.459618 -0.082421 0.414660 0 127 127
0.495195 -0.147740 0.407535 76 153 0
0.215529 0.593279 -0.182631 204 51 127
0.427201 -0.200820 -0.280962 153 0 76
-0.379944 0.358245 -0.280962 204 51 127
-0.282984 0.086921 0.441747 76 0 153
-0.265982 0.339404 -0.280962 204 51 127
-0.328702 -0.308461 0.407373 0 127 127
-0.459618 -0.647117 -0.191437 76 0 153
0.364227 -0.275721 0.414714 76 153 0
-0.030487 0.288884 -0.182631 204 51 127
0.300071 0.036856 -0.280962 76 0 153
0.379060 -0.160896 0.353085 76 153 0
-0.328767 -0.388469 0.417981 0 127 127
0.080654 -0.011410 0.169203 76 0 153
-0.341396 -0.458204 0.483181 0 127 127
0.332493 -0.011409 -0.125341 76 0 153
-0.284480 -0.011410 0.267869 76 0 153
0.048559 0.322733 -0.280962 204 51 127
-0.115336 0.087467 0.239509 76 0 153
0.495179 -0.308217 -0.229170 153 0 76
0.069378 0.483103 -0.182631 204 51 127
-0.459184 -0.030470 0.476044 0 127 127
0.495245 -0.700629 0.439949 76 153 0
-0.409496 0.222356 -0.182631 204 51 127
-0.259980 0.086921 0.024259 76 0 153
-0.119612 0.695411 -0.280956 204 51 127
0.418940 -0.267736 0.352765 76 153 0
0.495196 0.069072 -0.123779 76 0 153
-0.435991 0.592279 -0.182635 204 51 127
-0.080459 0.338134 -0.182631 204 51 127
0.190319 0.087922 0.058996 76 0 153
-0.195953 0.086921 0.389086 76 0 153
-0.157868 0.592928 -0.181630 204 51 127
-0.251767 0.307077 -0.280962 204 51 127
-0.395166 -0.022440 -0.137852 76 0 153
-0.447721 -0.011297 0.129267 76 0 153
0.288852 -0.011410 -0.193127 76 0 153
0.297505 0.497918 -0.280962 204 51 127
-0.433611 -0.321058 -0.150017 76 0 153
0.183655 0.087922 0.092873 76 0 153
-0.279000 0.582581 -0.280962 204 51 127
0.466163 0.042894 0.482776 76 0 153
-0.268809 0.445130 -0.182631 204 51 127
0.128177 0.609911 -0.182631 204 51 127
0.029506 0.086921 0.204084 76 0 153
0.248990 -0.011410 -0.189594 76 0 153
-0.235159 0.495373 -0.182631 204 51 127
-0.340751 -0.011410 0.065737 76 0 153
-0.209261 0.589354 -0.181707 204 51 127
0.386412 0.105584 -0.179757 204 51 127
-0.343827 -0.011410 0.040731 76 0 153
-0.268768 0.407754 -0.280962 204 51 127
0.495245 -0.192850 0.428357 76 153 0
0.187850 0.115894 -0.180918 204 51 127
0.068099 0.720980 -0.228681 204 51 127
-0.275419 -0.011410 0.174053 76 0 153
-0.407681 0.512247 -0.280962 204 51 127
0.475428 0.721335 -0.269351 204 51 127
-0.389275 -0.504356 -0.280962 76 0 153
-0.342977 0.086921 0.001311 76 0 153
0.152267 0.542654 -0.280962 204 51 127
0.364236 -0.452234 0.462024 76 153 0
0.162533 0.620042 -0.280962 204 51 127
-0.094104 0.035944 -0.280962 76 0 153
-0.060349 -0.011410 0.302717 76 0 153
0.223460 0.086921 0.235390 76 0 153
-0.328421 -0.040656 -0.167863 76 0 153
0.331360 0.364037 -0.280962 204 51 127
0.302269 0.465236 -0.182631 204 51 127
0.279626 0.086999 0.163061 76 0 153
0.477140 -0.011373 0.023721 76 0 153
-0.108920 0.121495 -0.182534 204 51 127
0.347936 0.680285 -0.280962 204 51 127
0.494278 0.073432 0.104530 76 0 153
-0.260152 0.305203 -0.182631 204 51 127
-0.069531 0.086921 0.059571 76 0 153
0.036727 -0.011410 0.196637 76 0 153
0.494776 -0.009507 -0.273623 153 0 76
0.495150 0.004013 -0.124994 76 0 153
-0.283116 -0.011410 0.326167 76 0 153
0.268564 -0.011410 -0.136661 76 0 153
-0.456284 -0.476553 -0.152695 76 0 153
-0.459618 -0.446346 -0.225073 76 0 153
0.392742 -0.488999 -0.149977 153 0 76
0.022537 0.086921 0.392729 76 0 153
0.396168 0.563065 -0.182631 204 51 127
0.284761 0.635265 -0.182631 204 51 127
-0.139286 0.221452 -0.280962 204 51 127
0.101627 0.086921 -0.013660 76 0 153
-0.360813 -0.011410 0.062787 76 0 153
0.364227 -0.095370 -0.213650 153 0 76
-0.459616 0.022607 0.260250 76 0 153
0.458761 0.511236 -0.280962 204 51 127
-0.030324 0.186329 -0.280962 204 51 127
-0.364430 -0.478841 0.352765 0 127 127
0.107481 0.663013 -0.182631 204 51 127
-0.096185 0.008270 0.483108 76 0 153
-0.459618 0.054972 0.249993 76 0 153
0.058394 0.086921 0.220003 76 0 153
0.252492 0.679420 -0.182616 204 51 127
0.150080 0.720891 -0.221468 204 51 127
0.424908 -0.011410 0.142324 76 0 153
-0.023842 0.016392 -0.280954 76 0 153
0.494356 -0.108301 -0.156400 153 0 76
0.406082 0.410069 -0.280962 204 51 127
-0.298628 0.364632 -0.182631 204 51 127
0.495245 -0.333785 -0.194060 153 0 76
0.143350 0.535036 -0.182631 204 51 127
-0.146756 0.225392 -0.182631 204 51 127
-0.271403 -0.002798 0.482974 76 0 153
0.490869 -0.427665 0.482298 76 153 0
-0.428033 -0.476679 -0.149946 76 0 153
-0.459617 0.022629 -0.097361 76 0 153
0.036587 0.613822 -0.280962 204 51 127
-0.297824 0.715261 -0.279392 204 51 127
0.249250 0.027619 -0.280962 76 0 153
0.125079 -0.010858 0.477387 76 0 153
-0.136008 0.087845 0.223557 76 0 153
0.479505 0.273949 -0.280819 204 51 127
-0.422123 -0.037779 -0.280962 76 0 153
-0.139605 -0.011410 0.162670 76 0 153
0.303097 -0.011394 0.462508 76 0 153
0.349003 0.021751 -0.280960 76 0 153
0.220149 -0.011410 0.127264 76 0 153
-0.365786 -0.744533 -0.150753 76 0 153
0.025895 0.210404 -0.182133 204 51 127
-0.336834 0.435232 -0.182631 204 51 127
-0.459618 -0.662562 -0.237431 76 0 153
0.495189 -0.305753 0.468652 76 153 0
-0.403956 0.087922 0.333745 76 0 153
-0.439735 0.087921 0.179472 76 0 153
0.455983 -0.476351 0.352765 76 153 0
-0.318527 0.408744 -0.182631 204 51 127
-0.227057 0.296053 -0.182631 204 51 127
0.248098 0.720624 -0.207258 204 51 127
0.433804 0.315404 -0.182631 204 51 127
0.163778 0.290127 -0.280962 204 51 127
0.376137 0.087922 -0.021497 76 0 153
