ply
format ascii 1.0
element vertex 1249
property float x
property float y
property float z
property uchar red
property uchar green
property uchar blue
end_header
-0.243322 0.648864 -0.183767 204 51 127
0.298739 0.085785 0.307121 76 0 153
0.493109 -0.734837 0.358381 76 153 0
-0.457482 0.647588 -0.184856 204 51 127
-0.457482 0.228463 -0.209997 204 51 127
-0.431746 0.085785 0.360240 76 0 153
0.399353 -0.483993 -0.278826 153 0 76
0.273867 0.404446 -0.278826 204 51 127
-0.263781 -0.009274 -0.113088 76 0 153
-0.079633 0.241695 -0.183767 204 51 127
-0.427057 -0.009274 0.146933 76 0 153
0.366363 -0.557537 0.439128 76 153 0
0.141715 -0.009274 0.414711 76 0 153
-0.302436 -0.009274 -0.048033 76 0 153
0.393732 0.085785 0.350297 76 0 153
0.493109 0.138469 -0.203672 204 51 127
-0.171165 -0.009274 0.109787 76 0 153
-0.163522 -0.009274 0.022499 76 0 153
-0.363106 -0.500795 -0.152081 76 0 153
-0.061810 0.248522 -0.278826 204 51 127
0.493109 -0.701932 0.386427 76 153 0
-0.268729 0.021300 -0.278826 76 0 153
-0.330736 -0.385085 0.359353 0 127 127
0.214610 -0.009274 0.038882 76 0 153
-0.142415 0.719512 -0.253682 204 51 127
-0.457482 -0.042429 -0.159757 76 0 153
0.387685 -0.009274 0.081647 76 0 153
-0.201450 0.353078 -0.183767 204 51 127
0.132902 0.085785 0.261929 76 0 153
-0.039942 0.104766 -0.278826 76 0 153
0.493109 -0.158979 0.467445 76 153 0
-0.330736 -0.435304 0.376877 0 127 127
-0.007924 -0.009274 0.364594 76 0 153
0.493109 0.080940 0.210327 76 0 153
-0.152629 0.085785 0.396303 76 0 153
0.366363 -0.434571 0.462931 76 153 0
-0.294840 -0.009274 0.213143 76 0 153
0.481830 -0.031290 -0.278826 153 0 76
0.216216 0.015846 -0.278826 76 0 153
0.388244 0.085785 0.452919 76 0 153
0.468868 -0.711256 0.481646 76 153 0
-0.305631 0.265301 -0.278826 204 51 127
0.479720 -0.767333 -0.152081 153 0 76
0.328923 0.719512 -0.210368 204 51 127
0.443114 -0.407412 -0.278826 153 0 76
-0.330736 -0.682844 -0.153215 76 0 153
-0.239886 0.657768 -0.278826 204 51 127
-0.417085 0.221116 -0.183767 204 51 127
-0.457482 0.618482 -0.213122 204 51 127
-0.280650 0.305261 -0.183767 204 51 127
0.376260 -0.009274 0.015667 76 0 153
0.366363 -0.591007 -0.214705 153 0 76
-0.351030 -0.009274 0.450581 76 0 153
0.393259 -0.077720 0.481646 76 153 0
0.148681 0.014101 -0.278826 76 0 153
-0.299939 0.407307 -0.278826 204 51 127
0.493109 -0.083971 -0.175122 153 0 76
0.037023 0.512023 -0.183767 204 51 127
0.095363 -0.009274 0.006274 76 0 153
-0.457482 0.032412 0.170094 76 0 153
-0.270439 0.085785 -0.120584 76 0 153
-0.417519 -0.078377 -0.278826 76 0 153
-0.299123 -0.009274 -0.201450 76 0 153
0.422143 0.085785 0.336142 76 0 153
-0.396623 0.677852 -0.278826 204 51 127
0.392766 -0.616267 -0.278826 153 0 76
-0.330736 -0.322951 0.377008 0 127 127
-0.330736 -0.121567 -0.251069 76 0 153
-0.457482 0.024863 0.221082 76 0 153
0.147923 0.332035 -0.183767 204 51 127
-0.437178 -0.613778 -0.278826 76 0 153
-0.434674 -0.670263 0.354901 0 127 127
0.366363 -0.343188 0.421754 76 153 0
0.407821 0.085785 0.391321 76 0 153
0.397287 -0.632472 0.481646 76 153 0
0.041578 -0.009274 0.283456 76 0 153
-0.143993 0.085785 -0.109073 76 0 153
0.441188 -0.125186 0.354901 76 153 0
0.399179 -0.504001 -0.152081 153 0 76
0.190106 0.085785 0.333886 76 0 153
-0.358635 0.085785 0.228455 76 0 153
0.493109 0.670750 -0.209368 204 51 127
0.493109 -0.548343 -0.158291 153 0 76
0.216068 0.418200 -0.278826 204 51 127
-0.457482 0.048312 -0.236401 76 0 153
-0.457482 -0.175753 0.374050 0 127 127
-0.255144 0.170481 -0.278826 204 51 127
0.332298 0.024804 -0.278826 76 0 153
-0.324383 0.293146 -0.183767 204 51 127
0.075119 0.380108 -0.183767 204 51 127
-0.250971 -0.009274 -0.210816 76 0 153
0.259215 0.085785 0.116107 76 0 153
-0.444289 -0.091396 0.481646 0 127 127
-0.457482 -0.385605 0.438133 0 127 127
-0.380867 0.268640 -0.183767 204 51 127
0.143013 -0.009274 0.454977 76 0 153
0.079271 0.630276 -0.278826 204 51 127
0.432474 0.085785 0.083060 76 0 153
0.445120 -0.159665 -0.152081 153 0 76
-0.330736 -0.311735 -0.212031 76 0 153
-0.289706 0.586750 -0.278826 204 51 127
-0.436173 0.719512 -0.208321 204 51 127
-0.259131 0.085785 0.358845 76 0 153
-0.065460 0.645592 -0.183767 204 51 127
0.315784 -0.009274 -0.043499 76 0 153
0.302594 0.676328 -0.183767 204 51 127
-0.123133 0.085785 0.423170 76 0 153
0.403572 0.576354 -0.183767 204 51 127
0.217121 0.719512 -0.216202 204 51 127
-0.092987 -0.009274 0.220937 76 0 153
-0.427670 -0.009274 -0.170817 76 0 153
-0.358320 0.148720 -0.278826 204 51 127
0.454083 -0.066823 0.354901 76 153 0
-0.436540 -0.218430 0.354901 0 127 127
-0.009365 -0.009274 -0.093641 76 0 153
-0.330736 -0.529835 -0.206784 76 0 153
0.461634 0.362176 -0.278826 204 51 127
-0.215498 0.404474 -0.183767 204 51 127
0.346929 0.544399 -0.183767 204 51 127
0.330172 0.085785 0.429218 76 0 153
0.399484 -0.034052 -0.278826 153 0 76
0.251357 -0.009274 -0.264647 76 0 153
-0.380787 0.085785 0.181073 76 0 153
0.024660 0.389292 -0.278826 204 51 127
0.033253 0.692317 -0.278826 204 51 127
0.170204 -0.009274 0.077898 76 0 153
-0.104658 0.065371 -0.278826 76 0 153
0.471810 0.058850 0.481646 76 0 153
-0.097790 0.581649 -0.278826 204 51 127
0.366363 -0.345364 -0.172607 153 0 76
0.463789 0.415434 -0.278826 204 51 127
-0.203485 -0.009274 -0.217395 76 0 153
0.304700 0.719512 -0.256315 204 51 127
-0.318665 -0.009274 0.156494 76 0 153
0.366363 -0.036239 0.401539 76 153 0
0.444063 -0.301424 -0.152081 153 0 76
0.467033 -0.009274 -0.064692 76 0 153
0.405655 -0.364197 0.354901 76 153 0
-0.407502 -0.128705 -0.278826 76 0 153
-0.455345 -0.174639 0.481646 0 127 127
0.117139 0.379810 -0.278826 204 51 127
-0.457482 -0.522530 0.432360 0 127 127
0.370750 -0.769747 0.381224 76 153 0
-0.301245 0.133407 -0.278826 204 51 127
0.366363 -0.255368 -0.250760 153 0 76
0.469641 -0.444929 -0.152081 153 0 76
-0.301697 0.333283 -0.278826 204 51 127
-0.292774 0.085785 0.101377 76 0 153
0.078253 0.085785 0.076706 76 0 153
0.118041 0.478660 -0.183767 204 51 127
0.462975 -0.009274 0.019324 76 0 153
0.366363 -0.120091 -0.222354 153 0 76
0.366363 -0.448702 -0.184230 153 0 76
0.298452 0.306941 -0.278826 204 51 127
0.256793 0.085785 0.263689 76 0 153
0.428357 0.326039 -0.183767 204 51 127
-0.457482 -0.465453 -0.209642 76 0 153
0.318347 0.627399 -0.278826 204 51 127
-0.042813 -0.009274 -0.146459 76 0 153
-0.233947 0.388781 -0.278826 204 51 127
-0.457482 -0.126837 -0.267210 76 0 153
0.425125 -0.009274 -0.216955 76 0 153
-0.330736 -0.357669 0.424064 0 127 127
-0.330736 -0.344567 -0.267937 76 0 153
0.277627 -0.009274 -0.016667 76 0 153
-0.380208 -0.009274 -0.178261 76 0 153
0.493109 -0.363537 -0.181298 153 0 76
-0.457482 -0.735820 0.407777 0 127 127
-0.218418 0.085785 -0.149675 76 0 153
-0.255909 0.399652 -0.183767 204 51 127
-0.363751 -0.769380 0.354901 0 127 127
-0.457482 -0.267731 0.390133 0 127 127
-0.334979 0.085785 0.377574 76 0 153
0.366363 -0.282513 -0.157975 153 0 76
0.295451 0.526678 -0.183767 204 51 127
-0.037388 0.089188 -0.183767 204 51 127
0.366363 -0.449918 -0.219551 153 0 76
-0.330736 -0.403689 0.383167 0 127 127
0.493109 -0.173608 -0.170926 153 0 76
-0.457482 -0.537851 -0.272235 76 0 153
0.438232 0.654521 -0.278826 204 51 127
0.470024 0.085785 0.132110 76 0 153
0.382770 -0.471094 0.481646 76 153 0
-0.440104 -0.667207 0.481646 0 127 127
-0.061842 0.660795 -0.278826 204 51 127
0.148304 0.085785 0.002668 76 0 153
0.484570 0.085785 0.450727 76 0 153
0.491831 -0.006017 0.481646 76 0 153
0.137993 0.085785 0.226241 76 0 153
0.366363 -0.710764 -0.253690 153 0 76
-0.264623 0.586602 -0.183767 204 51 127
-0.326715 -0.009274 0.324948 76 0 153
-0.457482 0.122380 -0.250742 204 51 127
0.129789 0.213779 -0.183767 204 51 127
-0.457482 -0.057723 -0.198096 76 0 153
0.076331 0.325439 -0.183767 204 51 127
0.275375 -0.009274 0.358440 76 0 153
-0.136094 0.317919 -0.183767 204 51 127
0.011672 -0.009274 -0.277759 76 0 153
0.343141 0.465879 -0.278826 204 51 127
0.493109 0.174333 -0.224052 204 51 127
0.384548 -0.275109 0.481646 76 153 0
0.417943 -0.347285 -0.152081 153 0 76
-0.253066 -0.009274 -0.254984 76 0 153
-0.312984 0.085785 -0.161516 76 0 153
-0.139232 0.590648 -0.183767 204 51 127
-0.121553 0.651648 -0.183767 204 51 127
0.476448 0.085785 0.309916 76 0 153
0.047708 0.059275 0.481646 76 0 153
-0.273653 0.085785 0.233277 76 0 153
0.469775 -0.428872 0.481646 76 153 0
0.493109 -0.474788 0.459258 76 153 0
0.216861 0.085785 0.173766 76 0 153
0.493109 -0.196561 0.379643 76 153 0
-0.152663 0.085785 0.110404 76 0 153
-0.268885 0.249876 -0.183767 204 51 127
0.395329 0.085785 0.198064 76 0 153
-0.020053 -0.009274 0.422910 76 0 153
-0.164862 0.227540 -0.278826 204 51 127
-0.048326 -0.009274 0.403224 76 0 153
0.493109 -0.253755 0.464806 76 153 0
0.096663 0.085785 0.209756 76 0 153
-0.317328 0.408424 -0.183767 204 51 127
0.472539 -0.262544 0.354901 76 153 0
0.393332 0.719512 -0.198093 204 51 127
0.355799 -0.009274 0.451423 76 0 153
0.366363 -0.314099 -0.250010 153 0 76
0.493109 -0.249631 0.419323 76 153 0
0.203858 0.284999 -0.183767 204 51 127
-0.289837 0.620110 -0.183767 204 51 127
-0.052107 0.582546 -0.183767 204 51 127
-0.418477 -0.574334 0.354901 0 127 127
-0.446772 -0.736023 -0.152081 76 0 153
0.431512 -0.737915 0.481646 76 153 0
-0.327574 0.085785 0.101128 76 0 153
0.408504 -0.115478 -0.278826 153 0 76
0.181502 -0.009274 0.406122 76 0 153
0.258835 0.393201 -0.183767 204 51 127
-0.407198 -0.267697 -0.152081 76 0 153
-0.428728 0.365546 -0.183767 204 51 127
0.161218 0.627843 -0.278826 204 51 127
0.189771 0.610240 -0.183767 204 51 127
0.426830 0.085785 0.036483 76 0 153
0.040294 0.235227 -0.183767 204 51 127
-0.330736 -0.137406 0.464310 0 127 127
-0.408950 0.408623 -0.278826 204 51 127
-0.319158 0.085785 0.045728 76 0 153
0.191272 0.248797 -0.278826 204 51 127
-0.391906 0.432476 -0.278826 204 51 127
0.474229 0.287177 -0.183767 204 51 127
-0.457482 0.376765 -0.224958 204 51 127
0.296196 0.370393 -0.278826 204 51 127
0.423969 0.085785 -0.122754 76 0 153
-0.008424 0.393824 -0.278826 204 51 127
0.493109 -0.118039 0.444928 76 153 0
-0.457482 -0.269735 -0.178456 76 0 153
0.493109 -0.491509 0.387767 76 153 0
0.021015 -0.009274 -0.047872 76 0 153
-0.349009 -0.009274 0.280469 76 0 153
0.493109 -0.369466 0.419592 76 153 0
-0.384829 -0.028828 0.354901 0 127 127
-0.080492 0.017380 0.481646 76 0 153
-0.088661 0.719512 -0.216229 204 51 127
0.477009 0.085785 -0.100005 76 0 153
-0.330736 -0.189475 -0.252097 76 0 153
0.124894 0.085785 0.173237 76 0 153
0.469802 -0.243004 -0.152081 153 0 76
0.493109 -0.642810 0.389884 76 153 0
0.377349 -0.238866 -0.152081 153 0 76
-0.012945 -0.009274 0.134613 76 0 153
-0.365486 -0.105414 0.481646 0 127 127
0.366363 -0.445491 0.434505 76 153 0
0.227923 -0.009274 -0.022917 76 0 153
0.366363 -0.256718 0.427304 76 153 0
0.383827 -0.009274 -0.121616 76 0 153
-0.457482 0.053397 0.343812 76 0 153
-0.330269 0.085785 0.424008 76 0 153
0.493109 -0.000614 -0.006342 76 0 153
0.301654 0.085785 0.148698 76 0 153
-0.419690 0.422616 -0.183767 204 51 127
-0.008738 0.085785 0.254013 76 0 153
0.392696 0.015702 0.481646 76 0 153
0.413742 -0.304055 0.481646 76 153 0
0.226692 0.085785 -0.124503 76 0 153
0.493109 -0.606239 0.418892 76 153 0
0.486874 -0.769747 -0.180693 153 0 76
0.349661 -0.009274 0.240908 76 0 153
0.028445 0.652864 -0.183767 204 51 127
0.323141 0.197629 -0.278826 204 51 127
0.362637 0.426983 -0.183767 204 51 127
-0.364788 -0.476550 0.354901 0 127 127
-0.127056 0.085785 0.059277 76 0 153
0.366363 -0.019522 -0.233063 76 0 153
0.381654 0.085785 0.046281 76 0 153
0.113150 0.129011 -0.278826 204 51 127
0.493109 0.003471 0.198873 76 0 153
-0.003867 0.085785 0.329453 76 0 153
0.361087 -0.009274 -0.144107 76 0 153
-0.122907 -0.009274 0.426907 76 0 153
-0.311679 0.085785 0.477266 76 0 153
-0.328251 0.128833 -0.183767 204 51 127
-0.457482 -0.003733 0.353507 76 0 153
0.469895 -0.303161 -0.278826 153 0 76
0.493109 0.217142 -0.249709 204 51 127
0.211523 0.195059 -0.278826 204 51 127
0.492052 0.444806 -0.183767 204 51 127
-0.388115 0.144318 -0.278826 204 51 127
-0.429908 -0.009274 -0.094350 76 0 153
0.149765 0.085785 -0.082962 76 0 153
-0.315908 0.014017 -0.278826 76 0 153
0.214195 0.085785 0.214961 76 0 153
0.094174 0.072454 0.481646 76 0 153
-0.457482 -0.340321 -0.185304 76 0 153
0.376315 0.114047 -0.183767 204 51 127
-0.397128 0.507640 -0.183767 204 51 127
-0.025008 0.497699 -0.183767 204 51 127
0.466913 -0.009274 0.082935 76 0 153
0.493109 -0.443084 -0.222539 153 0 76
-0.257164 0.719512 -0.241701 204 51 127
0.493109 0.070707 -0.193435 76 0 153
-0.069372 0.170281 -0.183767 204 51 127
0.142921 0.289737 -0.183767 204 51 127
-0.429237 -0.696495 0.481646 0 127 127
-0.457482 -0.407064 0.377172 0 127 127
-0.181732 0.719512 -0.265604 204 51 127
-0.159164 0.376777 -0.183767 204 51 127
-0.153275 -0.009274 -0.189748 76 0 153
-0.457482 0.056535 0.269739 76 0 153
0.189540 0.443085 -0.278826 204 51 127
0.432860 -0.009274 0.362353 76 0 153
-0.457482 -0.214825 0.454223 0 127 127
-0.433207 0.266558 -0.278826 204 51 127
0.400939 -0.038304 0.354901 76 153 0
-0.427940 -0.740043 -0.278826 76 0 153
0.159845 0.144498 -0.183767 204 51 127
-0.449416 -0.185025 -0.278826 76 0 153
0.097223 0.449223 -0.278826 204 51 127
-0.360695 -0.360632 0.481646 0 127 127
0.460482 -0.699634 -0.152081 153 0 76
-0.457482 -0.172999 0.425616 0 127 127
-0.457482 -0.513136 0.389181 0 127 127
0.167029 0.697638 -0.278826 204 51 127
-0.457482 -0.079642 0.435933 0 127 127
0.493109 0.032779 0.447632 76 0 153
-0.067384 0.085785 0.112234 76 0 153
-0.457482 -0.501733 -0.194775 76 0 153
-0.232624 0.462687 -0.183767 204 51 127
-0.266358 0.434765 -0.183767 204 51 127
-0.394543 0.085785 0.241922 76 0 153
0.476382 -0.010634 0.354901 76 0 153
-0.330736 -0.752345 0.456089 0 127 127
-0.355197 0.471244 -0.278826 204 51 127
0.493109 0.510868 -0.255923 204 51 127
-0.330736 -0.582948 -0.199372 76 0 153
-0.205201 0.471973 -0.278826 204 51 127
-0.430691 0.719512 -0.265096 204 51 127
-0.097561 0.085785 -0.104527 76 0 153
-0.354792 -0.523539 -0.278826 76 0 153
-0.098554 0.695138 -0.278826 204 51 127
0.186731 0.549358 -0.278826 204 51 127
0.176480 0.719512 -0.241649 204 51 127
0.367715 -0.129991 0.481646 76 153 0
0.493109 -0.640736 0.447049 76 153 0
-0.364171 -0.233389 -0.152081 76 0 153
0.033141 0.085785 0.226654 76 0 153
-0.134269 0.400107 -0.183767 204 51 127
0.018239 0.719512 -0.239400 204 51 127
-0.447980 0.134750 -0.278826 204 51 127
0.493109 0.075163 0.384671 76 0 153
-0.384077 -0.009274 -0.218377 76 0 153
0.476494 0.191320 -0.183767 204 51 127
0.424425 -0.381066 -0.278826 153 0 76
0.189641 -0.009274 0.263849 76 0 153
0.041208 0.085785 -0.120770 76 0 153
0.206209 0.085785 0.373730 76 0 153
0.428167 -0.009274 0.294090 76 0 153
0.018242 0.307725 -0.183767 204 51 127
-0.332608 0.577739 -0.183767 204 51 127
-0.435046 0.326494 -0.278826 204 51 127
-0.457482 -0.409136 -0.235580 76 0 153
0.427036 -0.411923 0.354901 76 153 0
-0.266660 0.551990 -0.278826 204 51 127
-0.428651 0.009432 0.481646 76 0 153
0.119097 0.168562 -0.183767 204 51 127
-0.457482 -0.588511 -0.242141 76 0 153
-0.179369 -0.009274 0.279033 76 0 153
0.485890 -0.157757 -0.278826 153 0 76
-0.305661 0.480380 -0.278826 204 51 127
-0.211582 0.218644 -0.183767 204 51 127
-0.456852 0.085785 0.227116 76 0 153
-0.338367 -0.110990 0.354901 0 127 127
-0.339152 -0.664648 -0.278826 76 0 153
-0.091009 0.398602 -0.183767 204 51 127
0.404187 0.085785 -0.144766 76 0 153
0.325353 0.221832 -0.183767 204 51 127
-0.134110 -0.009274 0.261663 76 0 153
0.451318 0.493866 -0.183767 204 51 127
0.195854 0.598815 -0.278826 204 51 127
0.450504 -0.576538 0.481646 76 153 0
-0.025229 0.323695 -0.183767 204 51 127
-0.330736 -0.720626 -0.182237 76 0 153
0.423522 -0.169143 -0.278826 153 0 76
-0.051880 0.085785 -0.013591 76 0 153
-0.066650 0.085785 0.389604 76 0 153
-0.457482 -0.434845 -0.263685 76 0 153
0.251820 0.246095 -0.278826 204 51 127
-0.009593 0.233953 -0.278826 204 51 127
-0.293623 0.483662 -0.183767 204 51 127
-0.126087 0.111711 -0.183767 204 51 127
-0.411959 0.325006 -0.183767 204 51 127
-0.356029 -0.102510 -0.278826 76 0 153
-0.090741 0.085785 0.216180 76 0 153
-0.438251 -0.239779 -0.278826 76 0 153
-0.343401 -0.009274 -0.000605 76 0 153
-0.231810 0.698666 -0.278826 204 51 127
0.366363 -0.060575 -0.161499 153 0 76
-0.457482 -0.131259 0.398815 0 127 127
-0.457482 0.512618 -0.225292 204 51 127
0.391175 -0.244906 0.481646 76 153 0
-0.357343 -0.711783 0.481646 0 127 127
0.030917 -0.009274 -0.075295 76 0 153
-0.447012 -0.721928 0.481646 0 127 127
0.493109 -0.067787 0.476807 76 153 0
0.016099 0.135799 -0.183767 204 51 127
-0.333016 -0.318403 -0.152081 76 0 153
0.315172 -0.009274 0.147231 76 0 153
0.493109 0.333326 -0.259362 204 51 127
-0.330736 -0.615315 -0.212372 76 0 153
0.455186 0.410106 -0.183767 204 51 127
-0.092056 0.577606 -0.183767 204 51 127
-0.457482 0.099929 -0.223693 204 51 127
0.085179 -0.009274 0.454682 76 0 153
-0.184224 0.396874 -0.278826 204 51 127
0.493109 0.070952 0.038606 76 0 153
-0.076341 0.085785 0.159294 76 0 153
0.204551 0.085785 0.040365 76 0 153
0.063406 -0.009274 -0.254813 76 0 153
-0.018440 0.201408 -0.278826 204 51 127
0.078525 -0.009274 0.270731 76 0 153
-0.097270 0.045254 0.481646 76 0 153
0.174557 0.375506 -0.278826 204 51 127
-0.451704 -0.468572 -0.152081 76 0 153
-0.097482 -0.009274 0.249218 76 0 153
0.493109 0.384690 -0.198920 204 51 127
0.366363 -0.734968 0.460830 76 153 0
0.493109 -0.479551 0.425139 76 153 0
-0.093505 -0.009274 0.111301 76 0 153
0.356513 0.574549 -0.278826 204 51 127
0.487953 0.085785 0.335588 76 0 153
-0.404592 -0.009274 -0.262225 76 0 153
0.296802 0.587153 -0.278826 204 51 127
0.053372 -0.009274 -0.200341 76 0 153
-0.349332 -0.009274 -0.174688 76 0 153
0.123177 0.348893 -0.183767 204 51 127
-0.358819 -0.497929 0.481646 0 127 127
-0.384163 0.719512 -0.276094 204 51 127
0.420240 0.308708 -0.278826 204 51 127
0.420146 -0.102257 0.354901 76 153 0
0.366363 -0.231944 0.381379 76 153 0
-0.056819 0.085785 0.047464 76 0 153
-0.154515 -0.009274 0.147032 76 0 153
-0.417075 0.085785 -0.122837 76 0 153
0.366363 -0.685740 0.476558 76 153 0
-0.457482 -0.192553 0.397060 0 127 127
0.090151 0.264225 -0.183767 204 51 127
-0.330736 -0.765702 -0.223276 76 0 153
-0.359078 0.085785 -0.114531 76 0 153
-0.430876 -0.748113 0.481646 0 127 127
0.460953 -0.042554 -0.152081 153 0 76
0.433046 -0.394629 -0.152081 153 0 76
-0.399118 -0.458195 -0.152081 76 0 153
0.299041 -0.009274 0.212338 76 0 153
0.007861 -0.009274 0.163960 76 0 153
-0.425189 0.085785 0.126948 76 0 153
0.488307 -0.009274 0.295471 76 0 153
0.335419 0.085785 0.203908 76 0 153
-0.354649 0.085785 -0.058594 76 0 153
0.240800 0.057890 0.481646 76 0 153
0.296894 0.207493 -0.278826 204 51 127
-0.383741 0.626673 -0.278826 204 51 127
0.133868 0.085785 0.058141 76 0 153
-0.443632 0.085785 0.153934 76 0 153
0.474051 0.085785 0.085344 76 0 153
0.209639 0.521392 -0.278826 204 51 127
0.314985 0.318028 -0.183767 204 51 127
0.345419 0.085785 0.069932 76 0 153
0.265557 0.686170 -0.183767 204 51 127
0.210490 0.085785 -0.150679 76 0 153
-0.193144 0.085785 -0.011778 76 0 153
0.390116 -0.602947 -0.152081 153 0 76
-0.374360 0.237424 -0.278826 204 51 127
0.086072 0.527774 -0.183767 204 51 127
-0.330736 -0.241416 -0.254427 76 0 153
0.366363 -0.533485 0.479590 76 153 0
-0.433857 -0.659253 -0.278826 76 0 153
0.099482 -0.009274 0.337338 76 0 153
0.404636 -0.009274 0.013926 76 0 153
-0.040375 0.719512 -0.212037 204 51 127
-0.207563 -0.009274 -0.058443 76 0 153
-0.316063 0.719512 -0.250697 204 51 127
0.482819 0.381578 -0.278826 204 51 127
-0.042131 0.055472 0.481646 76 0 153
0.493109 -0.471225 0.368566 76 153 0
-0.421315 0.712697 -0.183767 204 51 127
0.339564 0.161883 -0.183767 204 51 127
0.396463 0.488570 -0.278826 204 51 127
0.404440 0.639291 -0.183767 204 51 127
0.453066 -0.062984 0.481646 76 153 0
-0.457482 0.036390 -0.153678 76 0 153
-0.402198 -0.312032 -0.152081 76 0 153
-0.371834 0.012400 0.481646 76 0 153
0.262441 0.344723 -0.278826 204 51 127
-0.216690 0.024087 0.481646 76 0 153
0.421047 -0.009274 -0.074156 76 0 153
0.066554 0.144523 -0.183767 204 51 127
0.245159 0.590136 -0.183767 204 51 127
0.292419 0.179292 -0.183767 204 51 127
-0.427919 -0.635272 0.354901 0 127 127
-0.026133 0.603286 -0.278826 204 51 127
0.468685 -0.043127 0.354901 76 153 0
0.404510 -0.332733 -0.278826 153 0 76
0.429808 -0.769747 0.384195 76 153 0
0.493109 -0.422287 0.448935 76 153 0
-0.331074 0.015634 0.481646 76 0 153
-0.336677 -0.009274 0.053825 76 0 153
-0.428891 0.085785 0.450072 76 0 153
0.021502 -0.009274 0.258145 76 0 153
0.390738 -0.591692 0.354901 76 153 0
0.146323 0.253739 -0.278826 204 51 127
0.061658 0.295819 -0.278826 204 51 127
-0.071447 -0.009274 0.346400 76 0 153
0.377512 0.085785 -0.074807 76 0 153
-0.307922 -0.009274 0.097476 76 0 153
-0.430024 0.085785 0.011138 76 0 153
-0.274273 -0.009274 0.248305 76 0 153
0.493109 0.235752 -0.204726 204 51 127
-0.349389 -0.009274 0.221657 76 0 153
-0.333589 -0.185170 -0.152081 76 0 153
-0.250144 0.352412 -0.183767 204 51 127
0.493109 -0.579377 -0.218830 153 0 76
-0.228962 -0.009274 0.469320 76 0 153
-0.032390 -0.009274 0.040063 76 0 153
-0.340982 -0.692021 0.354901 0 127 127
-0.375113 -0.208277 0.354901 0 127 127
-0.457482 0.070002 -0.271105 76 0 153
0.384571 -0.206133 -0.278826 153 0 76
-0.335051 0.085785 0.139611 76 0 153
-0.457482 0.034161 0.394547 76 0 153
0.388799 0.567061 -0.278826 204 51 127
-0.356826 -0.699704 -0.152081 76 0 153
0.366363 -0.390135 0.365865 76 153 0
0.493109 -0.253240 -0.242669 153 0 76
-0.120983 0.529792 -0.278826 204 51 127
-0.035552 -0.009274 0.465598 76 0 153
0.021723 0.085785 0.283151 76 0 153
0.485066 -0.009274 -0.212679 153 0 76
0.021485 0.294972 -0.278826 204 51 127
-0.394097 -0.009274 0.454836 76 0 153
0.245654 0.652737 -0.183767 204 51 127
0.110483 -0.009274 -0.256778 76 0 153
0.493109 -0.382615 0.471725 76 153 0
0.467452 -0.295442 0.354901 76 153 0
0.473949 -0.636040 -0.278826 153 0 76
0.259183 -0.009274 -0.038537 76 0 153
-0.213451 -0.009274 0.281841 76 0 153
-0.254634 0.217171 -0.278826 204 51 127
0.482065 -0.131700 -0.152081 153 0 76
0.249155 -0.009274 -0.075362 76 0 153
0.472042 0.584371 -0.278826 204 51 127
0.428932 -0.587013 -0.278826 153 0 76
0.465821 -0.526435 0.354901 76 153 0
0.147443 0.518940 -0.278826 204 51 127
-0.395558 -0.769747 -0.175833 76 0 153
-0.431011 -0.601058 0.481646 0 127 127
-0.330736 -0.253712 -0.209505 76 0 153
-0.330736 -0.574925 -0.253935 76 0 153
0.366363 -0.095570 -0.178428 153 0 76
0.419946 -0.514956 0.481646 76 153 0
0.283089 0.085785 -0.019219 76 0 153
-0.065179 0.322433 -0.278826 204 51 127
-0.401681 -0.144711 0.481646 0 127 127
0.463821 0.719512 -0.277519 204 51 127
-0.239498 0.421743 -0.278826 204 51 127
-0.330736 -0.701356 -0.240048 76 0 153
-0.450524 -0.541777 0.481646 0 127 127
-0.443876 -0.009274 -0.251428 76 0 153
0.366363 -0.364697 -0.222226 153 0 76
0.171426 -0.009274 0.048481 76 0 153
0.466943 -0.139148 0.481646 76 153 0
-0.388777 -0.271553 -0.278826 76 0 153
-0.166681 0.686036 -0.183767 204 51 127
0.306047 -0.009274 0.265083 76 0 153
-0.330736 -0.184653 0.453122 0 127 127
0.490569 -0.338136 -0.152081 153 0 76
-0.004087 0.695921 -0.183767 204 51 127
-0.224334 0.719512 -0.252227 204 51 127
0.062656 0.719512 -0.210295 204 51 127
-0.457482 -0.761006 0.450959 0 127 127
0.164790 0.087743 -0.183767 204 51 127
-0.457482 0.078649 0.480008 76 0 153
0.134018 0.077045 -0.278826 76 0 153
-0.330736 -0.079013 -0.178917 76 0 153
-0.325783 0.616299 -0.278826 204 51 127
0.444569 -0.037363 -0.278826 153 0 76
-0.438525 -0.271996 0.354901 0 127 127
-0.289537 0.689697 -0.278826 204 51 127
-0.457482 0.682948 -0.193370 204 51 127
0.332815 -0.009274 0.168250 76 0 153
-0.236810 -0.009274 0.208557 76 0 153
-0.229617 0.263152 -0.183767 204 51 127
0.487400 -0.701834 -0.278826 153 0 76
0.374850 -0.009274 0.360136 76 0 153
-0.457482 -0.214374 -0.198864 76 0 153
-0.224192 0.690712 -0.183767 204 51 127
0.105809 0.085785 -0.120209 76 0 153
-0.457482 0.049913 -0.129122 76 0 153
-0.330736 -0.611539 0.374870 0 127 127
-0.260346 0.085785 -0.149095 76 0 153
0.242803 0.085785 0.405051 76 0 153
0.451734 0.085785 0.359412 76 0 153
-0.399588 -0.320331 0.481646 0 127 127
0.394602 -0.176440 -0.278826 153 0 76
0.437270 0.085785 0.249113 76 0 153
-0.457482 -0.460568 0.368785 0 127 127
-0.421052 -0.420903 -0.152081 76 0 153
0.367741 -0.009274 0.305608 76 0 153
0.062786 0.085785 0.359623 76 0 153
0.374016 -0.596284 0.481646 76 153 0
0.261932 -0.009274 0.304632 76 0 153
0.392521 -0.643358 -0.152081 153 0 76
-0.330736 -0.747243 -0.164983 76 0 153
0.396074 -0.009274 -0.170443 153 0 76
0.366363 -0.122745 0.418402 76 153 0
0.237912 -0.009274 -0.159508 76 0 153
-0.117856 0.252232 -0.278826 204 51 127
0.463343 -0.352596 0.354901 76 153 0
0.366363 -0.173350 -0.253072 153 0 76
-0.246878 0.476908 -0.278826 204 51 127
-0.223369 0.085785 0.196259 76 0 153
-0.123703 -0.009274 0.343802 76 0 153
-0.433345 0.467119 -0.183767 204 51 127
0.366363 -0.095309 0.455544 76 153 0
-0.457482 -0.117506 -0.184026 76 0 153
-0.434887 0.583095 -0.278826 204 51 127
0.233098 0.251153 -0.183767 204 51 127
-0.451920 0.719512 -0.246764 204 51 127
-0.351678 -0.131129 -0.152081 76 0 153
-0.210688 0.545566 -0.183767 204 51 127
0.461036 -0.769747 -0.231452 153 0 76
-0.457482 -0.521961 -0.220688 76 0 153
-0.078668 -0.009274 0.443560 76 0 153
-0.259284 0.719512 -0.185227 204 51 127
-0.330736 -0.349679 0.393984 0 127 127
-0.072414 0.085785 0.436937 76 0 153
-0.146251 -0.009274 -0.030291 76 0 153
-0.457482 0.051189 0.001642 76 0 153
0.366363 -0.285278 0.463220 76 153 0
0.231539 -0.009274 0.461904 76 0 153
-0.457482 0.139884 -0.194786 204 51 127
0.285094 0.231405 -0.183767 204 51 127
-0.352396 0.314613 -0.278826 204 51 127
0.423501 0.075142 0.481646 76 0 153
-0.457482 -0.586461 0.452639 0 127 127
-0.105422 0.011627 -0.278826 76 0 153
-0.330736 -0.108942 -0.204919 76 0 153
-0.330736 -0.154036 0.379520 0 127 127
-0.408881 -0.009274 0.347897 76 0 153
-0.095590 0.085785 0.026451 76 0 153
0.367978 -0.467111 -0.152081 153 0 76
-0.330736 -0.428564 -0.213805 76 0 153
0.287772 0.085785 0.046595 76 0 153
0.493109 -0.308509 0.365484 76 153 0
0.240618 0.162019 -0.183767 204 51 127
-0.243219 0.085785 -0.017119 76 0 153
-0.094325 0.085785 -0.055503 76 0 153
-0.439424 -0.009274 0.412356 76 0 153
-0.187670 0.085785 0.220767 76 0 153
0.398661 -0.659765 0.481646 76 153 0
-0.110415 0.461433 -0.278826 204 51 127
0.051526 0.719512 -0.185521 204 51 127
-0.190553 0.602431 -0.183767 204 51 127
-0.443584 -0.498292 -0.152081 76 0 153
0.003750 0.189945 -0.183767 204 51 127
0.277617 -0.009274 0.051583 76 0 153
0.381863 -0.011335 0.481646 76 0 153
0.144699 0.085785 0.365368 76 0 153
-0.398237 -0.488951 -0.278826 76 0 153
0.266496 0.085785 0.381114 76 0 153
-0.410547 0.085785 -0.056021 76 0 153
0.013930 0.085785 0.382897 76 0 153
0.352970 0.358669 -0.183767 204 51 127
-0.457482 0.053359 -0.079033 76 0 153
0.172647 0.653222 -0.278826 204 51 127
0.333374 -0.009274 -0.131502 76 0 153
0.493109 0.485504 -0.213158 204 51 127
-0.336753 0.234709 -0.278826 204 51 127
-0.078496 0.532494 -0.183767 204 51 127
-0.457482 -0.692333 0.381922 0 127 127
-0.208325 0.719512 -0.205175 204 51 127
-0.305477 0.085785 -0.118435 76 0 153
-0.063053 0.411402 -0.278826 204 51 127
-0.002643 0.085785 0.458888 76 0 153
0.053481 -0.009274 -0.092781 76 0 153
-0.457482 0.082294 0.407684 76 0 153
0.384173 -0.759631 0.481646 76 153 0
0.209031 0.130347 -0.183767 204 51 127
0.157827 0.085785 -0.144193 76 0 153
0.325042 -0.009274 -0.012072 76 0 153
0.333944 0.096330 -0.183767 204 51 127
0.120608 -0.009274 0.020902 76 0 153
0.437023 -0.386786 0.354901 76 153 0
0.163384 0.599638 -0.278826 204 51 127
-0.439917 -0.306970 0.354901 0 127 127
-0.349205 0.489985 -0.183767 204 51 127
0.187548 0.464094 -0.183767 204 51 127
0.251478 0.085785 0.018440 76 0 153
0.463852 0.085785 0.262052 76 0 153
-0.306295 0.060634 -0.278826 76 0 153
-0.330736 -0.245853 0.400091 0 127 127
0.377104 -0.336706 0.354901 76 153 0
0.130254 -0.009274 0.121914 76 0 153
-0.168329 0.444400 -0.278826 204 51 127
-0.055011 -0.009274 0.205390 76 0 153
0.393646 0.651726 -0.278826 204 51 127
0.350535 0.653773 -0.183767 204 51 127
0.493109 -0.298389 0.426998 76 153 0
-0.171155 -0.009274 -0.085833 76 0 153
0.255387 0.085785 0.318383 76 0 153
-0.192585 0.085785 0.278141 76 0 153
-0.136535 0.534277 -0.183767 204 51 127
-0.354561 -0.455783 -0.152081 76 0 153
-0.091618 0.085785 0.188297 76 0 153
-0.382619 -0.312560 -0.278826 76 0 153
0.386823 0.321968 -0.278826 204 51 127
0.493109 0.036070 0.312661 76 0 153
0.493109 -0.698839 0.453960 76 153 0
-0.457482 -0.092285 -0.156206 76 0 153
0.377578 -0.547554 -0.152081 153 0 76
-0.429940 -0.532883 0.354901 0 127 127
-0.152833 0.717097 -0.278826 204 51 127
-0.126385 0.190838 -0.278826 204 51 127
0.493109 0.017611 -0.041748 76 0 153
0.249897 -0.009274 -0.210403 76 0 153
-0.048124 -0.009274 -0.219075 76 0 153
0.143993 0.085785 -0.029449 76 0 153
-0.226028 0.327037 -0.278826 204 51 127
-0.457482 -0.228309 0.385301 0 127 127
0.021790 0.085785 0.162789 76 0 153
0.191945 -0.009274 -0.150634 76 0 153
0.228868 0.135346 -0.278826 204 51 127
0.207052 0.698531 -0.278826 204 51 127
0.442712 -0.009274 0.476871 76 0 153
-0.422886 -0.439337 0.481646 0 127 127
-0.392978 -0.497462 -0.152081 76 0 153
-0.395809 0.504155 -0.278826 204 51 127
0.451123 -0.226522 0.481646 76 153 0
0.373161 -0.571285 0.354901 76 153 0
0.274392 0.062300 0.481646 76 0 153
0.370541 0.085785 0.018399 76 0 153
-0.170452 0.085785 0.181514 76 0 153
-0.390883 0.085785 0.326099 76 0 153
-0.089165 -0.009274 -0.171747 76 0 153
-0.247368 0.179473 -0.183767 204 51 127
-0.330736 -0.517080 0.419689 0 127 127
-0.030031 0.416529 -0.183767 204 51 127
0.470375 0.719512 -0.186149 204 51 127
-0.457482 -0.245071 -0.231017 76 0 153
0.493109 -0.207601 0.421893 76 153 0
0.467012 -0.606292 -0.278826 153 0 76
-0.188545 0.522906 -0.183767 204 51 127
0.455107 0.256769 -0.278826 204 51 127
0.366363 -0.736686 0.408524 76 153 0
-0.396376 -0.308093 0.354901 0 127 127
0.244169 0.085785 -0.181890 76 0 153
0.469552 -0.009274 -0.251712 153 0 76
0.432464 0.392982 -0.183767 204 51 127
0.474587 -0.189744 -0.278826 153 0 76
-0.380210 -0.009274 0.163869 76 0 153
0.414025 -0.106278 0.481646 76 153 0
-0.000344 0.086626 -0.183767 76 0 153
0.078098 -0.009274 0.243994 76 0 153
0.431177 0.570643 -0.278826 204 51 127
0.366139 0.694855 -0.278826 204 51 127
-0.125790 -0.009274 0.020399 76 0 153
-0.347094 0.075655 0.481646 76 0 153
0.152950 -0.009274 0.350376 76 0 153
0.492721 0.643584 -0.183767 204 51 127
-0.254411 0.059076 0.481646 76 0 153
-0.345514 -0.235864 -0.278826 76 0 153
0.168703 -0.009274 0.297919 76 0 153
-0.144788 -0.009274 -0.260765 76 0 153
0.378828 -0.664896 0.354901 76 153 0
0.347637 0.210207 -0.278826 204 51 127
-0.330736 -0.391178 -0.258290 76 0 153
-0.448919 -0.633757 -0.152081 76 0 153
0.312445 0.085785 0.395622 76 0 153
-0.330736 -0.529478 -0.178632 76 0 153
0.373180 0.461808 -0.278826 204 51 127
-0.332937 -0.696705 0.481646 0 127 127
0.362569 0.180202 -0.183767 204 51 127
-0.001267 0.544993 -0.183767 204 51 127
-0.405637 -0.009274 0.211044 76 0 153
0.043898 0.211098 -0.278826 204 51 127
0.486824 -0.191382 -0.152081 153 0 76
0.493109 0.029391 0.083095 76 0 153
-0.040247 0.295456 -0.278826 204 51 127
0.221094 -0.009274 0.369154 76 0 153
0.453241 -0.769747 0.371510 76 153 0
0.446874 -0.630542 0.481646 76 153 0
0.377376 -0.345054 -0.278826 153 0 76
0.026138 0.623108 -0.278826 204 51 127
0.240601 0.530130 -0.183767 204 51 127
0.396223 -0.160608 0.354901 76 153 0
0.192847 -0.009274 -0.002233 76 0 153
-0.036704 0.160615 -0.278826 204 51 127
0.428301 0.465865 -0.278826 204 51 127
-0.421081 -0.163305 -0.278826 76 0 153
0.493109 0.043345 0.132567 76 0 153
-0.387397 -0.703552 0.354901 0 127 127
0.165188 0.247126 -0.183767 204 51 127
-0.404712 -0.389125 -0.278826 76 0 153
-0.330736 -0.279162 0.460390 0 127 127
0.045987 0.013798 0.481646 76 0 153
0.413710 -0.250388 -0.152081 153 0 76
-0.400284 -0.521847 0.354901 0 127 127
-0.457482 -0.413072 -0.178506 76 0 153
-0.081905 -0.009274 0.160784 76 0 153
0.493109 0.329105 -0.199314 204 51 127
-0.446417 0.414015 -0.183767 204 51 127
0.466855 -0.357000 -0.152081 153 0 76
0.364970 -0.009274 -0.014784 76 0 153
-0.422904 0.621784 -0.183767 204 51 127
-0.375237 0.330214 -0.278826 204 51 127
-0.377742 -0.415422 0.481646 0 127 127
0.078265 0.188559 -0.183767 204 51 127
0.485321 0.435898 -0.278826 204 51 127
0.433361 0.719512 -0.237348 204 51 127
0.398601 0.017788 -0.278826 76 0 153
-0.457482 -0.232456 0.432658 0 127 127
-0.330736 -0.208787 0.403446 0 127 127
0.107453 0.210263 -0.278826 204 51 127
0.366363 -0.154756 -0.221866 153 0 76
-0.360448 0.554371 -0.183767 204 51 127
0.493109 -0.742045 -0.192717 153 0 76
-0.340418 0.673320 -0.278826 204 51 127
0.098089 0.654644 -0.183767 204 51 127
-0.359653 -0.348285 0.354901 0 127 127
0.097492 0.085785 0.412780 76 0 153
0.062825 0.085785 0.454256 76 0 153
0.166944 0.482515 -0.278826 204 51 127
-0.216544 0.019018 -0.278826 76 0 153
0.372160 -0.505169 0.354901 76 153 0
0.366363 -0.742426 -0.167242 153 0 76
-0.001890 -0.009274 -0.032111 76 0 153
-0.347628 -0.264842 -0.152081 76 0 153
-0.407138 0.085785 0.412505 76 0 153
0.107980 0.338132 -0.278826 204 51 127
-0.290781 0.177188 -0.278826 204 51 127
-0.012951 0.237302 -0.183767 204 51 127
0.493109 -0.542284 -0.252703 153 0 76
-0.264269 0.085785 0.275065 76 0 153
0.002295 0.063454 0.481646 76 0 153
0.434320 -0.388931 0.481646 76 153 0
0.467087 -0.438554 0.354901 76 153 0
-0.158730 -0.009274 0.479320 76 0 153
-0.268655 -0.009274 0.189262 76 0 153
-0.043626 0.696245 -0.278826 204 51 127
-0.457482 -0.678911 -0.158105 76 0 153
0.366363 -0.185939 -0.173987 153 0 76
0.449134 0.608799 -0.183767 204 51 127
-0.449756 -0.238643 0.481646 0 127 127
0.119577 0.669841 -0.278826 204 51 127
-0.439189 -0.142856 -0.152081 76 0 153
0.491958 0.085785 -0.048436 76 0 153
0.058719 0.391606 -0.278826 204 51 127
0.166104 -0.009274 -0.032980 76 0 153
-0.255175 -0.009274 -0.023824 76 0 153
-0.177741 -0.009274 0.162808 76 0 153
-0.457482 0.078774 -0.188987 76 0 153
0.379917 -0.009274 -0.253280 76 0 153
-0.023899 0.132390 -0.183767 204 51 127
0.395728 -0.301707 -0.278826 153 0 76
-0.118543 0.038601 -0.278826 76 0 153
-0.457482 0.010309 -0.032180 76 0 153
-0.136242 0.350949 -0.278826 204 51 127
0.146971 0.439765 -0.183767 204 51 127
-0.457482 -0.570982 0.405903 0 127 127
0.004688 0.026486 0.481646 76 0 153
-0.068801 0.105242 -0.183767 204 51 127
0.366363 -0.650454 0.454959 76 153 0
-0.086049 0.431613 -0.183767 204 51 127
-0.457482 -0.018116 -0.216746 76 0 153
0.351847 0.227308 -0.183767 204 51 127
-0.396167 -0.747288 0.481646 0 127 127
0.356659 -0.009274 0.113736 76 0 153
-0.368617 0.493883 -0.278826 204 51 127
-0.330736 -0.017746 -0.202757 76 0 153
0.249413 0.700839 -0.278826 204 51 127
0.366363 -0.188974 0.472912 76 153 0
0.426332 0.085785 0.430063 76 0 153
-0.394703 -0.367654 -0.152081 76 0 153
0.493109 0.110223 -0.217289 204 51 127
0.491282 -0.622038 0.481646 76 153 0
-0.172620 -0.009274 0.321073 76 0 153
-0.001273 0.719512 -0.257275 204 51 127
0.106200 0.719512 -0.253595 204 51 127
0.493109 -0.005034 0.101156 76 0 153
-0.189647 0.085785 0.328310 76 0 153
0.190909 0.113003 -0.278826 204 51 127
0.459172 0.305444 -0.278826 204 51 127
0.288727 0.155209 -0.278826 204 51 127
-0.457482 0.069733 -0.016952 76 0 153
-0.139416 0.108921 -0.278826 76 0 153
0.334388 0.085785 -0.050233 76 0 153
-0.457482 -0.045827 0.382263 0 127 127
-0.330736 -0.681088 0.431137 0 127 127
0.033760 0.340971 -0.183767 204 51 127
0.271510 -0.009274 -0.166001 76 0 153
0.366363 -0.767252 -0.184463 153 0 76
0.214480 0.085785 0.295682 76 0 153
0.493109 -0.215465 -0.253032 153 0 76
-0.042490 -0.009274 0.364460 76 0 153
0.366363 -0.590487 0.394850 76 153 0
0.396967 0.241634 -0.183767 204 51 127
-0.122406 0.085785 0.455958 76 0 153
0.493109 -0.742254 0.414248 76 153 0
-0.330736 -0.492728 -0.163662 76 0 153
-0.383202 -0.602179 0.354901 0 127 127
-0.089226 -0.009274 0.387356 76 0 153
0.366363 -0.292830 -0.199703 153 0 76
-0.417663 -0.424033 0.354901 0 127 127
-0.373942 -0.019722 0.481646 0 127 127
-0.330736 -0.401757 0.458896 0 127 127
-0.219776 -0.009274 0.070560 76 0 153
0.471417 0.093682 -0.278826 76 0 153
0.176041 0.336940 -0.183767 204 51 127
0.278855 -0.009274 -0.214200 76 0 153
0.061818 0.691820 -0.183767 204 51 127
0.438956 0.446742 -0.183767 204 51 127
-0.195568 0.066939 0.481646 76 0 153
0.317911 -0.009274 0.023705 76 0 153
-0.162797 0.103394 -0.183767 204 51 127
0.026353 0.343880 -0.278826 204 51 127
-0.197521 0.612694 -0.278826 204 51 127
0.493109 -0.681806 0.418821 76 153 0
0.168180 0.162814 -0.278826 204 51 127
-0.386137 0.719512 -0.212432 204 51 127
-0.034351 0.063574 -0.278826 76 0 153
0.153389 0.085785 0.418971 76 0 153
0.405121 0.086408 -0.278826 76 0 153
-0.330736 -0.344633 -0.176510 76 0 153
0.212815 0.085785 0.438837 76 0 153
-0.042995 0.085785 -0.049998 76 0 153
-0.199867 0.497551 -0.278826 204 51 127
0.004980 -0.009274 0.407310 76 0 153
-0.421406 -0.009274 0.038779 76 0 153
-0.277962 0.719512 -0.259198 204 51 127
-0.360951 0.414456 -0.278826 204 51 127
-0.457482 0.190353 -0.253921 204 51 127
-0.408401 -0.009274 0.127742 76 0 153
0.392875 -0.687963 0.354901 76 153 0
-0.086847 0.085785 -0.163567 76 0 153
-0.148211 0.390093 -0.278826 204 51 127
0.346816 0.652756 -0.278826 204 51 127
0.493109 0.051841 -0.081104 76 0 153
0.023773 0.085785 0.020473 76 0 153
-0.080641 -0.009274 -0.241040 76 0 153
-0.430931 -0.254730 -0.152081 76 0 153
0.000866 0.400751 -0.183767 204 51 127
0.493109 0.010188 0.051280 76 0 153
-0.330736 -0.645855 0.386645 0 127 127
-0.397298 -0.097493 0.354901 0 127 127
0.083174 -0.009274 -0.057410 76 0 153
0.037675 0.558393 -0.278826 204 51 127
0.404586 0.433481 -0.278826 204 51 127
0.350362 0.085785 0.268003 76 0 153
-0.457482 0.494607 -0.249670 204 51 127
0.227858 0.385542 -0.278826 204 51 127
0.434379 -0.009274 -0.167868 153 0 76
-0.144065 0.512479 -0.278826 204 51 127
-0.041387 0.191016 -0.183767 204 51 127
0.276107 0.085785 0.440430 76 0 153
-0.403396 0.310064 -0.278826 204 51 127
0.493109 -0.656154 -0.211083 153 0 76
-0.334197 -0.038726 0.481646 0 127 127
-0.366120 -0.009274 -0.278231 76 0 153
0.366363 -0.289646 -0.258976 153 0 76
-0.258605 -0.009274 0.155545 76 0 153
0.483894 0.637283 -0.278826 204 51 127
0.493109 -0.247344 -0.210492 153 0 76
0.493109 -0.563407 0.376213 76 153 0
-0.203338 -0.009274 0.027598 76 0 153
0.207463 0.388896 -0.183767 204 51 127
0.432348 0.085785 0.307138 76 0 153
-0.384876 -0.009274 -0.085874 76 0 153
0.409567 -0.230358 -0.278826 153 0 76
-0.360032 -0.018548 0.354901 0 127 127
-0.239271 -0.009274 0.417770 76 0 153
-0.156167 0.161062 -0.183767 204 51 127
-0.330736 -0.449047 0.427642 0 127 127
-0.209467 0.085785 -0.123997 76 0 153
-0.411992 -0.362997 -0.278826 76 0 153
0.024217 0.486166 -0.183767 204 51 127
0.268968 0.719512 -0.185593 204 51 127
-0.442903 -0.009274 0.059686 76 0 153
-0.457482 0.061951 0.115226 76 0 153
0.381983 -0.617950 0.354901 76 153 0
0.282614 -0.009274 -0.122811 76 0 153
-0.293828 0.085785 0.001139 76 0 153
-0.405450 -0.009274 0.380086 0 127 127
-0.139337 0.569729 -0.278826 204 51 127
-0.194480 0.328069 -0.183767 204 51 127
-0.067586 0.085785 -0.071153 76 0 153
0.420159 -0.009274 0.223236 76 0 153
-0.433577 0.262446 -0.183767 204 51 127
0.372176 -0.009274 0.260009 76 0 153
0.292037 -0.009274 0.026456 76 0 153
0.388503 -0.262225 0.354901 76 153 0
0.493109 0.027391 0.341138 76 0 153
0.414478 -0.308939 0.354901 76 153 0
0.493109 0.305548 -0.238254 204 51 127
0.493109 0.081048 0.177551 76 0 153
-0.394758 -0.153431 0.354901 0 127 127
-0.045437 -0.009274 0.263263 76 0 153
0.047133 0.085785 0.334578 76 0 153
0.102661 0.286291 -0.278826 204 51 127
-0.373451 -0.408868 -0.152081 76 0 153
-0.457482 0.004141 -0.198364 76 0 153
-0.101858 0.550208 -0.183767 204 51 127
0.107426 0.718132 -0.183767 204 51 127
-0.085417 0.714662 -0.183767 204 51 127
0.493109 0.020491 0.393953 76 0 153
-0.457482 0.064991 0.320654 76 0 153
0.337402 0.411097 -0.278826 204 51 127
0.443578 0.141155 -0.183767 204 51 127
0.493109 0.061588 0.467182 76 0 153
-0.405230 -0.729270 0.354901 0 127 127
0.436314 -0.560362 -0.278826 153 0 76
0.246348 -0.009274 0.189038 76 0 153
0.493109 -0.409265 -0.210562 153 0 76
0.456296 -0.769747 -0.190931 153 0 76
0.480645 -0.223641 0.481646 76 153 0
-0.126830 0.085785 0.308241 76 0 153
-0.412848 -0.009274 -0.009770 76 0 153
0.192937 0.085785 0.163922 76 0 153
0.493109 -0.768829 -0.229615 153 0 76
-0.330736 -0.357949 0.481096 0 127 127
0.493109 -0.494154 -0.230509 153 0 76
0.279197 0.498707 -0.183767 204 51 127
-0.309059 0.719512 -0.198790 204 51 127
0.493109 -0.590807 -0.163740 153 0 76
-0.457482 -0.565327 -0.265163 76 0 153
-0.457482 0.186262 -0.205312 204 51 127
-0.434774 -0.221267 -0.152081 76 0 153
-0.451452 0.174774 -0.278826 204 51 127
0.074375 -0.009274 0.328045 76 0 153
-0.358065 -0.471836 -0.278826 76 0 153
-0.457482 0.022752 0.040717 76 0 153
-0.397247 -0.221407 -0.278826 76 0 153
-0.342512 -0.209392 -0.152081 76 0 153
0.032488 0.530495 -0.278826 204 51 127
0.428550 -0.769747 0.455906 76 153 0
-0.457482 -0.260171 0.435421 0 127 127
0.367650 0.392393 -0.183767 204 51 127
0.465884 -0.009274 0.276392 76 0 153
-0.209832 0.085785 0.123309 76 0 153
0.057830 0.340189 -0.278826 204 51 127
-0.330736 -0.096683 0.458440 0 127 127
-0.457482 -0.184308 -0.227322 76 0 153
0.366363 -0.468170 0.422257 76 153 0
0.439643 0.675474 -0.183767 204 51 127
-0.393414 -0.680388 -0.152081 76 0 153
0.493109 -0.705054 -0.217408 153 0 76
-0.457482 -0.642634 -0.248631 76 0 153
-0.393583 0.719512 -0.246563 204 51 127
0.241995 0.436143 -0.278826 204 51 127
0.440317 0.051647 -0.278826 76 0 153
0.315321 0.085785 0.267759 76 0 153
-0.348352 -0.215548 0.481646 0 127 127
0.438865 -0.764814 -0.278826 153 0 76
0.493109 0.041753 -0.123484 76 0 153
0.493109 0.070821 0.260827 76 0 153
0.391405 -0.444931 -0.152081 153 0 76
0.493109 0.144350 -0.261075 204 51 127
0.188520 0.234449 -0.183767 204 51 127
0.366363 -0.389628 0.453598 76 153 0
-0.322090 0.085785 -0.066277 76 0 153
0.154464 0.557676 -0.183767 204 51 127
0.309087 -0.009274 0.417377 76 0 153
-0.235781 -0.009274 -0.062974 76 0 153
0.026261 0.085785 0.190030 76 0 153
-0.330736 -0.175805 0.423561 0 127 127
-0.029947 0.652498 -0.183767 204 51 127
-0.457482 0.063201 -0.105975 76 0 153
-0.330736 -0.206307 -0.202156 76 0 153
-0.373597 -0.067942 0.354901 0 127 127
-0.378643 -0.617785 0.481646 0 127 127
-0.361271 -0.767065 0.481646 0 127 127
-0.351885 -0.009274 0.185495 76 0 153
-0.429732 -0.388524 -0.152081 76 0 153
-0.437048 -0.769747 0.408317 0 127 127
0.428941 -0.769747 -0.183031 153 0 76
0.382899 -0.124215 -0.278826 153 0 76
-0.330736 -0.306688 0.424142 0 127 127
-0.417740 -0.714148 -0.278826 76 0 153
-0.134946 0.085785 -0.065589 76 0 153
-0.345151 0.085785 0.337361 76 0 153
0.026624 0.441824 -0.278826 204 51 127
-0.457482 0.024714 -0.246495 76 0 153
-0.332506 -0.610533 -0.278826 76 0 153
-0.382956 -0.009274 -0.049625 76 0 153
0.055140 0.712879 -0.278826 204 51 127
0.122983 -0.009274 0.279986 76 0 153
0.089668 0.085785 0.293276 76 0 153
-0.457482 0.556761 -0.228324 204 51 127
-0.119294 -0.009274 -0.263648 76 0 153
-0.026638 -0.009274 -0.050798 76 0 153
-0.155797 0.151559 -0.278826 204 51 127
-0.457482 0.034531 0.247087 76 0 153
0.493109 -0.664318 0.477161 76 153 0
-0.404223 0.085785 -0.028390 76 0 153
0.391626 -0.418997 0.354901 76 153 0
0.091186 -0.009274 0.065204 76 0 153
0.374517 -0.415336 -0.152081 153 0 76
0.493109 0.604118 -0.208365 204 51 127
0.493109 0.008974 0.173851 76 0 153
-0.376276 0.055746 0.481646 76 0 153
-0.347172 -0.201287 -0.278826 76 0 153
0.493109 0.061497 0.292068 76 0 153
0.240808 0.536915 -0.278826 204 51 127
-0.455638 0.672006 -0.278826 204 51 127
-0.390981 -0.375105 0.354901 0 127 127
-0.098209 0.139885 -0.278826 204 51 127
0.366363 -0.142024 0.378089 76 153 0
-0.457482 -0.727363 -0.240114 76 0 153
0.064647 0.085785 0.191524 76 0 153
-0.362813 -0.009274 -0.130830 76 0 153
-0.024427 0.085785 0.415895 76 0 153
0.225741 0.479814 -0.278826 204 51 127
-0.025680 -0.009274 -0.235948 76 0 153
-0.378043 -0.009274 0.309954 76 0 153
0.476831 0.461087 -0.278826 204 51 127
-0.388487 -0.286100 -0.152081 76 0 153
0.477886 -0.769747 0.453842 76 153 0
0.389888 -0.138567 -0.152081 153 0 76
-0.271363 0.496150 -0.183767 204 51 127
-0.405848 -0.009274 0.295569 76 0 153
0.469085 -0.017576 0.481646 76 153 0
-0.159936 0.586664 -0.278826 204 51 127
-0.437025 0.085785 -0.059060 76 0 153
-0.073424 0.493620 -0.278826 204 51 127
-0.291522 0.532164 -0.278826 204 51 127
0.366363 -0.390925 -0.204177 153 0 76
0.008788 0.447614 -0.183767 204 51 127
0.493109 -0.441433 0.390098 76 153 0
-0.263616 -0.009274 0.462196 76 0 153
-0.044293 0.085785 0.348351 76 0 153
0.049773 0.102703 -0.183767 204 51 127
-0.169538 0.450686 -0.183767 204 51 127
0.324490 0.085785 0.316243 76 0 153
-0.343613 -0.540720 -0.152081 76 0 153
0.240723 -0.009274 -0.234327 76 0 153
-0.413583 -0.501420 0.481646 0 127 127
0.366363 -0.720901 0.356609 76 153 0
-0.040395 0.456991 -0.183767 204 51 127
0.111737 0.480075 -0.278826 204 51 127
-0.330736 -0.135954 -0.196883 76 0 153
-0.330736 -0.161672 -0.223728 76 0 153
0.330647 0.254084 -0.278826 204 51 127
-0.124169 0.434498 -0.278826 204 51 127
0.195190 0.099892 -0.183767 76 0 153
0.366363 -0.091319 0.381393 76 153 0
0.010426 0.719512 -0.213769 204 51 127
-0.336828 0.077150 -0.278826 76 0 153
-0.457482 0.465097 -0.193930 204 51 127
-0.065754 0.154688 -0.278826 204 51 127
0.295623 0.085785 0.096702 76 0 153
0.471222 -0.173764 0.354901 76 153 0
0.493109 -0.595775 0.365645 76 153 0
-0.194828 -0.009274 -0.173599 76 0 153
0.417010 0.393510 -0.278826 204 51 127
0.492278 -0.009274 0.426127 76 0 153
0.131943 0.085785 0.312920 76 0 153
-0.437208 0.540652 -0.278826 204 51 127
-0.330736 -0.133511 0.433719 0 127 127
-0.450539 0.387148 -0.183767 204 51 127
0.366363 -0.034721 -0.207393 153 0 76
-0.031025 0.599579 -0.183767 204 51 127
0.060160 0.046056 -0.278826 76 0 153
-0.353800 -0.650419 0.481646 0 127 127
-0.170979 0.340865 -0.278826 204 51 127
-0.457482 -0.435819 -0.212683 76 0 153
0.011676 0.085785 0.354291 76 0 153
-0.449032 -0.619098 0.481646 0 127 127
-0.334647 0.085785 0.072929 76 0 153
-0.203281 -0.009274 0.403336 76 0 153
-0.238538 0.621717 -0.278826 204 51 127
0.404947 0.111525 -0.183767 204 51 127
-0.134880 0.618877 -0.278826 204 51 127
-0.387392 -0.223220 -0.152081 76 0 153
-0.355042 -0.693515 -0.278826 76 0 153
-0.457482 0.268736 -0.215887 204 51 127
0.393976 -0.712641 0.481646 76 153 0
-0.367173 -0.330781 -0.152081 76 0 153
0.437604 -0.485344 0.481646 76 153 0
-0.319864 -0.009274 -0.100674 76 0 153
0.397859 -0.640732 0.354901 76 153 0
0.186270 0.656218 -0.183767 204 51 127
-0.449850 -0.047545 0.481646 0 127 127
0.444127 -0.009274 0.170625 76 0 153
-0.367152 -0.323838 0.481646 0 127 127
0.277747 0.276012 -0.183767 204 51 127
-0.406194 0.379011 -0.183767 204 51 127
0.058420 0.653832 -0.278826 204 51 127
-0.286070 0.222696 -0.278826 204 51 127
0.493109 0.353381 -0.240378 204 51 127
-0.168666 0.085785 0.069973 76 0 153
-0.355928 0.085785 0.290223 76 0 153
0.380468 -0.055890 0.481646 76 153 0
0.224228 0.478597 -0.183767 204 51 127
0.373450 -0.182257 0.354901 76 153 0
0.031577 0.182061 -0.183767 204 51 127
0.308028 0.017720 -0.278826 76 0 153
-0.457482 0.013087 0.138143 76 0 153
-0.247098 0.085785 0.140299 76 0 153
0.493109 -0.236685 -0.266759 153 0 76
0.366363 -0.412666 0.389042 76 153 0
-0.457482 0.015671 -0.080794 76 0 153
-0.343242 -0.745263 0.481646 0 127 127
-0.457482 -0.317572 0.377882 0 127 127
-0.335953 0.335451 -0.278826 204 51 127
0.420340 -0.089450 -0.278826 153 0 76
0.246382 0.012981 0.481646 76 0 153
-0.073131 0.085785 0.273017 76 0 153
-0.293694 0.053593 0.481646 76 0 153
-0.197516 -0.009274 -0.035294 76 0 153
0.410564 -0.752721 0.354901 76 153 0
-0.388089 -0.729336 -0.152081 76 0 153
0.275684 0.547449 -0.278826 204 51 127
0.115415 -0.009274 -0.037172 76 0 153
-0.417364 0.358884 -0.278826 204 51 127
-0.250466 0.085785 0.382514 76 0 153
0.324608 -0.009274 -0.095326 76 0 153
-0.330736 -0.394035 -0.178792 76 0 153
0.406503 0.135372 -0.278826 204 51 127
-0.144428 0.034753 0.481646 76 0 153
0.493109 0.660468 -0.272561 204 51 127
0.167740 0.194683 -0.183767 204 51 127
0.315728 0.085785 0.242199 76 0 153
