ply
format ascii 1.0
element vertex 1268
property float x
property float y
property float z
property uchar red
property uchar green
property uchar blue
end_header
-0.117961 0.350284 -0.326215 153 76 0
0.269158 -0.636447 -0.278395 153 0 76
-0.228339 -0.128526 0.613825 153 76 0
0.036981 -0.273851 0.516969 255 0 0
-0.075712 -0.199593 0.212775 153 76 0
0.265774 0.380407 -0.340112 153 76 0
-0.256613 0.622248 -0.411761 127 127 0
-0.174083 -0.627830 -0.346565 153 0 76
0.012568 -0.236901 0.038231 153 76 0
-0.279790 -0.172080 0.278799 0 127 127
0.219551 0.394256 -0.413389 153 76 0
-0.097138 0.399321 -0.346613 153 76 0
0.156184 0.045149 -0.154642 153 76 0
-0.058063 0.672610 -0.447920 127 0 127
-0.435687 -0.697562 -0.295601 76 0 153
-0.469428 -0.650258 -0.117966 76 0 153
-0.451109 -0.650799 -0.435714 76 0 153
0.358450 -0.649229 -0.329770 153 0 76
-0.308879 0.655097 -0.385025 76 0 153
-0.079976 0.604524 -0.457893 127 0 127
0.319758 -0.138816 -0.126271 153 0 76
-0.055203 0.659084 -0.410941 153 76 0
0.487065 -0.653382 0.357620 153 76 0
-0.123602 0.859545 -0.403407 153 76 0
-0.013163 0.497702 -0.364270 153 76 0
-0.481775 -0.661179 0.219868 76 0 153
0.381127 -0.653231 -0.281480 153 0 76
0.160345 -0.656347 -0.324996 153 0 76
-0.101543 0.312441 -0.298809 153 76 0
0.484526 0.120771 -0.111498 0 0 255
0.012461 0.086111 -0.241228 153 76 0
-0.323990 -0.166392 0.406466 76 0 153
-0.453041 -0.650548 -0.191046 76 0 153
0.339456 -0.243609 0.545476 255 0 0
-0.288459 0.328393 -0.375053 127 127 0
-0.060855 -0.132987 -0.065210 153 76 0
0.293237 -0.207570 0.237739 127 127 0
-0.328846 0.697417 -0.382914 76 0 153
-0.205939 -0.144703 0.188108 153 76 0
0.302468 -0.157438 0.136858 153 76 0
0.160742 -0.275795 0.543033 255 0 0
-0.322187 -0.055833 -0.198868 76 0 153
0.365509 -0.197698 0.275547 153 0 76
0.225874 -0.244803 0.514938 255 0 0
-0.351078 -0.135645 0.596358 76 0 153
-0.284170 0.671041 -0.408690 153 76 0
-0.460057 -0.650028 -0.048576 76 0 153
0.019881 0.033434 -0.150256 153 76 0
0.106120 -0.277430 0.519652 255 0 0
-0.097026 0.153335 -0.208840 153 76 0
-0.403079 0.097449 0.481017 76 0 153
-0.422295 0.115498 0.132896 153 0 76
0.258069 -0.231715 0.079604 153 76 0
-0.099966 -0.087832 -0.094950 153 76 0
0.066731 0.195251 -0.298299 153 76 0
-0.050566 0.272538 -0.347715 153 76 0
-0.411708 -0.194963 0.552229 204 51 127
0.256794 -0.072880 0.510373 153 76 0
0.325169 -0.212118 0.048011 153 76 0
0.197152 0.525547 -0.424667 153 76 0
0.202562 0.300712 -0.366099 153 76 0
-0.071289 -0.072346 0.523119 153 76 0
-0.482392 0.144414 0.273841 153 0 76
0.414998 -0.543909 0.561793 0 0 255
0.239024 -0.173238 0.321817 153 76 0
-0.290887 0.585150 -0.406925 76 0 153
-0.020786 -0.120149 0.289521 153 76 0
0.362314 -0.180653 0.510452 255 0 0
-0.445883 0.112542 0.228475 153 0 76
-0.166934 -0.168488 -0.006853 153 76 0
-0.208786 -0.630953 -0.303684 153 0 76
0.150103 0.699395 -0.348865 153 76 0
0.438755 -0.697408 0.066933 153 76 0
0.034255 -0.145127 0.186390 153 76 0
-0.445946 -0.649782 -0.005318 76 0 153
0.296707 0.426977 -0.355094 153 76 0
-0.141863 0.618737 -0.439113 127 0 127
-0.339295 -0.047450 -0.151425 76 0 153
0.181914 0.018646 -0.229656 0 255 0
0.438701 -0.650513 -0.060026 153 76 0
-0.483644 -0.385550 0.541450 204 51 127
-0.317492 -0.192415 -0.118799 76 0 153
-0.123769 0.717870 -0.425108 153 76 0
-0.421106 -0.697307 -0.205133 76 0 153
0.310284 0.248167 -0.304699 153 0 76
0.151469 -0.625224 -0.332516 153 0 76
0.368613 -0.124674 0.383176 153 0 76
-0.305266 0.103879 -0.269082 76 0 153
-0.006653 -0.041673 -0.184779 153 76 0
-0.080253 -0.164939 0.567123 153 76 0
-0.345336 0.605556 -0.412336 76 0 153
0.262168 0.314798 -0.301212 153 76 0
0.138527 0.109021 -0.253103 153 76 0
0.000219 0.153570 -0.276206 153 76 0
0.458787 -0.650769 0.259618 153 76 0
-0.282322 -0.164937 0.563054 153 76 0
-0.304266 -0.173133 0.073228 153 76 0
-0.275977 0.042683 -0.210922 127 127 0
0.373314 -0.111746 0.528586 153 0 76
-0.124635 -0.036107 -0.121955 153 76 0
0.331706 0.155764 -0.243604 153 0 76
-0.322573 0.083300 -0.205514 76 0 153
-0.162647 0.296184 -0.363146 153 76 0
-0.034227 0.712450 -0.347931 153 76 0
0.268963 0.497558 -0.364417 153 76 0
0.040970 -0.108826 0.336547 153 76 0
0.295025 -0.220379 0.081307 127 127 0
-0.058954 -0.079763 -0.169657 153 76 0
0.210760 0.404574 -0.347912 153 76 0
-0.400196 -0.664807 0.177489 76 0 153
-0.337901 0.670012 -0.429955 76 0 153
0.057297 0.003983 -0.202897 153 76 0
-0.077194 -0.221361 -0.046239 153 76 0
0.247456 0.049823 -0.243068 0 255 0
-0.281053 0.516486 -0.446586 127 127 0
-0.218914 0.785363 -0.350637 153 76 0
-0.421205 -0.649392 -0.329702 76 0 153
-0.237273 0.017388 -0.143969 153 76 0
-0.326668 -0.142486 0.542909 76 0 153
0.411030 -0.684152 -0.398309 153 76 0
0.130977 0.836753 -0.373285 153 76 0
0.308977 0.779114 -0.382100 153 0 76
-0.139438 -0.148361 0.172991 153 76 0
0.193157 -0.249656 0.545898 255 0 0
-0.476946 -0.653144 0.152524 76 0 153
0.156356 -0.140233 -0.141887 153 76 0
-0.184569 0.088639 -0.242539 153 76 0
0.413418 0.155619 0.152558 0 0 255
0.234277 0.225974 -0.244363 153 76 0
-0.239836 0.226321 -0.244631 153 76 0
0.262035 0.861021 -0.413132 153 76 0
-0.244834 0.615666 -0.355559 153 76 0
-0.088434 0.814642 -0.359137 153 76 0
0.305057 -0.160276 0.431431 127 127 0
0.319524 -0.136589 0.546287 153 0 76
0.483241 0.106752 0.337984 0 0 255
-0.290170 0.721946 -0.358135 153 76 0
0.453591 -0.240451 0.508483 0 0 255
-0.047757 -0.180106 0.293513 153 76 0
0.448245 -0.650517 -0.437112 153 76 0
0.413448 -0.027061 0.495515 204 51 127
0.028881 -0.217234 0.139604 153 76 0
0.304657 0.185813 -0.309775 0 127 127
-0.277997 0.414618 -0.418356 153 76 0
-0.289200 0.229104 -0.309620 127 127 0
-0.481986 0.109167 0.412301 153 0 76
0.251729 0.459286 -0.425234 153 76 0
0.265053 0.049330 -0.156062 153 76 0
-0.163795 -0.627609 -0.278225 153 0 76
-0.482355 0.153714 -0.139726 153 0 76
0.425495 -0.649701 -0.342599 153 76 0
0.235902 -0.107444 -0.082751 153 76 0
0.183765 0.633016 -0.413267 153 76 0
-0.133809 -0.073066 -0.102993 153 76 0
-0.449497 -0.650026 0.408267 76 0 153
0.412031 0.154690 0.094730 0 0 255
-0.219707 0.743213 -0.442465 153 76 0
-0.415007 -0.608751 0.554507 204 51 127
-0.413447 -0.697174 0.017388 76 0 153
-0.445889 -0.483967 0.518548 204 51 127
-0.422413 -0.043031 0.536749 76 0 153
-0.399726 -0.677369 0.079803 76 0 153
-0.353905 0.176310 -0.264888 76 0 153
0.481192 0.165166 0.057280 0 0 255
-0.044129 -0.178497 0.427001 127 0 127
-0.478204 -0.654615 0.356660 76 0 153
0.321388 0.003231 -0.222139 153 0 76
0.493786 -0.436681 0.547129 0 0 255
-0.089238 0.562746 -0.420907 153 76 0
-0.228005 0.298284 -0.364515 153 76 0
-0.172421 0.602074 -0.416484 153 76 0
0.319642 -0.080664 0.545500 153 76 0
-0.073685 -0.171095 0.330469 153 76 0
-0.294934 -0.030280 -0.188244 153 76 0
-0.288459 -0.149963 0.166840 153 76 0
-0.313720 -0.196283 0.131764 153 76 0
0.053686 0.354690 -0.398910 153 76 0
-0.226565 -0.663388 -0.295341 153 0 76
-0.069491 -0.047599 -0.116167 153 76 0
0.066167 0.439984 -0.423099 153 76 0
-0.193555 0.662475 -0.351655 153 76 0
-0.048016 -0.162456 0.366177 153 76 0
0.321032 -0.182942 -0.069519 153 0 76
0.411428 -0.059103 0.503550 204 51 127
-0.018259 0.198108 -0.231721 153 76 0
-0.040483 0.835676 -0.454808 153 76 0
0.119723 -0.145042 0.186745 153 76 0
0.074351 -0.127184 0.613976 153 76 0
-0.162845 -0.236142 0.049778 153 76 0
-0.466606 -0.694459 0.453378 76 0 153
0.416551 0.163201 -0.088461 0 0 255
-0.034863 -0.217314 0.543637 255 0 0
0.314975 -0.173653 0.023297 153 76 0
0.036321 -0.169099 0.338667 153 76 0
0.026909 -0.100655 0.370696 153 76 0
-0.211541 -0.082163 -0.098121 153 76 0
0.130201 0.036387 -0.243191 0 255 0
0.410644 0.151824 -0.150218 0 0 255
0.410888 -0.663920 -0.036210 153 76 0
0.409841 -0.675841 0.246999 153 76 0
0.262856 0.110387 -0.253811 153 76 0
-0.310481 -0.217238 0.160779 76 0 153
-0.238627 -0.152055 0.157688 153 76 0
0.411224 0.038926 0.486936 204 51 127
0.283682 -0.172179 -0.109156 0 127 127
-0.079396 0.762427 -0.449305 153 76 0
-0.404621 0.115737 0.262027 153 0 76
0.311882 -0.195516 0.182075 127 127 0
0.027573 -0.082843 0.587523 153 76 0
0.466218 -0.368733 0.515815 0 0 255
-0.167924 0.444359 -0.423593 153 76 0
0.433925 -0.502264 0.518371 0 0 255
-0.121185 -0.130155 0.247927 153 76 0
0.472482 -0.684768 0.481248 153 76 0
0.292926 0.434352 -0.417519 0 127 127
-0.336789 -0.232996 0.130070 76 0 153
0.145991 -0.106866 0.610693 153 76 0
0.245112 0.339201 -0.390511 153 76 0
-0.463759 -0.698050 -0.027702 76 0 153
-0.108393 0.311606 -0.373218 153 76 0
0.172793 -0.064444 -0.175738 153 76 0
-0.444777 0.157089 0.286110 153 0 76
0.086491 -0.216509 -0.057216 153 76 0
0.167142 -0.169410 0.086927 153 76 0
-0.110000 -0.218623 0.543729 255 0 0
-0.349815 0.133615 -0.284311 76 0 153
-0.290778 0.160243 -0.270813 127 127 0
-0.483196 -0.313447 0.530893 204 51 127
-0.011386 -0.193953 0.235712 153 76 0
-0.360141 -0.102923 -0.171170 76 0 153
-0.361196 -0.210046 -0.088753 76 0 153
-0.399442 0.132861 0.205940 153 0 76
0.309221 0.604023 -0.390283 153 0 76
-0.434816 -0.650542 0.261442 76 0 153
-0.170319 -0.114738 -0.078325 153 76 0
-0.408823 -0.597192 0.508673 204 51 127
0.455805 -0.469179 0.518337 0 0 255
0.419672 -0.695709 0.028144 153 76 0
-0.454483 -0.304850 0.512888 204 51 127
0.290834 -0.069430 -0.167430 0 127 127
-0.422882 0.118243 0.041201 153 0 76
-0.466010 -0.650154 0.295551 76 0 153
0.264321 -0.169464 0.087411 153 76 0
0.409910 -0.677024 0.298643 153 76 0
-0.454075 -0.625215 0.545830 204 51 127
0.156043 0.775315 -0.349495 153 76 0
0.000523 -0.013455 -0.132107 153 76 0
-0.353498 0.254878 -0.335199 76 0 153
0.003326 0.017687 -0.241090 0 255 0
-0.274637 -0.074294 0.557704 153 76 0
-0.293673 0.468398 -0.431587 76 0 153
0.480349 0.118709 0.053872 0 0 255
-0.432668 -0.694856 -0.469243 76 0 153
0.185380 -0.174553 0.401649 127 0 127
0.323665 -0.156354 0.323874 153 76 0
-0.188523 0.001411 -0.138244 153 76 0
-0.300315 0.290997 -0.340189 153 76 0
-0.310591 -0.086493 0.496585 153 76 0
0.293932 -0.124428 0.485280 127 127 0
0.208272 -0.065230 -0.106971 153 76 0
0.000645 -0.074123 0.559862 153 76 0
-0.136105 -0.157542 0.386941 153 76 0
0.423438 -0.696582 -0.159190 153 76 0
0.493793 -0.516820 0.537167 0 0 255
-0.070690 0.761410 -0.348398 153 76 0
-0.410416 -0.697012 -0.243389 76 0 153
0.221754 -0.164814 0.550788 153 76 0
0.240852 0.678249 -0.350368 153 76 0
0.293354 -0.123956 0.276968 153 76 0
-0.359265 -0.151972 0.448095 76 0 153
0.109143 0.520030 -0.425108 153 76 0
-0.222630 0.275910 -0.272640 153 76 0
-0.080294 0.485792 -0.363952 153 76 0
-0.298440 0.129816 -0.202105 153 76 0
0.226575 -0.107476 0.341820 153 76 0
-0.330560 -0.161755 0.221214 76 0 153
0.074408 -0.170020 0.001064 153 76 0
-0.304523 0.830803 -0.439947 76 0 153
0.160887 0.105321 -0.181604 153 76 0
0.364322 0.272353 -0.336856 153 0 76
0.129249 -0.213551 -0.063089 153 76 0
0.411991 -0.598885 0.517816 0 0 255
0.045981 -0.195579 0.229145 153 76 0
-0.479926 -0.270888 0.551648 204 51 127
-0.398977 -0.055282 0.516124 76 0 153
0.123523 0.067270 -0.163649 153 76 0
0.300072 0.558162 -0.367001 153 76 0
0.211407 -0.145690 0.436019 153 76 0
0.014360 0.787085 -0.454418 153 76 0
0.331559 -0.208760 0.231009 153 0 76
-0.409474 -0.651186 -0.466234 76 0 153
0.420666 0.151957 0.340713 0 0 255
-0.055408 -0.072721 -0.103058 153 76 0
-0.278438 -0.193032 0.195878 0 127 127
0.494335 -0.677713 0.420256 153 76 0
-0.307513 0.237580 -0.344907 76 0 153
-0.183564 -0.137183 0.218727 153 76 0
-0.025152 -0.141322 0.456090 153 76 0
-0.282259 -0.139512 0.209156 153 76 0
-0.205139 0.840561 -0.375944 153 76 0
0.075397 -0.174737 0.315765 153 76 0
-0.102303 0.664825 -0.438638 127 0 127
0.153705 0.346701 -0.394745 153 76 0
0.007283 -0.176555 0.439154 127 0 127
-0.057042 0.531599 -0.364138 153 76 0
0.373212 -0.149591 0.316118 153 0 76
-0.135515 -0.655471 -0.353749 153 0 76
0.310252 -0.099084 0.379663 153 76 0
0.310685 0.366708 -0.370169 153 76 0
-0.223102 0.664335 -0.410514 153 76 0
-0.154246 -0.139778 0.471508 153 76 0
-0.228953 0.045805 -0.154641 153 76 0
-0.100642 -0.622871 -0.334970 153 0 76
0.478345 -0.698112 -0.369833 153 76 0
-0.042743 0.590594 -0.417774 153 76 0
0.359748 0.328462 -0.354772 153 0 76
0.315577 0.031635 -0.196021 153 0 76
-0.295249 -0.087799 -0.185432 127 127 0
0.202535 0.521154 -0.364523 153 76 0
0.350711 -0.150724 -0.093703 153 0 76
-0.307722 -0.241958 0.514739 255 0 0
0.196296 0.494169 -0.426336 153 76 0
0.078518 -0.087212 0.426785 153 76 0
0.032802 0.643688 -0.444915 127 0 127
0.309166 0.613536 -0.437341 153 0 76
-0.399228 -0.673960 -0.180097 76 0 153
-0.309395 -0.136040 0.387446 76 0 153
-0.446581 -0.697751 0.196893 76 0 153
-0.445947 -0.044161 0.489701 76 0 153
-0.198811 -0.130709 0.245621 153 76 0
-0.248179 0.140572 -0.201674 153 76 0
0.238604 0.000457 -0.226676 0 255 0
-0.311826 -0.121866 0.493690 153 76 0
-0.284147 0.781379 -0.352045 153 76 0
-0.400866 -0.661009 0.285690 76 0 153
-0.192272 -0.074009 0.500286 153 76 0
0.322516 -0.108464 0.427208 153 76 0
-0.162653 0.714966 -0.423481 153 76 0
0.410192 -0.104646 0.526408 204 51 127
-0.212790 -0.208921 0.174119 153 76 0
-0.408492 0.122239 -0.168286 153 0 76
0.471691 -0.698008 -0.333287 153 76 0
0.141890 -0.174593 0.421357 127 0 127
-0.151616 0.534331 -0.423880 153 76 0
-0.276133 0.776016 -0.452036 153 76 0
-0.408199 0.044586 0.470734 76 0 153
0.341462 -0.188371 0.114835 153 0 76
-0.407010 -0.695907 -0.071196 76 0 153
-0.252294 0.341697 -0.321516 153 76 0
0.194599 0.676719 -0.410315 153 76 0
-0.013050 0.366774 -0.404058 153 76 0
-0.005831 -0.240433 0.514632 255 0 0
0.321318 -0.210781 0.149581 153 0 76
-0.439011 -0.697621 -0.131269 76 0 153
0.133974 0.647838 -0.411884 153 76 0
-0.182859 0.208531 -0.236323 153 76 0
0.129450 0.102408 -0.180180 153 76 0
-0.032326 -0.142712 0.196094 153 76 0
0.224360 -0.065552 -0.175299 153 76 0
0.290515 -0.073979 0.501257 153 76 0
0.356992 0.571587 -0.417878 153 0 76
0.026217 -0.230470 -0.019203 153 76 0
-0.101692 -0.125683 0.614020 153 76 0
-0.363021 -0.235436 -0.023497 76 0 153
-0.253990 -0.661418 -0.278225 153 0 76
0.032028 -0.651083 -0.301518 153 0 76
-0.274918 0.250918 -0.257673 153 76 0
-0.220194 0.815121 -0.359739 153 76 0
-0.342424 0.703799 -0.412311 76 0 153
-0.065965 -0.622921 -0.278225 153 0 76
-0.025453 0.212037 -0.308279 153 76 0
-0.483228 -0.667388 -0.447617 76 0 153
0.310901 0.240159 -0.344838 153 0 76
0.278950 0.368560 -0.424586 0 127 127
-0.192768 -0.275506 0.547153 255 0 0
-0.125512 0.806489 -0.355091 153 76 0
0.152715 0.248813 -0.256474 153 76 0
0.297742 0.732232 -0.412188 153 0 76
0.118494 -0.164314 0.584667 153 76 0
-0.238663 -0.147388 -0.050882 153 76 0
0.262540 -0.137533 0.613313 153 76 0
-0.310529 -0.168685 0.256836 76 0 153
0.303146 0.666385 -0.369298 153 76 0
0.097175 -0.043636 -0.183999 153 76 0
0.132759 0.616736 -0.414914 153 76 0
-0.293028 0.187376 -0.285653 127 127 0
0.486985 0.163457 -0.004422 0 0 255
0.113156 0.194438 -0.229992 153 76 0
-0.481809 -0.495325 0.555318 204 51 127
0.445498 -0.011489 0.533033 204 51 127
-0.197694 0.255758 -0.336728 153 76 0
-0.362309 -0.066641 -0.167346 76 0 153
-0.447599 -0.648273 0.439224 76 0 153
-0.310098 -0.185378 0.189272 76 0 153
0.073730 -0.649904 -0.362228 153 0 76
-0.037703 0.603340 -0.356898 153 76 0
0.482852 -0.697736 0.259621 153 76 0
0.308586 -0.180924 0.344836 127 127 0
-0.294267 0.488119 -0.375303 153 76 0
-0.349974 0.198395 -0.314443 76 0 153
-0.451255 -0.105464 0.544927 76 0 153
-0.299199 -0.672320 -0.336048 153 0 76
-0.291243 -0.671278 -0.279791 153 0 76
-0.124091 -0.235983 0.052194 153 76 0
-0.236669 -0.171726 0.069463 153 76 0
0.323869 -0.643901 -0.314953 153 0 76
0.122697 0.768787 -0.450737 153 76 0
-0.404334 0.161813 -0.141492 153 0 76
-0.299370 -0.243392 0.086267 0 127 127
0.375119 -0.214084 0.021368 153 0 76
0.464412 -0.130268 0.499513 204 51 127
-0.398991 -0.542055 0.541751 204 51 127
-0.358487 0.045405 -0.222550 76 0 153
0.480962 -0.650662 -0.338026 153 76 0
-0.123151 -0.083231 0.588235 153 76 0
0.444023 -0.650469 0.527640 0 0 255
-0.141359 0.453129 -0.359833 153 76 0
-0.105898 0.615574 -0.355516 153 76 0
0.247838 -0.152572 0.155575 153 76 0
-0.184432 -0.215245 0.147836 153 76 0
-0.192763 -0.242708 0.514792 255 0 0
0.002092 0.860707 -0.408466 153 76 0
-0.437969 0.166632 -0.050751 153 0 76
-0.298324 0.159781 -0.221938 153 76 0
-0.230319 -0.075432 -0.171377 153 76 0
0.275470 0.710386 -0.428400 0 127 127
-0.310429 -0.061660 -0.139521 153 76 0
0.086830 0.579304 -0.419044 153 76 0
-0.054136 -0.159916 0.124538 153 76 0
0.035878 0.312384 -0.298977 153 76 0
0.133813 -0.624185 -0.357652 153 0 76
-0.147085 0.110185 -0.184131 153 76 0
0.106499 -0.151635 0.411472 153 76 0
0.320359 0.668710 -0.432229 153 0 76
-0.338033 -0.647756 -0.352444 153 0 76
0.489803 0.121856 0.191024 0 0 255
-0.440920 -0.218897 0.554864 204 51 127
-0.224318 0.371787 -0.336793 153 76 0
-0.017099 -0.121634 0.613944 153 76 0
-0.406914 -0.695865 0.322460 76 0 153
0.251217 0.079827 -0.237970 153 76 0
-0.043956 0.632874 -0.445304 127 0 127
0.099483 -0.224453 0.109731 153 76 0
-0.316775 0.393079 -0.382489 76 0 153
0.259827 -0.227358 -0.029349 153 76 0
-0.097714 0.839806 -0.453447 153 76 0
-0.481932 -0.685942 0.237890 76 0 153
-0.020629 -0.143939 0.500433 153 76 0
-0.431437 -0.697489 0.042250 76 0 153
-0.302377 -0.168531 0.540226 255 0 0
0.277344 0.223824 -0.307411 0 127 127
-0.243492 -0.043675 -0.183984 153 76 0
0.035957 -0.650393 -0.362228 153 0 76
-0.273262 -0.020106 -0.212829 127 127 0
-0.007747 0.816509 -0.360212 153 76 0
-0.474110 -0.608748 0.501696 204 51 127
-0.191726 0.693842 -0.414201 153 76 0
0.470010 -0.650004 -0.274129 153 76 0
0.204744 -0.092207 0.600808 153 76 0
-0.191653 0.050116 -0.222948 153 76 0
0.380978 -0.683430 -0.362228 153 0 76
0.062302 0.605041 -0.356701 153 76 0
0.493611 -0.273098 0.528418 0 0 255
-0.447156 -0.697761 -0.404011 76 0 153
-0.426745 0.118817 -0.068622 153 0 76
0.447081 0.118987 -0.116583 0 0 255
-0.017383 0.535794 -0.423732 153 76 0
-0.483577 0.005546 0.509488 76 0 153
0.063160 -0.072189 0.531491 153 76 0
-0.404180 -0.161282 0.507916 204 51 127
0.205354 0.726168 -0.347275 153 76 0
0.237892 -0.076026 0.484182 153 76 0
0.086845 0.051730 -0.157173 153 76 0
0.099125 -0.142863 0.497535 153 76 0
-0.293274 -0.166308 -0.122590 153 76 0
0.321647 -0.219146 -0.021402 153 0 76
0.096341 0.061436 -0.228571 153 76 0
-0.138952 -0.103295 0.360091 153 76 0
-0.007567 -0.164939 0.569546 153 76 0
-0.143834 -0.148255 0.425144 153 76 0
0.225479 0.831895 -0.455593 153 76 0
0.028115 -0.169589 -0.001167 153 76 0
0.424348 0.166139 -0.015305 0 0 255
0.308799 0.471455 -0.446977 153 0 76
0.219373 -0.157370 0.136284 153 76 0
0.335885 -0.191316 0.303139 153 0 76
-0.408748 0.165417 0.003828 153 0 76
-0.322662 -0.201644 0.260407 76 0 153
-0.054280 0.477405 -0.426196 153 76 0
-0.060336 0.804209 -0.354397 153 76 0
-0.090504 -0.094302 0.397013 153 76 0
-0.311722 -0.136966 -0.083377 153 76 0
0.310672 0.332469 -0.406354 153 0 76
-0.014215 -0.651001 -0.339070 153 0 76
-0.195398 -0.231798 0.079258 153 76 0
-0.456938 -0.697932 -0.090776 76 0 153
-0.331400 -0.646734 -0.312973 153 0 76
-0.342989 0.411450 -0.436530 76 0 153
0.045170 -0.148497 0.609563 153 76 0
0.348627 0.541312 -0.444915 153 0 76
-0.461290 -0.260222 0.510383 204 51 127
-0.478941 -0.691462 -0.347348 76 0 153
-0.439492 0.161553 0.192608 153 0 76
-0.438844 0.165397 0.058994 153 0 76
0.159348 -0.142212 0.451779 153 76 0
0.296160 0.740693 -0.349857 153 76 0
-0.483799 -0.663671 0.474200 204 51 127
0.025573 0.677833 -0.410568 153 76 0
0.375726 -0.190356 0.211566 153 0 76
0.064500 0.010500 -0.236602 0 255 0
0.350747 0.781047 -0.415741 153 0 76
-0.274619 -0.149802 0.482987 0 127 127
-0.229202 0.646578 -0.435660 127 0 127
-0.399252 -0.674455 0.407269 76 0 153
0.467847 -0.650964 0.324793 153 76 0
-0.264556 0.130412 -0.283191 127 127 0
-0.299303 0.305574 -0.309259 153 76 0
0.494294 -0.004723 0.508961 204 51 127
-0.129149 0.654942 -0.352022 153 76 0
-0.013885 -0.650997 -0.281458 153 0 76
0.346293 -0.677903 -0.351509 153 0 76
0.341027 0.036003 -0.235489 153 0 76
0.283592 0.677268 -0.410313 153 76 0
-0.399545 0.133958 0.153277 153 0 76
0.309374 -0.200528 -0.108903 0 127 127
-0.116230 0.096526 -0.246626 153 76 0
0.348050 -0.249543 0.060543 153 0 76
0.491510 -0.205852 0.544592 0 0 255
-0.243620 -0.140248 -0.141878 153 76 0
0.314965 0.145358 -0.219490 153 76 0
-0.459102 -0.650297 -0.220561 76 0 153
0.226695 -0.234362 0.000951 153 76 0
0.373529 -0.116262 -0.154586 153 0 76
-0.119059 0.190693 -0.295761 153 76 0
0.265242 0.523722 -0.444766 0 127 127
0.232592 0.050985 -0.156728 153 76 0
0.330903 0.292596 -0.323979 153 0 76
-0.361739 -0.108091 0.498598 76 0 153
-0.479694 -0.660010 0.507777 204 51 127
0.022988 -0.240761 0.545276 255 0 0
-0.433053 -0.167349 0.502545 204 51 127
0.185108 0.671844 -0.439962 127 0 127
-0.279322 -0.231025 0.141072 0 127 127
0.011663 0.720145 -0.347463 153 76 0
0.054876 -0.179183 0.425157 127 0 127
0.232946 0.628662 -0.354149 153 76 0
0.375553 -0.229316 -0.020053 153 0 76
0.120405 0.711724 -0.421665 153 76 0
0.093595 0.826491 -0.456247 153 76 0
-0.115311 -0.624729 -0.278225 153 0 76
-0.483600 -0.676209 0.076257 76 0 153
-0.146042 -0.113933 0.316527 153 76 0
0.433192 -0.650418 0.048324 153 76 0
-0.192521 0.168734 -0.217458 153 76 0
0.140943 -0.172932 0.044675 153 76 0
0.284353 -0.019306 -0.129679 153 76 0
0.493355 0.136210 0.348031 0 0 255
-0.402538 0.145869 0.335735 153 0 76
0.048370 -0.072140 -0.172683 153 76 0
0.306381 0.063795 -0.246814 0 127 127
-0.306790 0.626537 -0.436165 76 0 153
0.253529 -0.139709 0.463910 153 76 0
0.107183 -0.017039 -0.224688 0 255 0
0.093221 -0.214577 0.542669 255 0 0
-0.303436 0.108138 -0.223865 76 0 153
-0.246118 -0.096212 -0.090175 153 76 0
0.189323 -0.649821 -0.362228 153 0 76
0.467836 -0.064690 0.492214 204 51 127
-0.381986 -0.674918 -0.278225 153 0 76
0.492584 -0.095250 0.529178 204 51 127
-0.299857 0.611240 -0.389884 76 0 153
0.416274 0.157558 0.207495 0 0 255
0.294495 -0.080886 0.456577 153 76 0
-0.459729 -0.075005 0.493440 76 0 153
0.411675 -0.547974 0.530142 0 0 255
-0.399313 -0.687095 -0.360423 153 0 76
-0.197097 -0.220437 0.543856 255 0 0
0.320069 0.422326 -0.392695 153 0 76
-0.161352 0.105219 -0.251134 153 76 0
0.448265 -0.435426 0.517783 0 0 255
0.303256 -0.185648 0.525114 255 0 0
-0.092817 -0.175022 0.430556 127 0 127
0.215448 -0.140697 -0.058280 153 76 0
0.411942 0.113956 0.383342 0 0 255
0.306147 -0.098111 0.606202 153 76 0
-0.305371 0.036908 -0.201213 76 0 153
-0.482873 0.087496 0.477283 76 0 153
0.025830 0.377986 -0.339084 153 76 0
-0.067529 -0.137856 0.613252 153 76 0
-0.201482 -0.173111 0.322332 153 76 0
-0.202383 -0.024177 -0.127648 153 76 0
-0.199755 -0.161701 0.388552 127 0 127
0.119782 -0.028090 -0.125743 153 76 0
-0.262037 0.543710 -0.444748 127 127 0
0.091132 -0.091072 -0.092760 153 76 0
-0.256212 -0.030944 -0.124587 153 76 0
-0.466437 -0.698090 -0.451286 76 0 153
-0.279321 0.303341 -0.357743 127 127 0
0.436839 -0.649437 0.381939 153 76 0
0.448771 0.161358 0.203366 0 0 255
0.341616 0.001642 -0.171188 153 0 76
0.270050 -0.168076 -0.010111 153 76 0
0.062334 -0.163103 0.538066 153 76 0
-0.477836 -0.692740 -0.237564 76 0 153
-0.090340 0.161968 -0.280560 153 76 0
-0.247728 -0.221483 -0.045920 153 76 0
-0.032122 -0.235698 0.010519 153 76 0
0.146173 -0.228128 -0.026848 153 76 0
-0.210274 -0.012752 -0.196317 153 76 0
-0.267262 0.741467 -0.347817 153 76 0
-0.060321 -0.130213 0.247679 153 76 0
-0.402673 -0.417742 0.525371 204 51 127
0.153933 -0.167036 0.347210 153 76 0
0.410169 -0.182216 0.538033 255 0 0
0.254139 -0.214627 0.541962 255 0 0
-0.127946 -0.064050 -0.175895 153 76 0
0.467496 0.116772 0.468689 204 51 127
-0.400339 -0.384227 0.530646 204 51 127
0.040827 -0.106762 -0.158778 153 76 0
-0.465075 -0.376799 0.516374 204 51 127
-0.012057 -0.170791 0.076440 153 76 0
0.128994 -0.118349 0.299736 153 76 0
-0.302179 -0.249813 0.056493 0 127 127
0.066561 0.061843 -0.228773 153 76 0
-0.226392 -0.234989 0.004716 153 76 0
0.371793 -0.102360 0.560090 153 0 76
-0.430108 -0.012630 0.485832 76 0 153
-0.199533 -0.629970 -0.331850 153 0 76
0.129153 -0.084701 0.438212 153 76 0
0.138041 -0.629378 -0.278225 153 0 76
0.314288 -0.228221 0.021425 127 127 0
-0.197078 0.763864 -0.449644 153 76 0
-0.287602 0.588648 -0.363441 153 76 0
0.266689 -0.205336 0.188970 153 76 0
0.212339 -0.169316 0.337770 153 76 0
-0.008570 0.327466 -0.383541 153 76 0
-0.456902 -0.563292 0.566331 204 51 127
0.117448 0.224912 -0.316570 153 76 0
-0.026582 -0.021568 -0.192819 153 76 0
0.246515 0.799068 -0.456092 153 76 0
0.409893 0.131650 0.252162 0 0 255
0.269963 0.582335 -0.359423 153 76 0
0.082218 -0.185815 0.392786 127 0 127
-0.121073 0.429772 -0.355175 153 76 0
-0.287537 0.701389 -0.421998 76 0 153
-0.312074 -0.182272 0.022696 153 76 0
-0.295038 0.053248 -0.242459 127 127 0
0.494103 0.137892 0.257946 0 0 255
-0.399303 -0.482981 0.539890 204 51 127
0.456068 -0.650201 -0.207723 153 76 0
0.233617 0.474946 -0.362677 153 76 0
-0.289510 0.789093 -0.394764 153 76 0
0.055528 0.307568 -0.370579 153 76 0
0.486050 0.161985 0.088169 0 0 255
-0.226209 -0.271619 0.547434 255 0 0
0.449764 -0.342873 0.561798 0 0 255
0.007327 0.051111 -0.223426 153 76 0
0.007227 -0.161106 -0.030290 153 76 0
-0.112038 0.063391 -0.229550 153 76 0
-0.023684 0.861404 -0.422383 153 76 0
0.265308 0.585226 -0.439114 0 127 127
-0.342910 0.043389 -0.186831 76 0 153
0.014807 -0.126473 0.613949 153 76 0
0.485832 -0.355034 0.561100 0 0 255
0.443744 -0.401394 0.564156 0 0 255
-0.016334 0.240665 -0.326849 153 76 0
-0.188285 -0.139782 0.463558 153 76 0
0.310947 0.149576 -0.263249 153 76 0
0.346306 -0.138225 0.320176 153 0 76
-0.125927 0.054760 -0.158391 153 76 0
-0.269277 -0.191434 0.246116 153 76 0
-0.469778 -0.329899 0.561690 204 51 127
0.098686 -0.170493 0.078788 153 76 0
0.350388 0.824599 -0.415959 153 0 76
0.143979 -0.169182 0.390806 127 0 127
-0.290508 -0.173485 0.377383 0 127 127
-0.021114 -0.622151 -0.362228 153 0 76
0.431363 -0.206785 0.553320 0 0 255
0.299635 -0.219924 -0.081304 127 127 0
0.493061 -0.665045 -0.192155 153 76 0
0.197645 -0.214778 0.539802 255 0 0
0.196897 -0.628817 -0.282204 153 0 76
-0.112344 0.724114 -0.347267 153 76 0
0.176326 0.378128 -0.339144 153 76 0
-0.483509 -0.252591 0.529231 204 51 127
0.354618 0.665006 -0.404980 153 0 76
-0.443365 0.131483 0.447872 153 0 76
-0.102840 0.021700 -0.238260 0 255 0
-0.265177 0.840520 -0.376037 153 76 0
0.328099 0.165427 -0.302149 153 0 76
-0.377138 -0.193670 0.541984 255 0 0
0.039708 -0.163644 -0.125064 153 76 0
0.286662 -0.157788 -0.150418 0 127 127
0.180552 0.256089 -0.260915 153 76 0
-0.460844 -0.697998 0.353142 76 0 153
-0.053377 -0.170885 0.457443 127 0 127
0.067689 -0.621223 -0.339727 153 0 76
-0.304601 -0.220632 -0.029639 0 127 127
-0.286860 0.744899 -0.402293 76 0 153
-0.226413 -0.221694 0.121123 153 76 0
0.080121 -0.139086 -0.060665 153 76 0
0.156829 -0.082159 -0.097735 153 76 0
0.135202 -0.247987 0.545782 255 0 0
-0.048955 -0.153084 0.153426 153 76 0
-0.100220 -0.216403 0.143046 153 76 0
0.479558 -0.650446 -0.371981 153 76 0
-0.231257 -0.214858 0.538646 255 0 0
0.359829 -0.214964 0.204526 153 0 76
0.150824 0.448841 -0.358767 153 76 0
-0.031147 -0.225191 -0.036217 153 76 0
-0.106385 -0.151633 0.411481 153 76 0
-0.032118 0.141373 -0.201701 153 76 0
0.244292 -0.133201 0.239061 153 76 0
-0.246059 -0.636726 -0.362228 153 0 76
0.155042 -0.109857 -0.157458 153 76 0
-0.334010 0.371455 -0.426045 76 0 153
0.490456 -0.657068 -0.295642 153 76 0
-0.447462 -0.650565 -0.382689 76 0 153
-0.158328 0.749469 -0.347595 153 76 0
0.066724 0.643681 -0.412272 153 76 0
-0.082676 0.133178 -0.265631 153 76 0
0.285873 0.561755 -0.417796 0 127 127
0.440301 0.081510 0.502685 204 51 127
0.165067 0.418559 -0.419385 153 76 0
0.376229 -0.207429 0.153335 153 0 76
-0.179490 0.563157 -0.361815 153 76 0
0.343038 0.484449 -0.449055 153 0 76
0.353172 -0.178276 0.156479 153 0 76
0.215636 -0.123321 -0.151239 153 76 0
0.123444 0.662964 -0.438002 127 0 127
0.228138 -0.275881 0.517111 255 0 0
0.009775 0.425327 -0.420665 153 76 0
-0.247323 0.043112 -0.219588 153 76 0
-0.288795 0.817009 -0.418593 153 76 0
-0.275939 0.637664 -0.433936 127 127 0
-0.169663 -0.123277 0.276549 153 76 0
0.307377 0.084603 -0.176028 153 76 0
-0.189288 -0.065862 -0.106724 153 76 0
0.287188 0.336809 -0.318064 153 76 0
-0.262868 0.693900 -0.404826 127 127 0
0.120998 -0.158015 0.527689 153 76 0
0.494458 0.135441 0.287679 0 0 255
0.133925 -0.086484 0.594215 153 76 0
0.332725 0.540479 -0.398800 153 0 76
0.088370 -0.652499 -0.306777 153 0 76
0.068652 0.237158 -0.250143 153 76 0
0.088268 -0.164939 0.572312 153 76 0
-0.221242 -0.255501 0.515686 255 0 0
-0.481900 0.130668 0.032799 153 0 76
0.069780 0.375689 -0.338109 153 76 0
0.039542 -0.140044 0.483200 153 76 0
0.461433 -0.263813 0.557587 0 0 255
0.231295 0.127233 -0.193960 153 76 0
0.248134 -0.275712 0.544217 255 0 0
0.439955 -0.697441 0.161783 153 76 0
-0.064745 -0.208339 0.176529 153 76 0
-0.478079 0.119228 0.177612 153 0 76
0.081192 0.407963 -0.349092 153 76 0
-0.473101 -0.651022 0.023642 76 0 153
-0.171618 0.443564 -0.358135 153 76 0
0.461925 -0.697839 -0.215615 153 76 0
-0.300981 0.208007 -0.255243 153 76 0
-0.483675 -0.521392 0.543376 204 51 127
0.471008 -0.444009 0.566267 0 0 255
-0.160493 -0.233312 -0.005357 153 76 0
0.432115 -0.370719 0.562503 0 0 255
0.086228 0.471315 -0.362105 153 76 0
0.180725 0.196238 -0.230664 153 76 0
-0.355535 -0.174355 -0.136932 76 0 153
0.259758 0.744119 -0.425528 0 127 127
0.491660 0.152873 0.153226 0 0 255
-0.321876 -0.172076 -0.068555 76 0 153
-0.412439 -0.697127 0.420933 76 0 153
0.015577 -0.091578 -0.092478 153 76 0
0.134600 0.756392 -0.348060 153 76 0
-0.127126 0.206983 -0.235439 153 76 0
0.463778 -0.650894 0.142936 153 76 0
0.413208 -0.686987 -0.466610 153 76 0
0.002716 0.092910 -0.175540 153 76 0
0.410169 -0.662572 -0.278328 153 0 76
-0.026359 0.769288 -0.348927 153 76 0
0.365270 -0.676805 -0.278225 153 0 76
-0.267973 0.094271 -0.237235 127 127 0
0.161879 0.832999 -0.370572 153 76 0
-0.351330 -0.094023 0.564591 76 0 153
-0.280173 -0.157676 0.444475 0 127 127
0.483526 -0.651523 0.018287 153 76 0
-0.056985 -0.143978 0.443566 153 76 0
-0.298799 -0.158331 0.601165 153 76 0
0.072172 -0.158375 -0.034751 153 76 0
0.161110 -0.225016 0.107408 153 76 0
0.130230 -0.226513 0.101232 153 76 0
-0.432442 0.008833 0.530926 76 0 153
0.295148 -0.171014 0.076414 153 76 0
0.491131 -0.658314 -0.156999 153 76 0
-0.002717 -0.126566 -0.069897 153 76 0
-0.058742 -0.083081 0.447429 153 76 0
-0.151831 0.858169 -0.399851 153 76 0
0.024131 0.473530 -0.425990 153 76 0
0.416479 -0.693786 -0.075666 153 76 0
0.078127 0.794895 -0.455638 153 76 0
0.034269 -0.121987 0.284255 153 76 0
-0.205555 0.630988 -0.441360 127 0 127
0.442363 0.150291 0.380562 0 0 255
0.225920 0.044761 -0.220379 153 76 0
0.428092 -0.649888 -0.116919 153 76 0
-0.006205 -0.078461 -0.170175 153 76 0
-0.004396 0.672362 -0.445333 127 0 127
0.017423 0.414995 -0.351227 153 76 0
-0.127634 -0.093786 -0.164089 153 76 0
0.461771 -0.494723 0.566338 0 0 255
0.006115 0.212252 -0.238188 153 76 0
0.136658 -0.156521 0.139676 153 76 0
-0.172285 0.336188 -0.388747 153 76 0
-0.444199 -0.650248 0.197256 76 0 153
0.059925 0.570247 -0.420063 153 76 0
0.241135 0.447266 -0.358585 153 76 0
-0.328560 -0.134894 0.332281 76 0 153
0.008839 0.196201 -0.298859 153 76 0
-0.251978 0.493474 -0.364275 153 76 0
0.299191 0.842852 -0.410871 153 0 76
-0.348574 0.471666 -0.421083 76 0 153
0.196099 -0.628751 -0.341620 153 0 76
-0.365109 -0.204115 0.111731 76 0 153
-0.300178 0.262239 -0.281658 153 76 0
0.193057 0.094519 -0.245587 153 76 0
0.000725 -0.107940 0.339898 153 76 0
0.410569 -0.681996 -0.137606 153 76 0
0.348413 -0.105840 0.460162 153 0 76
-0.027001 -0.171968 0.016753 153 76 0
-0.442731 -0.063383 0.540052 76 0 153
-0.307448 -0.232563 0.014571 153 76 0
-0.288478 -0.213290 0.212954 0 127 127
0.291812 -0.206341 0.137913 127 127 0
-0.144801 -0.175241 0.410497 127 0 127
-0.350211 0.376469 -0.391701 76 0 153
0.095469 -0.072379 0.521363 153 76 0
-0.332309 0.267657 -0.307984 76 0 153
-0.007333 0.302962 -0.367570 153 76 0
0.095687 -0.170074 0.455087 127 0 127
-0.471482 0.160535 0.225027 153 0 76
0.440364 -0.650539 -0.388863 153 76 0
0.410014 -0.403623 0.537052 0 0 255
0.004703 -0.153935 0.401940 153 76 0
0.481605 0.119820 0.016688 0 0 255
0.465666 -0.697903 0.100881 153 76 0
0.185811 -0.252003 0.515441 255 0 0
0.293667 -0.239489 0.105499 127 127 0
0.354025 0.612021 -0.426204 153 0 76
0.359389 0.170892 -0.302877 153 0 76
0.329578 0.767091 -0.429138 153 0 76
-0.407959 -0.108032 0.542906 76 0 153
0.136585 0.638910 -0.353169 153 76 0
0.104740 -0.168531 0.341018 153 76 0
0.323486 -0.185484 0.057186 153 76 0
-0.121272 0.590705 -0.358290 153 76 0
-0.242834 0.859786 -0.404030 153 76 0
0.299531 0.806835 -0.388093 153 76 0
-0.184119 -0.168390 0.418692 127 0 127
-0.445355 0.164513 0.111698 153 0 76
-0.292582 0.260699 -0.338704 127 127 0
0.281185 -0.093129 0.401907 153 76 0
0.493645 -0.404737 0.547035 0 0 255
-0.078450 0.626269 -0.354383 153 76 0
0.342170 -0.235972 0.117999 153 0 76
0.242385 0.790551 -0.351067 153 76 0
-0.207576 0.016661 -0.207934 153 76 0
0.485036 0.035653 0.522752 204 51 127
0.021753 0.029100 -0.259073 0 255 0
0.299784 -0.274008 0.516980 255 0 0
0.183058 -0.156906 0.423854 127 0 127
0.179488 0.569674 -0.420127 153 76 0
0.339786 0.048321 -0.189533 153 0 76
0.159070 -0.175228 0.313733 153 76 0
0.084189 0.615867 -0.415007 153 76 0
0.153053 0.313841 -0.374678 153 76 0
-0.289911 -0.216005 -0.088627 0 127 127
-0.217321 -0.190979 -0.097351 153 76 0
0.093513 0.706286 -0.348154 153 76 0
0.430842 0.116161 0.109024 0 0 255
0.289879 -0.124892 -0.171268 0 127 127
0.485964 -0.652676 -0.082105 153 76 0
0.270476 0.699587 -0.348860 153 76 0
-0.080965 0.042745 -0.259745 0 255 0
0.494091 -0.146253 0.528752 0 0 255
0.415445 -0.454285 0.561389 0 0 255
0.299112 0.763297 -0.436369 153 76 0
0.156835 -0.216704 0.141801 153 76 0
-0.229094 -0.072809 0.520082 153 76 0
0.437522 -0.650492 -0.293723 153 76 0
0.228631 0.354639 -0.328572 153 76 0
0.302395 0.575948 -0.438389 153 0 76
0.170346 -0.162039 -0.027671 153 76 0
-0.400259 -0.683117 -0.003006 76 0 153
0.456326 0.163588 0.117237 0 0 255
0.254595 -0.036292 -0.121848 153 76 0
-0.252018 -0.076326 0.483648 153 76 0
-0.422685 -0.616304 0.493493 204 51 127
-0.217832 -0.159948 0.432481 127 0 127
0.070383 0.247271 -0.331173 153 76 0
0.440109 0.166708 -0.038490 0 0 255
0.005041 -0.153347 0.152323 153 76 0
0.251902 0.161725 -0.280433 153 76 0
0.341993 -0.128038 -0.113060 153 0 76
0.331182 0.729470 -0.381060 153 0 76
0.408172 -0.277343 0.520894 255 0 0
0.327700 -0.125916 0.372579 153 0 76
0.068116 -0.215011 0.148807 153 76 0
0.282995 -0.172951 0.289286 127 127 0
-0.476323 -0.694952 0.146416 76 0 153
-0.270252 -0.216401 0.516583 255 0 0
0.304153 -0.131800 0.245594 153 76 0
-0.470410 -0.641515 0.461279 76 0 153
-0.164254 -0.108207 0.612101 153 76 0
-0.270539 -0.107245 -0.153176 127 127 0
-0.399313 -0.212893 0.534716 255 0 0
0.369916 0.047320 -0.215600 153 0 76
-0.304090 -0.271190 0.547404 255 0 0
-0.321953 0.007641 -0.224088 76 0 153
0.410714 -0.489495 0.533598 0 0 255
-0.249649 0.744241 -0.425687 127 127 0
-0.399403 -0.324994 0.531740 204 51 127
0.442139 0.157438 0.275663 0 0 255
-0.446277 -0.523289 0.519047 204 51 127
-0.247930 -0.145573 0.424940 127 0 127
-0.411923 -0.649880 -0.228653 76 0 153
-0.169782 -0.184340 0.275612 153 76 0
-0.269250 0.449952 -0.419648 127 127 0
-0.253919 0.518964 -0.434738 127 127 0
0.055781 0.723763 -0.347282 153 76 0
0.491791 -0.659644 -0.395304 153 76 0
0.328464 0.315703 -0.339436 153 0 76
-0.456139 0.119286 0.021050 153 0 76
0.163584 -0.188023 0.260256 153 76 0
0.270860 0.398242 -0.434104 0 127 127
-0.338126 -0.141627 0.568315 76 0 153
-0.102772 -0.235725 0.010844 153 76 0
-0.481726 -0.103732 0.533271 76 0 153
0.415756 -0.693350 -0.256401 153 76 0
0.320960 -0.082311 -0.162668 153 76 0
0.297733 -0.023761 -0.184439 0 127 127
-0.458539 -0.697959 0.032655 76 0 153
0.468687 -0.697954 0.424549 153 76 0
-0.105390 -0.653697 -0.297369 153 0 76
-0.111772 0.578967 -0.419082 153 76 0
0.212277 0.274846 -0.272379 153 76 0
0.449307 -0.284541 0.511661 0 0 255
-0.178217 -0.150156 0.165555 153 76 0
0.412607 0.028779 0.517815 204 51 127
0.252477 0.852518 -0.388443 153 76 0
0.025748 -0.163659 0.109565 153 76 0
-0.400420 -0.506896 0.553993 204 51 127
-0.255041 0.237195 -0.324581 153 76 0
0.189774 0.041420 -0.251675 0 255 0
-0.141189 -0.655805 -0.303713 153 0 76
0.312181 -0.178776 0.252866 127 127 0
-0.428812 0.117491 0.069870 153 0 76
0.329443 0.110168 -0.220478 153 0 76
-0.426723 -0.697407 -0.092570 76 0 153
0.073137 -0.160082 0.125126 153 76 0
-0.244742 0.395567 -0.345282 153 76 0
0.197063 0.342989 -0.392725 153 76 0
-0.030800 0.833034 -0.370587 153 76 0
0.357612 0.119511 -0.278081 153 0 76
-0.347723 -0.009110 -0.217607 76 0 153
0.278283 0.040510 -0.235770 0 127 127
0.117094 -0.252354 0.515466 255 0 0
-0.090370 -0.157512 0.387068 153 76 0
0.387919 -0.654441 -0.315769 153 0 76
0.494500 -0.675946 0.373354 153 76 0
0.123985 -0.145750 0.435756 153 76 0
-0.008161 -0.134249 0.230890 153 76 0
0.390752 -0.201735 0.511926 255 0 0
-0.479689 0.117566 0.261156 153 0 76
-0.296550 0.492692 -0.448459 76 0 153
0.298974 0.472465 -0.366498 153 76 0
-0.027147 0.671378 -0.409940 153 76 0
0.266002 0.631441 -0.410686 0 127 127
0.469518 0.166488 -0.103753 0 0 255
0.322673 -0.109260 0.548951 153 76 0
-0.342187 -0.201890 0.053482 76 0 153
0.365714 -0.247858 0.515152 255 0 0
0.005881 0.631411 -0.413417 153 76 0
0.416948 0.066718 0.457816 204 51 127
0.133658 0.141069 -0.269723 153 76 0
-0.399455 -0.669573 0.116456 76 0 153
0.368216 -0.248964 0.037442 153 0 76
0.074321 -0.081513 0.453467 153 76 0
0.351223 -0.163349 0.418700 153 0 76
0.306583 -0.091187 -0.093263 153 76 0
0.258712 -0.217257 0.139514 153 76 0
-0.276598 0.073497 -0.254310 127 127 0
0.388278 -0.685052 -0.305501 153 0 76
0.205458 0.626658 -0.354345 153 76 0
-0.285882 -0.640034 -0.354066 153 0 76
-0.062096 0.018876 -0.253144 0 255 0
-0.061578 0.232932 -0.247852 153 76 0
-0.134822 0.027994 -0.212732 153 76 0
-0.197039 -0.106158 0.349677 153 76 0
-0.476118 -0.695343 0.212701 76 0 153
-0.003323 -0.168738 0.340164 153 76 0
-0.284084 0.190923 -0.314875 127 127 0
0.127637 0.155678 -0.210237 153 76 0
0.291433 -0.060502 -0.196746 0 127 127
-0.156353 -0.172345 0.021938 153 76 0
0.280792 -0.103927 -0.154967 0 127 127
0.142586 -0.182901 -0.106786 153 76 0
-0.150061 0.260078 -0.262991 153 76 0
-0.482385 0.153602 -0.082405 153 0 76
-0.429664 -0.697458 0.307199 76 0 153
-0.148396 -0.048322 -0.115699 153 76 0
0.255552 0.232604 -0.321583 153 76 0
-0.164102 -0.195126 -0.092183 153 76 0
0.260348 -0.635301 -0.332737 153 0 76
0.346438 -0.128161 0.599843 153 0 76
-0.365723 -0.671061 -0.362228 153 0 76
0.303401 -0.220350 0.513228 255 0 0
0.221404 -0.088189 0.422340 153 76 0
-0.468930 0.119603 -0.023281 153 0 76
-0.481423 -0.660104 -0.378561 76 0 153
0.454223 0.063875 0.455608 204 51 127
0.029753 -0.072223 0.529660 153 76 0
0.492552 -0.661971 0.299927 153 76 0
-0.033432 0.420207 -0.419697 153 76 0
0.085446 -0.183761 0.278064 153 76 0
0.050466 0.453708 -0.359660 153 76 0
0.240301 0.194681 -0.297963 153 76 0
-0.195180 -0.111483 -0.156764 153 76 0
-0.265624 0.560789 -0.417599 127 127 0
-0.481262 -0.447062 0.556134 204 51 127
-0.172242 0.860333 -0.429394 153 76 0
-0.171573 0.490119 -0.426380 153 76 0
-0.066818 -0.112034 0.322936 153 76 0
-0.167286 -0.169957 0.081139 153 76 0
-0.363533 -0.146645 0.346537 76 0 153
0.373784 -0.126505 0.505545 153 0 76
0.148139 0.809150 -0.356396 153 76 0
-0.065597 0.282246 -0.276779 153 76 0
-0.288526 -0.135768 -0.063723 153 76 0
0.087268 0.474474 -0.426040 153 76 0
0.240624 -0.201659 0.204208 153 76 0
-0.104714 -0.276241 0.536652 255 0 0
-0.461543 0.050007 0.520585 76 0 153
0.494432 -0.677139 0.205850 153 76 0
0.428667 -0.697162 0.382017 153 76 0
0.136101 0.515557 -0.425466 153 76 0
-0.149403 0.671255 -0.433845 127 0 127
0.065825 -0.152081 0.157580 153 76 0
0.081585 -0.273234 0.547547 255 0 0
0.192308 -0.076004 0.484318 153 76 0
-0.128476 0.693327 -0.414084 153 76 0
0.029918 -0.188211 -0.100608 153 76 0
-0.482877 0.122905 0.317412 153 0 76
-0.086551 -0.189346 0.254780 153 76 0
0.414386 0.100677 0.417868 0 0 255
-0.310730 -0.103387 0.396101 153 76 0
-0.454672 -0.422102 0.517926 204 51 127
-0.199110 -0.630142 -0.278225 153 0 76
-0.419990 0.162431 0.161509 153 0 76
-0.116137 0.855757 -0.440487 153 76 0
-0.069398 0.501724 -0.426253 153 76 0
0.269896 -0.098934 0.377822 153 76 0
0.210323 0.699109 -0.415396 153 76 0
0.062818 0.069899 -0.164814 153 76 0
0.145497 0.378138 -0.408213 153 76 0
-0.233224 -0.131678 0.241593 153 76 0
-0.117213 0.634540 -0.440242 127 0 127
-0.042558 0.669282 -0.350774 153 76 0
-0.195807 0.278465 -0.351586 153 76 0
0.352876 -0.047806 -0.150599 153 0 76
0.346173 0.451568 -0.445417 153 0 76
-0.324142 0.844604 -0.398881 76 0 153
-0.330950 -0.199800 0.511791 255 0 0
0.350098 -0.234554 -0.053133 153 0 76
0.091267 -0.104228 0.355513 153 76 0
-0.471333 0.166892 -0.029617 153 0 76
-0.269863 0.286910 -0.377202 127 127 0
-0.093975 -0.079306 0.465065 153 76 0
-0.341223 0.766758 -0.402346 76 0 153
-0.118612 -0.168759 -0.005459 153 76 0
0.434569 0.118784 -0.154475 0 0 255
-0.067121 -0.191282 -0.096995 153 76 0
-0.026369 -0.016323 -0.226190 0 255 0
0.418027 -0.001323 0.530520 204 51 127
-0.301253 -0.190625 -0.082842 127 127 0
-0.178233 0.671394 -0.435284 127 0 127
-0.215141 0.182057 -0.224257 153 76 0
0.073858 -0.006628 -0.134983 153 76 0
-0.400324 -0.664161 0.224483 76 0 153
0.459159 -0.692807 0.459046 153 76 0
0.416700 0.121787 0.059550 0 0 255
0.252228 0.007838 -0.204429 153 76 0
0.220423 -0.141290 0.493659 153 76 0
0.269762 0.330537 -0.379198 0 127 127
0.481446 -0.550954 0.566191 0 0 255
-0.207879 0.722478 -0.428028 153 76 0
0.168371 -0.117417 0.302982 153 76 0
0.033137 -0.211779 -0.066605 153 76 0
-0.257619 0.408747 -0.436313 127 127 0
0.071490 -0.189173 0.255495 153 76 0
0.289909 0.104843 -0.243328 0 127 127
0.299319 -0.164613 0.541684 153 76 0
0.057308 -0.130785 0.245348 153 76 0
-0.164814 0.755012 -0.447559 153 76 0
-0.200397 0.216142 -0.310922 153 76 0
0.442652 -0.442900 0.564869 0 0 255
0.361750 -0.154630 0.454226 153 0 76
-0.399744 -0.667078 -0.382887 76 0 153
0.165519 0.861181 -0.419508 153 76 0
0.112384 0.428824 -0.354702 153 76 0
0.150681 -0.655723 -0.361424 153 0 76
0.066052 -0.048916 -0.115717 153 76 0
-0.310504 -0.213360 -0.063307 76 0 153
0.421352 -0.649899 -0.008242 153 76 0
-0.133441 0.652654 -0.411465 153 76 0
-0.033359 0.226176 -0.244658 153 76 0
-0.134933 -0.142014 0.452741 153 76 0
0.113314 -0.143131 -0.140090 153 76 0
-0.287171 -0.211855 0.112831 0 127 127
0.436831 -0.580680 0.562868 0 0 255
-0.278745 -0.049408 -0.174328 127 127 0
-0.400768 0.119994 0.313267 153 0 76
-0.383928 -0.686211 -0.305967 153 0 76
-0.134117 -0.624841 -0.332840 153 0 76
0.033983 -0.202760 0.199642 153 76 0
0.181906 -0.190754 -0.097617 153 76 0
-0.483596 -0.199072 0.530972 204 51 127
0.299260 0.793420 -0.442377 153 76 0
-0.155419 0.309957 -0.296845 153 76 0
-0.303272 -0.163266 0.350315 0 127 127
-0.365549 -0.233815 0.031136 76 0 153
-0.205266 -0.092911 0.601878 153 76 0
0.311156 0.527083 -0.446915 153 0 76
-0.103300 -0.141188 0.456745 153 76 0
0.486991 -0.656269 -0.473137 153 76 0
-0.308995 -0.121984 0.448234 76 0 153
-0.310751 0.748726 -0.427390 76 0 153
-0.402940 0.093513 0.432272 153 0 76
0.252442 0.098406 -0.178225 153 76 0
-0.163275 -0.648417 -0.362228 153 0 76
-0.422720 -0.697338 0.140891 76 0 153
-0.301023 -0.142917 0.508360 0 127 127
-0.019889 0.560527 -0.361501 153 76 0
0.271906 0.663817 -0.431779 0 127 127
-0.308320 -0.125145 0.571707 76 0 153
-0.079671 -0.157953 0.132727 153 76 0
0.181113 -0.164717 0.542192 153 76 0
-0.071481 0.404475 -0.416080 153 76 0
0.289069 -0.209118 -0.049252 127 127 0
0.107791 -0.206882 0.182566 153 76 0
0.412671 -0.658758 0.190544 153 76 0
0.106728 0.182248 -0.291096 153 76 0
0.291176 -0.175281 0.371609 127 127 0
-0.310539 -0.171805 -0.006765 153 76 0
-0.395709 -0.657764 -0.329803 153 0 76
0.451777 -0.015910 0.486437 204 51 127
0.413243 0.127117 -0.028598 0 0 255
0.115935 -0.004979 -0.199372 153 76 0
-0.152982 0.160215 -0.212615 153 76 0
0.373078 -0.192741 -0.043391 153 0 76
-0.012226 0.432237 -0.355816 153 76 0
0.439892 0.165289 0.042793 0 0 255
0.369753 0.004599 -0.187353 153 0 76
0.470079 -0.629677 0.480810 153 76 0
-0.219710 0.364029 -0.403004 153 76 0
-0.286473 0.696480 -0.350615 153 76 0
0.081794 0.634321 -0.353595 153 76 0
-0.284348 -0.154956 -0.152243 127 127 0
-0.193059 0.389645 -0.343342 153 76 0
-0.016484 -0.032476 -0.123923 153 76 0
-0.290206 -0.246826 -0.009927 0 127 127
0.065115 0.195356 -0.230424 153 76 0
-0.430950 0.113690 0.198583 153 0 76
0.208285 -0.179800 0.294780 153 76 0
0.319598 -0.134320 0.420950 153 0 76
0.418704 0.104617 0.481561 204 51 127
0.414319 -0.656241 -0.241339 153 76 0
-0.292400 -0.193260 0.538040 255 0 0
0.301829 -0.243116 0.545441 255 0 0
-0.483642 -0.033403 0.512694 76 0 153
-0.011963 -0.058012 -0.110999 153 76 0
-0.267831 -0.162182 0.115169 153 76 0
-0.219077 -0.202627 0.200197 153 76 0
0.131556 -0.171252 0.007418 153 76 0
0.491768 0.155990 -0.037540 0 0 255
0.004680 0.011053 -0.141908 153 76 0
0.285424 0.302546 -0.291380 153 76 0
-0.074620 0.788833 -0.454594 153 76 0
-0.105516 0.282646 -0.354318 153 76 0
0.311575 -0.238108 -0.041784 127 127 0
0.418285 -0.694872 -0.374963 153 76 0
-0.000441 0.319897 -0.304720 153 76 0
-0.067244 0.453402 -0.424614 153 76 0
0.423859 -0.653692 -0.475866 153 76 0
-0.355217 -0.164397 0.211384 76 0 153
-0.331084 -0.677232 -0.327366 153 0 76
-0.310801 -0.100392 0.595651 76 0 153
-0.409823 0.117691 0.089779 153 0 76
0.350497 0.653822 -0.428809 153 0 76
0.007363 -0.232722 0.074630 153 76 0
-0.012443 -0.215966 0.522807 255 0 0
-0.000932 0.151918 -0.208063 153 76 0
0.060502 0.545944 -0.363061 153 76 0
0.129680 0.487856 -0.363768 153 76 0
-0.365553 -0.213824 0.078655 76 0 153
-0.185288 0.258106 -0.261810 153 76 0
-0.483416 -0.668997 0.006940 76 0 153
0.304550 0.525407 -0.376154 153 76 0
0.368803 0.088578 -0.229403 153 0 76
-0.481865 -0.615800 0.538550 204 51 127
-0.478680 0.020843 0.485481 76 0 153
-0.321344 -0.264741 0.516332 255 0 0
0.421414 0.165276 -0.060364 0 0 255
0.283464 0.132378 -0.196751 153 76 0
0.173405 0.851796 -0.445503 153 76 0
0.363793 -0.157058 -0.150363 153 0 76
0.300267 -0.199478 0.270042 127 127 0
-0.409424 0.165723 -0.042713 153 0 76
0.323776 -0.157535 0.204089 153 76 0
-0.096824 0.609242 -0.415716 153 76 0
-0.355894 -0.104633 0.465389 76 0 153
0.098587 0.307493 -0.370530 153 76 0
0.150271 0.219134 -0.312849 153 76 0
-0.311655 -0.207905 0.029584 76 0 153
-0.286471 -0.240054 0.545227 255 0 0
0.485008 0.121699 -0.164368 0 0 255
-0.454205 0.105443 0.350186 153 0 76
0.100100 -0.646942 -0.362228 153 0 76
-0.027027 -0.275747 0.543720 255 0 0
-0.427222 0.143692 -0.176704 153 0 76
-0.198504 -0.233996 -0.001249 153 76 0
-0.413784 -0.697178 -0.316937 76 0 153
-0.290025 0.352565 -0.393734 127 127 0
-0.333238 -0.186930 0.116473 76 0 153
0.320759 -0.170714 0.374904 153 0 76
-0.248908 -0.255397 0.546300 255 0 0
0.166925 -0.008409 -0.134118 153 76 0
0.259511 0.254521 -0.335913 153 76 0
-0.258265 0.397170 -0.410116 127 127 0
0.293449 0.504890 -0.447031 0 127 127
-0.400737 -0.620711 0.535689 204 51 127
-0.272256 0.150116 -0.207086 153 76 0
-0.356882 0.092211 -0.249304 76 0 153
-0.465327 -0.698072 0.291724 76 0 153
0.298744 0.411537 -0.437306 0 127 127
-0.059818 -0.220249 0.513221 255 0 0
0.214611 -0.236219 0.048598 153 76 0
-0.469004 -0.698124 0.078671 76 0 153
-0.241568 0.683105 -0.350199 153 76 0
-0.068233 -0.277534 0.518154 255 0 0
-0.213995 0.460796 -0.425314 153 76 0
-0.435077 -0.470075 0.565877 204 51 127
-0.483502 -0.670090 0.301872 76 0 153
0.215170 0.090636 -0.174431 153 76 0
0.073411 0.516020 -0.425429 153 76 0
0.468923 0.150771 0.381172 0 0 255
0.339741 -0.250170 0.019484 153 0 76
-0.410336 -0.650225 -0.050254 76 0 153
-0.101538 0.795716 -0.455625 153 76 0
-0.114542 0.502240 -0.364836 153 76 0
0.493021 -0.181383 0.518059 0 0 255
-0.449390 -0.617261 0.493279 204 51 127
0.351090 -0.115194 0.417204 153 0 76
-0.466795 -0.573608 0.516554 204 51 127
0.212787 0.579161 -0.359842 153 76 0
-0.294045 0.330298 -0.318902 153 76 0
0.337923 0.618071 -0.390206 153 0 76
0.040476 -0.178490 0.300210 153 76 0
