ply
format ascii 1.0
element vertex 621
property float x
property float y
property float z
property float nx
property float ny
property float nz
property uchar red
property uchar green
property uchar blue
property float opacity
end_header
0.306874 0.147276 -0.208451 0.000000 -0.662825 -0.748774 255 255 255 1.000000
-0.247593 0.285416 -0.281821 0.000000 -0.564186 -0.825648 255 255 255 1.000000
-0.195279 -0.176598 0.295678 0.000000 0.984880 -0.173237 255 255 255 1.000000
0.052479 -0.223357 -0.036347 0.000000 -0.940736 -0.339139 102 45 29 1.000000
0.295732 -0.110751 0.340658 0.000000 -0.943080 0.332566 255 255 255 1.000000
-0.129734 0.609737 -0.358897 0.000000 -0.182217 0.983258 102 45 29 1.000000
0.048180 -0.139217 -0.064329 0.000000 0.533019 0.846103 102 45 29 1.000000
-0.122362 0.638876 -0.439271 0.099580 -0.095370 0.990449 168 96 61 1.000000
0.171595 -0.172132 0.418575 -0.111646 0.966291 -0.231986 255 255 255 1.000000
0.081096 -0.162026 0.589101 0.000000 1.000000 0.000000 255 255 255 1.000000
0.191564 -0.658923 -0.292289 -0.086012 -0.996294 -0.000000 168 96 61 1.000000
-0.400293 -0.606228 0.535445 0.998228 -0.030226 0.051264 168 96 61 1.000000
0.332448 0.792607 -0.430592 -0.013655 -0.153976 -0.987980 168 96 61 1.000000
-0.235666 -0.082593 0.462530 0.000000 0.985114 -0.171905 102 45 29 1.000000
-0.340399 -0.648121 -0.294171 0.159800 -0.987149 -0.000000 255 255 255 1.000000
0.014624 -0.621241 -0.362228 0.000000 0.000000 -1.000000 168 96 61 1.000000
0.339173 -0.203186 0.014631 -0.007321 0.994964 0.099964 168 96 61 1.000000
-0.186209 0.195774 -0.233501 0.000000 -0.230559 -0.973058 255 255 255 1.000000
-0.194093 -0.234418 0.024716 0.000000 -0.999278 -0.038004 102 45 29 1.000000
-0.346861 0.421384 -0.401163 -0.943608 0.100104 0.315569 168 96 61 1.000000
-0.430517 -0.650580 0.303545 0.017491 -0.994666 0.101652 255 255 255 1.000000
0.306795 -0.066463 -0.109917 0.000000 -0.495341 -0.868699 255 255 255 1.000000
-0.410632 -0.111841 0.497767 0.017452 0.099221 0.994912 255 255 255 1.000000
0.063897 -0.130394 0.259270 0.000000 0.901933 -0.431877 102 45 29 1.000000
0.114445 0.490312 -0.424319 0.000000 -0.001981 -0.999998 102 45 29 1.000000
0.412282 -0.662318 -0.283565 -0.987951 0.154699 -0.004572 168 96 61 1.000000
-0.183225 -0.215118 0.534935 0.000000 0.997564 -0.069757 168 96 61 1.000000
0.303980 0.530878 -0.425200 -0.999504 -0.026223 0.017417 168 96 61 1.000000
0.216635 0.378627 -0.405377 0.000000 0.346472 0.938060 255 255 255 1.000000
-0.044245 -0.651354 -0.332481 0.022952 -0.999737 -0.000000 168 96 61 1.000000
0.094019 -0.622152 -0.328148 -0.040937 -0.999162 -0.000000 255 255 255 1.000000
0.274323 0.033094 -0.224433 0.015099 -0.390687 -0.920400 255 255 255 1.000000
0.357587 -0.104995 0.464592 0.007106 -0.983544 0.180532 255 255 255 1.000000
-0.100923 0.736705 -0.407143 0.000000 -0.997407 0.071970 102 45 29 1.000000
-0.172494 0.861519 -0.419063 0.000000 0.999511 -0.031265 102 45 29 1.000000
-0.476780 0.128702 0.441939 -0.743152 0.587035 0.321117 168 96 61 1.000000
-0.265940 -0.213125 0.144330 0.000000 0.990873 -0.134799 255 255 255 1.000000
0.126052 -0.149555 0.179877 0.000000 -0.852414 0.522867 255 255 255 1.000000
0.119331 0.552420 -0.365345 0.000000 0.378624 -0.925550 255 255 255 1.000000
-0.361191 -0.132260 0.523965 -0.957799 -0.286295 0.025613 168 96 61 1.000000
-0.218270 0.266508 -0.340306 0.000000 -0.474416 -0.880301 102 45 29 1.000000
-0.353497 0.030632 -0.184757 0.895602 -0.205912 -0.394332 255 255 255 1.000000
-0.478192 -0.299093 0.553496 0.740535 -0.037927 -0.670946 255 255 255 1.000000
-0.089937 -0.093987 -0.160963 0.000000 0.463088 0.886312 255 255 255 1.000000
0.150016 0.236623 -0.320784 0.000000 0.488181 0.872742 255 255 255 1.000000
0.477760 -0.651211 0.294593 -0.017491 -0.994788 0.100458 255 255 255 1.000000
0.193116 0.028091 -0.245593 -0.128756 0.387479 0.912843 255 255 255 1.000000
0.491756 0.090470 0.481382 0.984822 0.117868 0.127406 168 96 61 1.000000
-0.082762 0.601721 -0.359799 0.000000 -0.210264 0.977645 102 45 29 1.000000
-0.325343 -0.150593 0.271981 0.007140 0.985731 -0.168174 168 96 61 1.000000
0.044291 0.627394 -0.458439 -0.029999 -0.095802 0.994948 255 255 255 1.000000
0.208829 0.499104 -0.368122 0.000000 0.231477 0.972840 102 45 29 1.000000
0.466251 0.111476 0.267146 -0.017481 0.995686 0.091124 255 255 255 1.000000
0.213518 -0.174136 0.005515 0.000000 -0.984884 -0.173215 255 255 255 1.000000
0.072919 -0.162026 0.569736 0.000000 -1.000000 -0.000000 102 45 29 1.000000
-0.388601 -0.253662 0.515557 0.000000 -0.069757 -0.997564 168 96 61 1.000000
-0.476989 -0.515254 0.561247 -0.752927 -0.002177 0.658100 168 96 61 1.000000
0.326025 -0.175532 0.364258 -0.007061 0.981867 -0.189442 255 255 255 1.000000
-0.409424 -0.696037 -0.196751 -0.017451 0.999235 -0.034984 255 255 255 1.000000
-0.417127 -0.254729 0.510240 -0.017453 -0.067930 -0.997537 168 96 61 1.000000
-0.459620 -0.696910 0.388719 0.017496 -0.993530 0.112214 168 96 61 1.000000
-0.434972 -0.517099 0.519839 -0.017444 0.017921 -0.999687 168 96 61 1.000000
0.219813 -0.119916 -0.150670 0.000000 -0.472190 -0.881497 102 45 29 1.000000
-0.410523 -0.650232 0.330549 0.017491 -0.994294 0.105226 255 255 255 1.000000
0.494034 -0.452686 0.541980 -0.999975 -0.000513 -0.007049 255 255 255 1.000000
-0.302025 -0.642209 -0.359501 -0.142064 0.989857 0.000000 168 96 61 1.000000
-0.002433 -0.650862 -0.283812 -0.003632 0.999993 0.000000 255 255 255 1.000000
0.285819 -0.234753 0.051515 0.000000 -0.995301 0.096827 102 45 29 1.000000
0.154428 0.280910 -0.349714 0.000000 -0.467739 -0.883867 102 45 29 1.000000
0.419479 -0.364775 0.517687 0.740551 0.027412 0.671441 255 255 255 1.000000
0.361687 0.317549 -0.377496 0.977082 -0.078795 -0.197744 168 96 61 1.000000
-0.062290 0.197127 -0.295567 0.000000 -0.501879 -0.864938 102 45 29 1.000000
-0.294163 -0.219807 -0.018292 0.041710 0.966664 0.252630 168 96 61 1.000000
-0.049777 -0.146020 0.194522 0.000000 0.862154 -0.506646 102 45 29 1.000000
-0.402716 -0.297334 0.551087 0.825544 0.032112 0.563424 168 96 61 1.000000
0.437805 -0.107505 0.497566 -0.017452 0.099753 0.994859 255 255 255 1.000000
0.421161 -0.021233 0.487568 -0.017450 0.110403 0.993734 255 255 255 1.000000
0.284097 -0.215665 0.199450 0.999111 0.042080 -0.002661 255 255 255 1.000000
-0.231421 -0.208821 0.162166 0.000000 0.990245 -0.139339 255 255 255 1.000000
0.186891 0.137904 -0.202983 0.000000 -0.616309 -0.787504 255 255 255 1.000000
-0.419286 0.006913 0.483879 -0.017481 -0.209482 -0.977656 168 96 61 1.000000
0.184363 -0.627783 -0.331699 0.082685 0.996576 0.000000 168 96 61 1.000000
-0.024698 -0.098115 -0.159325 0.000000 -0.464541 -0.885552 102 45 29 1.000000
0.454843 -0.696640 0.234642 -0.017495 -0.995609 0.091963 168 96 61 1.000000
-0.417462 -0.696178 -0.092166 -0.017467 0.998655 -0.048817 255 255 255 1.000000
-0.202142 0.309216 -0.299858 0.000000 0.673293 0.739376 102 45 29 1.000000
0.282203 0.224313 -0.312742 0.000000 -0.493814 -0.869568 102 45 29 1.000000
0.410169 -0.169104 0.527903 1.000000 0.000000 0.000000 168 96 61 1.000000
0.106252 -0.234167 0.057147 0.000000 0.993641 -0.112591 255 255 255 1.000000
0.469782 -0.673543 -0.476777 0.000000 -0.000000 1.000000 255 255 255 1.000000
-0.429954 -0.650568 -0.397200 -0.017406 0.999812 -0.008541 168 96 61 1.000000
0.192189 0.834931 -0.375298 0.000000 -0.632021 -0.774952 255 255 255 1.000000
-0.429629 0.119922 -0.027044 0.017453 0.999788 0.010880 255 255 255 1.000000
-0.063769 -0.162026 0.564325 0.000000 1.000000 0.000000 255 255 255 1.000000
-0.266252 0.310710 -0.369181 0.000000 -0.453840 -0.891083 102 45 29 1.000000
-0.339772 -0.016949 -0.213312 0.006584 -0.435475 -0.900177 168 96 61 1.000000
-0.347106 0.368341 -0.381039 -0.927745 0.180674 0.326566 168 96 61 1.000000
0.083584 -0.247260 0.515110 0.000000 -0.069757 -0.997564 168 96 61 1.000000
-0.421662 -0.577355 0.515744 0.017558 -0.266646 0.963635 255 255 255 1.000000
0.133164 0.680342 -0.352804 0.000000 0.045678 -0.998956 255 255 255 1.000000
-0.318286 -0.230245 0.137440 0.007250 0.991191 -0.132243 255 255 255 1.000000
0.446926 0.120062 -0.151917 -0.017451 0.999847 0.000951 255 255 255 1.000000
-0.342332 0.445614 -0.397721 0.885844 -0.097968 -0.453523 255 255 255 1.000000
0.260183 0.729941 -0.408147 -0.999580 -0.023316 -0.017234 168 96 61 1.000000
0.136435 -0.162026 0.551312 0.000000 -1.000000 -0.000000 102 45 29 1.000000
-0.350005 -0.680165 -0.342265 0.164048 -0.986452 -0.000000 168 96 61 1.000000
0.090199 -0.155337 0.383769 0.000000 0.980707 -0.195485 255 255 255 1.000000
-0.468506 0.163508 0.123183 -0.017436 -0.999385 -0.030408 255 255 255 1.000000
-0.403541 -0.657588 -0.288560 0.741285 0.671014 -0.015380 168 96 61 1.000000
-0.143728 -0.254198 0.515595 0.000000 -0.069757 -0.997564 168 96 61 1.000000
-0.409008 0.115890 0.193337 -0.755332 0.654721 0.028541 255 255 255 1.000000
-0.287961 -0.162026 0.568078 0.000000 -1.000000 -0.000000 102 45 29 1.000000
0.423100 -0.696089 0.288831 -0.017496 -0.994923 0.099103 168 96 61 1.000000
0.192991 -0.123768 -0.075579 0.000000 -0.540335 -0.841450 255 255 255 1.000000
-0.262572 0.207609 -0.317057 0.999318 -0.033699 -0.015129 168 96 61 1.000000
0.419756 0.104477 0.371154 0.017364 -0.998149 -0.058285 168 96 61 1.000000
-0.399313 -0.668022 -0.347657 1.000000 0.000000 0.000000 255 255 255 1.000000
0.488074 -0.129551 0.504545 0.825544 -0.055874 -0.561565 168 96 61 1.000000
0.311839 -0.074159 0.534561 0.000000 -0.999960 -0.008951 255 255 255 1.000000
0.449816 0.164987 0.056317 0.017448 -0.999651 -0.019852 255 255 255 1.000000
-0.308985 -0.106725 0.555184 -0.999689 0.024956 0.000000 102 45 29 1.000000
-0.466415 -0.651205 -0.392167 0.017407 -0.999806 0.009210 255 255 255 1.000000
-0.140015 0.310604 -0.300966 0.000000 0.680353 0.732885 102 45 29 1.000000
0.195262 0.092204 -0.178316 0.000000 0.440275 0.897863 102 45 29 1.000000
-0.264405 -0.003500 -0.196886 0.000000 -0.430931 -0.902385 102 45 29 1.000000
0.349940 -0.239373 -0.033845 0.006301 -0.955776 -0.294029 168 96 61 1.000000
-0.143875 -0.139614 -0.139378 0.000000 -0.533372 -0.845881 102 45 29 1.000000
-0.310460 -0.160889 0.322043 0.999964 -0.007846 -0.003363 168 96 61 1.000000
-0.023545 -0.255665 0.515698 0.000000 0.069757 0.997564 255 255 255 1.000000
-0.405552 -0.357737 0.520752 -0.740553 0.028551 0.671391 255 255 255 1.000000
0.212736 0.511192 -0.423273 0.000000 0.057907 -0.998322 102 45 29 1.000000
0.325830 0.267841 -0.308705 -0.005403 -0.482891 -0.875664 255 255 255 1.000000
-0.226290 -0.159346 0.367158 0.000000 0.981532 -0.191299 255 255 255 1.000000
0.316095 -0.190461 0.511138 0.000000 -0.069757 -0.997564 168 96 61 1.000000
0.267560 -0.176574 0.018379 0.000000 -0.995643 -0.093249 255 255 255 1.000000
0.424625 0.116795 0.120177 0.017430 -0.999393 -0.030156 168 96 61 1.000000
-0.225827 -0.078651 0.576159 0.000000 0.950313 0.311297 102 45 29 1.000000
0.178732 0.441996 -0.360551 0.000000 -0.196473 -0.980509 255 255 255 1.000000
0.342761 -0.204102 0.245381 0.007163 -0.987169 0.159516 168 96 61 1.000000
0.117140 -0.157123 -0.051289 0.000000 0.524489 0.851417 102 45 29 1.000000
-0.187188 -0.026906 -0.187594 0.000000 -0.439304 -0.898338 102 45 29 1.000000
0.492677 -0.149734 0.533620 -0.993379 -0.010909 -0.114360 255 255 255 1.000000
-0.248680 -0.054070 -0.116048 0.000000 -0.547606 -0.836736 255 255 255 1.000000
-0.337646 0.215429 -0.329291 0.005040 -0.496756 -0.867876 168 96 61 1.000000
0.208263 0.658102 -0.427642 -0.137514 -0.094935 0.985940 168 96 61 1.000000
0.139000 0.538266 -0.366937 0.000000 -0.424288 0.905527 102 45 29 1.000000
-0.423973 0.165646 -0.010108 0.017453 0.999773 0.012193 168 96 61 1.000000
0.276370 0.549474 -0.365676 0.000000 -0.388262 0.921549 102 45 29 1.000000
-0.309849 -0.141312 -0.135432 -0.999689 0.024956 0.000000 102 45 29 1.000000
0.196878 0.635848 -0.355961 0.000000 -0.091279 0.995825 102 45 29 1.000000
0.173712 -0.046294 -0.119895 0.000000 0.579507 0.814967 102 45 29 1.000000
0.320658 0.602994 -0.437761 0.019610 -0.086730 0.996039 255 255 255 1.000000
-0.471512 -0.333632 0.561443 -0.017453 -0.047933 -0.998698 255 255 255 1.000000
0.287838 -0.226800 -0.022807 0.000000 0.961718 0.274042 255 255 255 1.000000
0.142127 0.344195 -0.334556 0.000000 -0.062926 0.998018 102 45 29 1.000000
0.186419 0.376198 -0.404576 0.000000 -0.355050 -0.934847 102 45 29 1.000000
-0.088384 0.547519 -0.419690 0.000000 -0.083351 0.996520 255 255 255 1.000000
-0.420733 0.164300 0.068678 0.017446 0.999610 0.021805 168 96 61 1.000000
-0.245123 0.241020 -0.323656 0.000000 -0.486164 -0.873868 102 45 29 1.000000
-0.302801 -0.187147 0.244393 0.999112 -0.042040 0.002917 255 255 255 1.000000
0.226034 0.224170 -0.246323 0.000000 0.399501 0.916733 102 45 29 1.000000
-0.400835 -0.682300 0.008231 -0.994691 0.102859 -0.003146 255 255 255 1.000000
-0.439522 -0.696563 0.137374 0.017490 -0.996710 0.079143 168 96 61 1.000000
0.438067 -0.240926 0.509326 -0.017454 0.071332 0.997300 255 255 255 1.000000
-0.223584 0.106547 -0.185052 0.000000 -0.460504 -0.887658 255 255 255 1.000000
0.096400 -0.116561 -0.152001 0.000000 -0.471015 -0.882125 102 45 29 1.000000
-0.266492 0.125782 -0.195910 0.000000 0.552803 0.833312 102 45 29 1.000000
0.132550 0.504878 -0.423590 0.000000 -0.039817 0.999207 255 255 255 1.000000
0.358246 0.145061 -0.290559 -0.005591 -0.474974 -0.879982 168 96 61 1.000000
0.125888 0.031255 -0.241364 -0.083336 0.389372 0.917303 168 96 61 1.000000
-0.220163 -0.074617 0.550457 0.000000 0.995811 0.091432 102 45 29 1.000000
0.014632 -0.169641 -0.016633 0.000000 -0.955797 -0.294026 255 255 255 1.000000
0.410755 -0.676525 0.004792 0.999586 0.028739 0.001080 255 255 255 1.000000
0.093796 -0.108540 0.349820 0.000000 -0.947029 0.321148 255 255 255 1.000000
-0.261518 -0.156795 0.413271 0.174564 0.957440 -0.229861 255 255 255 1.000000
0.038070 0.710491 -0.350664 0.000000 -0.014692 0.999892 102 45 29 1.000000
-0.481134 0.126564 0.151971 0.987873 0.155164 0.005559 255 255 255 1.000000
-0.153400 -0.024093 -0.188711 0.000000 -0.438300 -0.898829 102 45 29 1.000000
-0.269980 0.164222 -0.274527 -0.029415 -0.479437 -0.877083 255 255 255 1.000000
0.401764 -0.276133 0.538190 0.000000 0.997564 -0.069757 255 255 255 1.000000
-0.399966 -0.669686 0.308855 0.998231 0.059067 -0.006772 168 96 61 1.000000
-0.221656 0.548560 -0.365779 0.000000 -0.391238 0.920289 102 45 29 1.000000
-0.126654 0.744336 -0.442707 0.000000 -0.208653 -0.977990 102 45 29 1.000000
-0.112540 0.388518 -0.346192 0.000000 0.231418 0.972854 102 45 29 1.000000
-0.401125 -0.663844 0.413130 0.990886 0.133755 -0.015954 168 96 61 1.000000
-0.296676 0.385104 -0.412888 0.999684 -0.019140 0.016309 168 96 61 1.000000
-0.055671 -0.101734 -0.157888 0.000000 -0.465813 -0.884883 102 45 29 1.000000
-0.286374 0.246973 -0.258309 0.000000 -0.488885 -0.872348 255 255 255 1.000000
0.287930 0.858208 -0.401484 0.000000 0.932759 0.360500 102 45 29 1.000000
-0.071233 0.343064 -0.332648 0.000000 0.922866 0.385122 102 45 29 1.000000
-0.071454 -0.164415 0.430315 -0.052460 -0.971031 0.233124 255 255 255 1.000000
-0.214342 -0.104421 -0.156821 0.000000 0.466757 0.884385 255 255 255 1.000000
0.327545 -0.141921 0.587316 -0.007619 0.960440 -0.278382 255 255 255 1.000000
-0.322564 -0.145607 0.292724 0.007122 0.984815 -0.173461 168 96 61 1.000000
-0.259338 0.852120 -0.387863 0.000000 -0.784880 -0.619648 255 255 255 1.000000
-0.409878 -0.650609 0.140703 0.742575 0.667617 -0.053582 168 96 61 1.000000
0.411530 -0.666109 -0.420618 -0.994353 0.106121 -0.001051 168 96 61 1.000000
0.299310 0.715717 -0.373643 -0.999689 -0.024956 -0.000000 255 255 255 1.000000
0.451543 -0.670423 -0.477082 0.000000 0.000000 -1.000000 68 29 10 1.000000
-0.450565 -0.650929 -0.151980 0.017453 -0.999000 0.041157 255 255 255 1.000000
-0.309963 -0.145875 0.528976 -0.999689 0.024956 0.000000 102 45 29 1.000000
0.277842 -0.135660 0.469643 0.000000 -0.983855 0.178965 102 45 29 1.000000
-0.450432 -0.650927 -0.245969 0.017437 -0.999437 0.028651 255 255 255 1.000000
-0.285462 0.150603 -0.210392 0.000000 0.678687 0.734428 102 45 29 1.000000
-0.400720 0.083794 0.480482 0.995603 0.065254 0.067211 168 96 61 1.000000
0.492787 -0.665902 0.332274 -0.995787 -0.091017 0.011119 255 255 255 1.000000
-0.171491 0.384719 -0.344818 0.000000 -0.221033 -0.975266 255 255 255 1.000000
-0.317403 -0.675124 -0.361573 -0.149177 0.988811 0.000000 255 255 255 1.000000
-0.263004 -0.115281 0.321887 0.000000 -0.934545 0.355846 255 255 255 1.000000
0.311628 0.222281 -0.257005 -0.999689 -0.024956 -0.000000 255 255 255 1.000000
0.418398 -0.307397 0.558612 -0.825550 0.030672 0.563494 168 96 61 1.000000
0.233918 -0.063857 -0.111206 0.000000 0.506450 0.862269 102 45 29 1.000000
0.274622 0.156483 -0.284196 -0.999327 -0.033312 -0.015331 168 96 61 1.000000
0.457684 -0.696691 -0.171639 0.017456 0.999114 -0.038306 255 255 255 1.000000
-0.208666 0.659393 -0.354290 0.000000 -0.067182 0.997741 102 45 29 1.000000
-0.166344 -0.129859 0.261485 0.000000 -0.903190 0.429242 255 255 255 1.000000
-0.429129 -0.696380 -0.413412 0.017408 -0.999828 0.006347 168 96 61 1.000000
-0.465405 -0.651188 -0.324338 0.017422 -0.999682 0.018226 255 255 255 1.000000
0.040091 -0.130022 0.498988 0.000000 0.991045 -0.133532 255 255 255 1.000000
0.026615 0.215325 -0.306870 0.000000 0.497913 0.867227 255 255 255 1.000000
0.120250 -0.113646 0.328664 0.000000 0.937694 -0.347461 102 45 29 1.000000
-0.095306 -0.222842 0.104070 0.000000 -0.992214 0.124547 102 45 29 1.000000
-0.257437 -0.077343 0.572927 0.000000 0.965946 0.258743 102 45 29 1.000000
0.376024 -0.229059 0.046299 0.998391 -0.056548 -0.004187 168 96 61 1.000000
-0.323975 0.508157 -0.447325 0.018046 0.022597 -0.999582 168 96 61 1.000000
-0.352699 0.276402 -0.338922 0.998575 -0.040675 -0.034547 255 255 255 1.000000
-0.459176 -0.688303 0.471340 0.017446 -0.938314 0.345343 168 96 61 1.000000
-0.410325 0.163166 0.100568 -0.017440 -0.999488 -0.026841 255 255 255 1.000000
0.419043 0.120013 0.085468 -0.745896 -0.665852 -0.016719 168 96 61 1.000000
0.207121 -0.234702 0.047400 0.000000 0.997084 -0.076306 255 255 255 1.000000
-0.250741 -0.111583 0.337211 0.000000 -0.941557 0.336854 255 255 255 1.000000
-0.149534 -0.625805 -0.342704 -0.071603 0.997433 0.000000 168 96 61 1.000000
-0.094500 0.659016 -0.452255 0.077127 -0.095560 0.992431 255 255 255 1.000000
0.149827 0.184397 -0.288968 0.000000 0.495010 0.868887 255 255 255 1.000000
-0.284506 0.128036 -0.259749 0.000000 0.464187 0.885737 255 255 255 1.000000
0.461649 -0.696760 -0.142396 0.017460 0.998958 -0.042173 255 255 255 1.000000
0.021266 0.658828 -0.455997 -0.012224 -0.095838 0.995322 255 255 255 1.000000
-0.363364 -0.160385 0.309046 -0.994064 0.107218 -0.018486 168 96 61 1.000000
-0.202909 -0.132122 0.488060 0.000000 -0.988612 0.150484 102 45 29 1.000000
0.230617 0.312096 -0.302157 0.000000 0.687876 0.725829 102 45 29 1.000000
0.032279 0.144900 -0.207065 0.000000 0.651277 0.758840 102 45 29 1.000000
0.489090 0.125820 0.024409 -0.825516 0.564315 0.008447 255 255 255 1.000000
-0.342610 -0.126859 0.369836 -0.007054 -0.981167 0.193032 255 255 255 1.000000
0.268387 0.782729 -0.450847 0.000000 -0.153927 -0.988082 102 45 29 1.000000
0.152891 0.763246 -0.351221 0.000000 -0.137488 -0.990503 255 255 255 1.000000
-0.205659 0.161026 -0.216474 0.000000 0.725924 0.687775 102 45 29 1.000000
0.116456 0.799029 -0.354719 0.000000 0.308984 0.951067 102 45 29 1.000000
0.024072 -0.083827 0.588172 0.000000 -0.860301 -0.509787 255 255 255 1.000000
-0.288309 0.307076 -0.366807 0.000000 -0.455541 -0.890215 102 45 29 1.000000
0.442398 -0.650597 -0.225958 0.017441 0.999357 -0.031313 168 96 61 1.000000
-0.289038 -0.198856 0.170570 -0.042180 -0.989043 0.141472 255 255 255 1.000000
0.461562 0.163679 -0.173439 0.017103 -0.979405 0.201182 255 255 255 1.000000
0.206050 0.392181 -0.347517 0.000000 0.241398 0.970426 102 45 29 1.000000
-0.319026 0.531240 -0.445987 0.019456 0.080586 -0.996558 168 96 61 1.000000
0.055484 0.380115 -0.405868 0.000000 -0.341199 -0.939991 102 45 29 1.000000
0.349194 0.096516 -0.213697 -0.006552 -0.436534 -0.899664 255 255 255 1.000000
0.320267 -0.124317 0.558851 -0.999972 -0.007533 -0.000063 168 96 61 1.000000
0.322254 -0.203355 0.001619 -0.999689 -0.024956 -0.000000 255 255 255 1.000000
0.274387 0.171719 -0.301479 0.999323 0.033502 0.015233 255 255 255 1.000000
0.410278 0.137543 0.167193 0.999707 0.024197 0.000956 255 255 255 1.000000
0.431385 -0.696230 -0.368682 -0.017419 -0.999773 0.012255 168 96 61 1.000000
0.493691 0.141960 0.166081 0.998821 0.048527 0.001121 168 96 61 1.000000
0.354164 0.623566 -0.404499 -0.983996 -0.008901 -0.177967 255 255 255 1.000000
-0.045954 -0.197732 0.208109 0.000000 -0.988530 0.151022 102 45 29 1.000000
0.483777 0.155414 0.295576 -0.742802 -0.665423 -0.073873 255 255 255 1.000000
0.043112 0.297573 -0.290562 0.000000 0.612067 0.790806 102 45 29 1.000000
0.003449 -0.184977 0.404035 -0.003714 -0.972363 0.233444 168 96 61 1.000000
-0.222606 -0.033403 -0.185015 0.000000 -0.441622 -0.897201 102 45 29 1.000000
-0.006575 -0.162026 0.577031 0.000000 1.000000 0.000000 255 255 255 1.000000
0.242468 0.388149 -0.346058 0.000000 0.230409 0.973094 102 45 29 1.000000
-0.431188 -0.650592 -0.002037 0.017473 -0.997978 0.061106 255 255 255 1.000000
-0.159739 0.570570 -0.417097 0.000000 -0.085319 0.996354 255 255 255 1.000000
-0.153685 0.568851 -0.363497 0.000000 0.323790 -0.946129 255 255 255 1.000000
0.424471 0.014100 0.482569 -0.017476 0.244330 0.969535 255 255 255 1.000000
0.287834 0.498167 -0.423782 0.017488 -0.000315 -0.999847 255 255 255 1.000000
-0.409859 -0.696044 -0.361195 0.017420 -0.999761 0.013244 168 96 61 1.000000
-0.066465 -0.173917 0.391654 0.049057 0.971199 -0.233164 168 96 61 1.000000
-0.482329 -0.391205 0.535296 0.998165 0.001675 0.060535 255 255 255 1.000000
0.146206 -0.165872 0.403632 0.096068 -0.967872 0.232366 255 255 255 1.000000
-0.400401 -0.146568 0.518889 -0.996093 0.008201 0.087923 255 255 255 1.000000
0.299012 -0.130829 0.453425 -0.041805 0.976892 -0.209606 168 96 61 1.000000
-0.126885 0.610302 -0.441536 0.103107 -0.095335 0.990091 168 96 61 1.000000
-0.472376 0.120685 -0.101307 0.017452 0.999835 0.004975 255 255 255 1.000000
0.471714 -0.622872 0.546892 0.017545 0.492240 -0.870283 255 255 255 1.000000
-0.161256 -0.155801 0.604040 0.000000 -0.455376 0.890299 102 45 29 1.000000
-0.155116 -0.078687 0.482865 0.000000 -0.990158 0.139955 255 255 255 1.000000
0.122010 -0.654036 -0.297603 -0.053871 -0.998548 -0.000000 168 96 61 1.000000
-0.193142 -0.008274 -0.194991 0.000000 0.432642 0.901566 255 255 255 1.000000
0.146748 0.313184 -0.370797 0.000000 0.452681 0.891672 255 255 255 1.000000
-0.282865 0.503502 -0.446359 -0.017140 0.013741 -0.999759 168 96 61 1.000000
-0.219675 -0.234241 0.010507 0.000000 0.994014 0.109255 255 255 255 1.000000
0.002009 -0.257741 0.546463 0.000000 0.069756 0.997564 168 96 61 1.000000
-0.245828 0.647340 -0.355145 0.000000 0.079529 -0.996833 255 255 255 1.000000
-0.081459 0.296997 -0.290102 0.000000 -0.608959 -0.793202 255 255 255 1.000000
-0.291704 -0.159126 -0.125676 0.000000 -0.628123 -0.778114 102 45 29 1.000000
-0.469898 -0.461586 0.519752 0.017452 0.006978 0.999823 255 255 255 1.000000
0.201852 0.694045 -0.405422 0.000000 -0.079946 0.996799 255 255 255 1.000000
0.209985 0.000388 -0.198430 0.000000 -0.429537 -0.903049 102 45 29 1.000000
0.477091 0.120554 0.007531 0.017453 -0.999755 -0.013629 168 96 61 1.000000
0.289201 0.275000 -0.275451 0.000000 0.544214 0.838947 102 45 29 1.000000
-0.411672 0.116089 0.142585 0.017424 0.999279 0.033720 255 255 255 1.000000
0.411924 -0.544466 0.553258 -0.992584 -0.003553 0.121510 168 96 61 1.000000
0.307808 0.734827 -0.380279 0.017416 0.002587 0.999845 168 96 61 1.000000
-0.400848 0.119890 0.365309 -0.993195 0.114291 0.022367 255 255 255 1.000000
-0.192421 0.027968 -0.244006 -0.135732 -0.387115 -0.911986 168 96 61 1.000000
0.009736 -0.172420 0.312988 0.000000 -0.984100 0.177618 102 45 29 1.000000
-0.293407 -0.265795 0.547027 0.000000 0.069756 0.997564 168 96 61 1.000000
0.143602 0.859130 -0.431840 0.000000 0.934318 -0.356440 102 45 29 1.000000
0.491973 -0.117347 0.533854 -0.987005 -0.016518 -0.159840 255 255 255 1.000000
-0.130607 -0.171413 0.089311 0.000000 0.997108 -0.076003 102 45 29 1.000000
-0.272996 -0.218959 0.106504 0.999109 -0.042155 0.002177 168 96 61 1.000000
0.322451 -0.206572 0.134346 0.999968 0.007713 0.002346 255 255 255 1.000000
0.266363 -0.165451 -0.031745 0.000000 -0.999241 -0.038963 255 255 255 1.000000
0.337936 -0.193462 -0.028799 0.005980 -0.940428 -0.339941 255 255 255 1.000000
0.192245 0.540566 -0.366679 0.000000 -0.416981 0.908915 102 45 29 1.000000
0.367149 0.108998 -0.252507 -0.990261 0.037267 0.134144 255 255 255 1.000000
-0.026088 -0.179405 0.425678 -0.023977 -0.972090 0.233378 168 96 61 1.000000
-0.473097 -0.386063 0.563091 -0.740536 0.023630 0.671601 168 96 61 1.000000
-0.415977 -0.696154 0.421470 0.017495 -0.993034 0.116520 168 96 61 1.000000
0.210343 0.561154 -0.418156 0.000000 0.084515 -0.996422 102 45 29 1.000000
0.284942 0.655677 -0.354554 0.000000 -0.070991 0.997477 102 45 29 1.000000
0.175659 0.822854 -0.367256 0.000000 -0.517961 -0.855404 255 255 255 1.000000
0.079885 -0.096108 0.401331 0.000000 0.966534 -0.256537 102 45 29 1.000000
-0.480903 -0.639702 0.484048 -0.828287 0.452751 -0.330088 168 96 61 1.000000
0.338686 -0.094811 0.554805 -0.007472 0.999912 -0.011003 168 96 61 1.000000
0.110707 -0.082344 0.463831 0.000000 -0.985467 0.169867 255 255 255 1.000000
-0.137858 0.266221 -0.340118 0.000000 0.474549 0.880229 255 255 255 1.000000
-0.322189 -0.220102 0.179359 -0.007217 -0.989719 0.142846 168 96 61 1.000000
0.026413 0.064639 -0.165370 0.000000 0.400747 0.916189 102 45 29 1.000000
-0.139242 -0.137308 0.230622 0.000000 -0.885032 0.465530 255 255 255 1.000000
0.054583 0.273893 -0.345130 0.000000 0.470996 0.882136 255 255 255 1.000000
-0.074837 -0.161112 0.131994 0.000000 -0.999485 -0.032101 255 255 255 1.000000
0.096475 -0.102849 -0.089315 0.000000 0.527994 0.849248 102 45 29 1.000000
0.309609 -0.211209 -0.061566 0.000000 -0.885442 -0.464750 102 45 29 1.000000
-0.458472 0.002168 0.531650 0.017459 0.154774 0.987796 168 96 61 1.000000
0.414518 0.138564 0.412671 -0.829055 0.536427 0.157841 168 96 61 1.000000
-0.074989 -0.167463 0.458641 0.000000 -0.233445 -0.972370 255 255 255 1.000000
0.423844 -0.576736 0.563495 -0.017472 -0.177953 0.983884 168 96 61 1.000000
0.305850 0.467465 -0.408769 -0.999576 -0.023390 0.017317 168 96 61 1.000000
-0.005031 -0.158403 0.371068 0.000000 0.981339 -0.192284 255 255 255 1.000000
0.327963 -0.183703 0.330343 0.007090 -0.983471 0.180926 168 96 61 1.000000
0.416228 -0.655570 -0.341465 -0.741051 0.671364 -0.010673 168 96 61 1.000000
0.011818 -0.149129 0.409492 0.000000 0.979394 -0.201957 255 255 255 1.000000
-0.359052 -0.248618 0.035324 -0.881311 -0.472466 -0.008165 168 96 61 1.000000
-0.186069 -0.187028 -0.097747 0.000000 0.766311 0.642470 255 255 255 1.000000
0.062577 0.004158 -0.233999 0.039539 -0.390425 -0.919785 255 255 255 1.000000
0.303011 0.570299 -0.419841 0.999501 0.026349 -0.017402 255 255 255 1.000000
0.283749 -0.202047 0.253971 -0.999112 -0.042035 0.002953 168 96 61 1.000000
-0.219898 0.639844 -0.409304 0.000000 0.091231 -0.995830 102 45 29 1.000000
0.493733 -0.389924 0.538617 0.999857 -0.000399 -0.016898 168 96 61 1.000000
-0.081879 -0.131106 0.523455 0.000000 0.089260 0.996008 255 255 255 1.000000
-0.205435 -0.013658 -0.216722 0.000000 -0.920505 0.390731 168 96 61 1.000000
0.021964 0.604612 -0.458815 0.000000 0.995396 0.095845 255 255 255 1.000000
0.410815 0.144802 0.073587 0.999441 -0.033417 -0.000368 255 255 255 1.000000
-0.270866 0.800833 -0.354896 0.000000 0.317298 0.948326 102 45 29 1.000000
0.006228 0.338380 -0.387256 0.000000 0.440842 0.897585 255 255 255 1.000000
-0.163507 0.850069 -0.385378 0.000000 -0.754216 -0.656626 255 255 255 1.000000
0.160749 -0.176203 0.062138 0.000000 -0.995716 0.092459 255 255 255 1.000000
-0.453422 -0.696804 0.104896 0.017488 -0.997041 0.074853 168 96 61 1.000000
-0.274975 -0.172745 0.083792 0.000000 0.995951 -0.089899 102 45 29 1.000000
0.096253 0.071020 -0.168367 0.000000 -0.409966 -0.912101 255 255 255 1.000000
0.090113 0.323460 -0.377509 0.000000 -0.447861 -0.894103 102 45 29 1.000000
-0.129676 0.814807 -0.361897 0.000000 -0.437086 -0.899419 255 255 255 1.000000
0.301231 -0.104746 -0.156692 0.000000 0.466872 0.884325 255 255 255 1.000000
0.308713 0.629267 -0.434574 -0.019666 0.088999 -0.995838 168 96 61 1.000000
-0.362780 -0.209411 0.185125 -0.950419 -0.307218 0.048174 168 96 61 1.000000
-0.282284 0.102928 -0.268199 -0.028714 -0.451140 -0.891991 168 96 61 1.000000
0.157366 -0.625571 -0.307124 -0.070205 -0.997533 -0.000000 255 255 255 1.000000
-0.448615 0.117337 0.122394 0.017430 0.999383 0.030505 255 255 255 1.000000
0.290507 -0.666824 -0.362228 0.000000 0.000000 -1.000000 168 96 61 1.000000
-0.165430 0.616708 -0.448736 -0.131883 0.095009 -0.986702 168 96 61 1.000000
0.117688 0.294789 -0.358780 0.000000 0.461279 0.887255 255 255 255 1.000000
0.493880 0.061379 0.489738 -0.999354 -0.019587 -0.030119 255 255 255 1.000000
0.178216 -0.052053 -0.177611 0.000000 -0.448258 -0.893904 102 45 29 1.000000
0.173909 0.733382 -0.349040 0.000000 0.008818 0.999961 102 45 29 1.000000
0.010898 0.024365 -0.257063 0.003753 -0.390728 -0.920498 168 96 61 1.000000
-0.440986 0.120582 0.463283 0.017488 0.806271 0.591288 168 96 61 1.000000
-0.181947 0.632901 -0.444863 -0.144632 0.094838 -0.984930 168 96 61 1.000000
0.352322 -0.179354 0.510361 0.000000 0.069757 0.997564 255 255 255 1.000000
0.151001 -0.077133 0.490950 0.000000 0.991875 -0.127219 102 45 29 1.000000
0.172549 -0.079696 0.477612 0.000000 0.988954 -0.148222 102 45 29 1.000000
0.419736 -0.696029 0.013034 0.017480 0.997878 -0.062725 255 255 255 1.000000
-0.008503 0.322600 -0.310543 0.000000 -0.738743 -0.673987 255 255 255 1.000000
0.214987 -0.041404 -0.122315 0.000000 -0.599137 -0.800646 255 255 255 1.000000
0.468649 0.150507 0.383321 0.017533 -0.983492 -0.180102 255 255 255 1.000000
0.186935 0.215785 -0.242537 0.000000 -0.350869 -0.936424 255 255 255 1.000000
0.091363 0.287152 -0.353792 0.000000 0.464837 0.885397 255 255 255 1.000000
-0.246565 -0.010794 -0.218297 0.166076 0.385305 0.907722 255 255 255 1.000000
-0.180998 0.650943 -0.408480 0.000000 0.089126 -0.996020 102 45 29 1.000000
0.178172 -0.149457 0.408135 0.000000 -0.979465 0.201616 102 45 29 1.000000
0.233961 0.116101 -0.190261 0.000000 -0.500124 -0.865954 255 255 255 1.000000
-0.284881 0.858825 -0.425567 0.999689 -0.024956 -0.000000 255 255 255 1.000000
-0.308204 -0.075467 -0.126063 -0.999689 0.024956 0.000000 102 45 29 1.000000
0.444511 -0.334188 0.560806 -0.017453 0.047807 0.998704 168 96 61 1.000000
0.180381 -0.214980 0.536916 0.000000 0.997564 -0.069757 168 96 61 1.000000
0.258014 -0.649045 -0.362228 0.000000 -0.000000 1.000000 255 255 255 1.000000
0.035054 -0.215638 0.527506 0.000000 0.997564 -0.069757 168 96 61 1.000000
-0.194979 0.719161 -0.403640 0.000000 0.074593 -0.997214 102 45 29 1.000000
-0.460504 -0.651101 0.065438 -0.017479 0.997389 -0.070069 168 96 61 1.000000
0.149109 -0.155857 -0.052211 0.000000 0.525093 0.851045 102 45 29 1.000000
-0.180160 0.855743 -0.440281 0.000000 -0.814277 0.580476 255 255 255 1.000000
-0.105058 -0.142432 -0.137400 0.000000 0.547525 0.836790 255 255 255 1.000000
0.193628 -0.162026 0.545505 0.000000 -1.000000 -0.000000 102 45 29 1.000000
-0.202882 -0.066726 -0.171786 0.000000 -0.453463 -0.891275 102 45 29 1.000000
0.058036 0.814493 -0.455495 0.000000 0.024853 -0.999691 102 45 29 1.000000
0.351660 0.448070 -0.397906 -0.013574 -0.157994 -0.987347 255 255 255 1.000000
-0.274090 0.734534 -0.437235 0.000000 -0.997407 0.071970 102 45 29 1.000000
-0.105556 0.668139 -0.353670 0.000000 0.058209 -0.998304 255 255 255 1.000000
0.225149 -0.021186 -0.132317 0.000000 0.675954 0.736944 102 45 29 1.000000
-0.330384 -0.023457 -0.161336 -0.006362 0.444949 0.895533 168 96 61 1.000000
-0.229230 -0.135133 -0.142525 0.000000 0.510608 0.859813 255 255 255 1.000000
-0.085488 -0.141836 0.211861 0.000000 -0.873351 0.487091 255 255 255 1.000000
-0.057982 0.716935 -0.350207 0.000000 -0.008071 0.999967 102 45 29 1.000000
-0.139352 0.478466 -0.366242 0.000000 0.190856 0.981618 102 45 29 1.000000
-0.000032 0.309169 -0.368174 0.000000 -0.454562 -0.890715 102 45 29 1.000000
0.081810 0.679861 -0.352838 0.000000 -0.046172 0.998933 102 45 29 1.000000
0.312468 0.487705 -0.447922 -0.016692 -0.030886 -0.999384 168 96 61 1.000000
0.358181 0.444143 -0.430272 0.958041 -0.030894 -0.284961 168 96 61 1.000000
0.369560 0.004288 -0.187506 -0.979344 -0.103396 -0.173767 255 255 255 1.000000
-0.287166 0.700917 -0.351344 0.000000 -0.024533 0.999699 102 45 29 1.000000
-0.205154 0.333804 -0.319487 0.000000 0.788330 0.615252 102 45 29 1.000000
-0.408916 0.045322 0.520188 -0.017514 -0.363651 -0.931370 255 255 255 1.000000
0.493753 -0.676488 0.368822 -0.999022 0.044068 -0.003531 255 255 255 1.000000
-0.357355 -0.003909 -0.177157 0.940010 -0.166983 -0.297487 255 255 255 1.000000
-0.340637 -0.203275 0.029281 0.007359 0.999835 0.016628 168 96 61 1.000000
0.488571 -0.633795 0.484066 -0.828373 -0.440036 0.346650 255 255 255 1.000000
-0.018404 -0.229285 -0.013035 0.000000 0.974115 0.226053 255 255 255 1.000000
0.214944 -0.213806 0.141511 0.000000 -0.990970 0.134082 102 45 29 1.000000
-0.148923 -0.171562 -0.008067 0.000000 -0.966492 -0.256697 255 255 255 1.000000
0.187239 0.618326 -0.411724 0.000000 -0.089395 0.995996 255 255 255 1.000000
0.174147 -0.639045 -0.278225 0.000000 -0.000000 1.000000 168 96 61 1.000000
-0.270625 -0.668596 -0.293898 0.127562 -0.991831 -0.000000 168 96 61 1.000000
-0.128476 0.289972 -0.355634 0.000000 -0.463524 -0.886084 102 45 29 1.000000
-0.249355 -0.018391 -0.136568 0.000000 0.765432 0.643516 102 45 29 1.000000
0.136224 -0.175759 0.014079 0.000000 -0.992776 -0.119979 255 255 255 1.000000
0.492873 0.145130 0.198087 0.994777 0.101993 0.004115 168 96 61 1.000000
0.056548 -0.276541 0.532355 0.000000 0.997564 -0.069757 255 255 255 1.000000
0.099239 0.112091 -0.251482 0.000000 0.455357 0.890309 255 255 255 1.000000
0.146276 0.007900 -0.242736 0.096627 -0.388903 -0.916197 168 96 61 1.000000
-0.129208 0.644959 -0.355314 0.000000 0.081965 -0.996635 255 255 255 1.000000
-0.425158 -0.395301 0.563452 -0.017450 -0.032910 -0.999306 255 255 255 1.000000
-0.481100 0.031906 0.487529 0.987628 0.056243 0.146382 255 255 255 1.000000
-0.319884 -0.143137 0.512753 -0.007322 -0.992987 0.117996 168 96 61 1.000000
-0.183225 -0.160204 -0.124919 0.000000 -0.633104 -0.774066 102 45 29 1.000000
-0.263175 0.200254 -0.293405 0.029891 0.499104 0.866026 168 96 61 1.000000
0.085446 -0.070373 -0.107982 0.000000 -0.478569 -0.878050 255 255 255 1.000000
0.053611 -0.234739 0.050433 0.000000 -0.995810 0.091442 102 45 29 1.000000
0.037878 -0.104914 0.608384 0.000000 -0.443454 -0.896297 255 255 255 1.000000
0.182448 0.751195 -0.350042 0.000000 0.078519 0.996913 102 45 29 1.000000
-0.075489 0.680331 -0.406395 0.000000 -0.082868 0.996561 255 255 255 1.000000
-0.413508 -0.696110 0.019895 0.017480 -0.997820 0.063631 168 96 61 1.000000
0.487888 0.082165 0.443946 -0.827640 0.432515 0.357690 255 255 255 1.000000
0.436672 0.148925 0.400609 0.017526 -0.980889 -0.193779 255 255 255 1.000000
-0.212425 -0.176525 0.037706 0.000000 0.999947 0.010256 102 45 29 1.000000
0.321376 -0.168216 -0.053657 -0.999689 -0.024956 -0.000000 255 255 255 1.000000
-0.306826 -0.020247 -0.152229 0.999689 -0.024956 -0.000000 255 255 255 1.000000
-0.043607 0.075964 -0.232753 0.000000 0.435190 0.900339 255 255 255 1.000000
-0.412783 -0.253789 0.556059 -0.017453 -0.067401 -0.997573 255 255 255 1.000000
-0.020766 0.570538 -0.417100 0.000000 -0.085316 0.996354 255 255 255 1.000000
-0.083955 0.375982 -0.404505 0.000000 -0.355812 -0.934557 102 45 29 1.000000
0.181942 -0.119487 0.304463 0.000000 0.926098 -0.377284 102 45 29 1.000000
-0.106325 -0.160065 0.136330 0.000000 0.999072 0.043060 102 45 29 1.000000
-0.266857 0.235444 -0.251414 0.000000 -0.462288 -0.886730 255 255 255 1.000000
-0.201798 0.378154 -0.342443 0.000000 0.203024 0.979174 102 45 29 1.000000
0.174223 -0.004191 -0.196612 0.000000 0.431179 0.902267 255 255 255 1.000000
-0.482543 -0.558756 0.546957 -0.997740 -0.010531 0.066357 168 96 61 1.000000
-0.341393 0.677821 -0.418385 0.959786 -0.036249 0.278383 255 255 255 1.000000
0.200534 0.261669 -0.267297 0.000000 -0.518161 -0.855283 255 255 255 1.000000
0.418490 -0.168902 0.548881 -0.825549 0.049724 0.562136 168 96 61 1.000000
0.048288 -0.113158 0.330686 0.000000 0.938619 -0.344954 102 45 29 1.000000
-0.436141 -0.536090 0.520097 -0.017439 0.026430 -0.999499 168 96 61 1.000000
0.089247 0.805951 -0.356001 0.000000 -0.346647 -0.937996 255 255 255 1.000000
0.466510 0.083209 0.436938 -0.017496 0.802276 0.596696 255 255 255 1.000000
0.340880 -0.200670 -0.107732 0.002036 -0.784802 -0.619743 168 96 61 1.000000
0.141082 0.295584 -0.288975 0.000000 0.601311 0.799015 102 45 29 1.000000
-0.250811 -0.150069 0.177747 0.000000 -0.850977 0.525203 255 255 255 1.000000
0.212601 -0.207900 -0.067839 0.000000 -0.868706 -0.495328 102 45 29 1.000000
-0.477008 0.160190 0.066609 0.740524 -0.671874 -0.014452 255 255 255 1.000000
0.411336 0.136462 -0.094329 -0.995620 -0.093482 -0.001059 168 96 61 1.000000
0.371740 -0.186765 0.541501 0.000000 -0.069756 -0.997564 255 255 255 1.000000
-0.261562 0.267883 -0.271098 0.000000 0.530369 0.847767 102 45 29 1.000000
0.012944 0.676284 -0.406682 0.000000 -0.083730 0.996489 255 255 255 1.000000
0.308863 0.010412 -0.214070 0.999350 0.032400 0.015792 168 96 61 1.000000
0.410676 0.055859 0.493070 -0.999747 0.014158 0.017468 168 96 61 1.000000
-0.273134 -0.227156 0.021783 -0.999107 0.042235 0.000932 255 255 255 1.000000
0.266686 -0.140712 0.445189 0.048444 -0.971228 0.233171 255 255 255 1.000000
-0.152833 0.817267 -0.455212 0.000000 0.058958 -0.998260 102 45 29 1.000000
-0.416625 -0.609257 0.500721 -0.017492 0.583481 -0.811938 168 96 61 1.000000
0.043605 0.141399 -0.266676 0.000000 -0.471552 -0.881838 102 45 29 1.000000
0.097447 -0.194045 0.223387 0.000000 -0.987930 0.154904 102 45 29 1.000000
0.314823 -0.260135 0.546631 0.000000 0.069756 0.997564 168 96 61 1.000000
0.429313 -0.650371 0.351070 0.017491 0.994004 -0.107938 168 96 61 1.000000
0.492521 0.119954 0.347556 0.993651 -0.110198 -0.022694 168 96 61 1.000000
0.153733 -0.625357 -0.351128 -0.068527 -0.997649 -0.000000 255 255 255 1.000000
0.252208 -0.223945 -0.034034 0.000000 0.944620 0.328165 255 255 255 1.000000
0.486311 -0.519390 0.521618 -0.825777 -0.010735 0.563894 255 255 255 1.000000
-0.212839 -0.631384 -0.295985 -0.100859 0.994901 0.000000 168 96 61 1.000000
0.466659 -0.696844 0.437048 0.017495 0.992794 -0.118551 255 255 255 1.000000
0.021514 -0.176427 0.045158 0.000000 0.999776 -0.021147 102 45 29 1.000000
0.486723 -0.648737 0.450767 -0.827800 -0.534000 0.172020 255 255 255 1.000000
-0.469527 0.166459 -0.089247 -0.017452 -0.999830 -0.005946 255 255 255 1.000000
-0.049284 0.693136 -0.351896 0.000000 0.032531 -0.999471 255 255 255 1.000000
0.036698 -0.141084 0.214974 0.000000 0.875322 -0.483541 102 45 29 1.000000
0.015425 -0.240829 0.545281 0.000000 -0.069756 -0.997564 255 255 255 1.000000
0.305883 -0.157880 0.373232 0.000000 -0.981232 0.192830 102 45 29 1.000000
-0.061200 -0.233983 0.544802 0.000000 -0.069756 -0.997564 255 255 255 1.000000
-0.451780 -0.696775 0.282425 -0.017496 0.995008 -0.098251 255 255 255 1.000000
0.344914 -0.112614 0.429112 0.006999 -0.978097 0.208031 255 255 255 1.000000
-0.188172 -0.659539 -0.292566 -0.089459 0.995991 0.000000 255 255 255 1.000000
0.211054 0.736677 -0.402397 0.000000 -0.070859 0.997486 255 255 255 1.000000
0.178055 -0.114834 0.611555 0.000000 0.247908 0.968784 102 45 29 1.000000
0.155637 -0.215175 -0.054051 0.000000 0.904070 0.427385 255 255 255 1.000000
0.359678 0.423843 -0.421481 0.994355 0.003100 -0.106058 168 96 61 1.000000
-0.167819 0.107254 -0.185384 0.000000 0.461495 0.887143 102 45 29 1.000000
0.457350 -0.023998 0.488515 -0.017445 0.119224 0.992714 255 255 255 1.000000
0.435565 0.136787 0.435772 0.017461 -0.902987 -0.429312 255 255 255 1.000000
0.412545 0.118240 0.321671 0.985336 0.168771 0.025080 255 255 255 1.000000
0.447284 -0.365589 0.562291 -0.017452 0.040152 0.999041 168 96 61 1.000000
-0.383861 -0.210521 0.543162 0.000000 -0.069756 -0.997564 255 255 255 1.000000
0.347594 0.058774 -0.245727 0.006794 0.426458 0.904482 255 255 255 1.000000
0.346327 0.651684 -0.432829 -0.019712 0.090825 -0.995672 168 96 61 1.000000
-0.165872 -0.146332 0.524819 0.000000 0.089260 0.996008 255 255 255 1.000000
0.453124 -0.077524 0.494462 0.017452 -0.103521 -0.994474 168 96 61 1.000000
0.441219 -0.696403 -0.124717 -0.017463 -0.998856 0.044512 168 96 61 1.000000
0.369028 -0.190372 0.106183 0.875535 0.479653 -0.058069 168 96 61 1.000000
0.020394 -0.635913 -0.278225 0.000000 0.000000 -1.000000 255 255 255 1.000000
-0.408328 -0.696018 -0.121461 0.017463 -0.998837 0.044942 168 96 61 1.000000
0.071926 0.410145 -0.415777 0.000000 -0.232981 -0.972481 102 45 29 1.000000
-0.053993 0.011110 -0.236844 -0.041111 -0.390401 -0.919727 255 255 255 1.000000
-0.438581 -0.086091 0.495361 0.017452 0.102394 0.994591 255 255 255 1.000000
0.455322 -0.650823 0.058963 0.017479 0.997449 -0.069213 168 96 61 1.000000
-0.300542 0.231482 -0.262823 0.999689 -0.024956 -0.000000 255 255 255 1.000000
-0.258599 -0.233015 0.061920 0.000000 -0.993503 0.113808 102 45 29 1.000000
-0.310244 -0.157139 0.242145 -0.999689 0.024956 0.000000 102 45 29 1.000000
-0.400022 0.062678 0.490664 -0.999261 -0.022561 -0.031133 255 255 255 1.000000
-0.285949 0.421952 -0.416488 -0.022893 -0.217711 -0.975745 255 255 255 1.000000
0.490398 0.126916 0.052533 -0.825532 0.564250 0.010939 255 255 255 1.000000
0.212139 -0.142869 -0.137093 0.000000 0.549708 0.835357 255 255 255 1.000000
0.321313 0.246166 -0.349257 -0.005415 -0.482629 -0.875808 168 96 61 1.000000
-0.311207 -0.202346 -0.094237 -0.999891 0.010777 -0.010121 255 255 255 1.000000
0.467626 -0.651036 0.094151 0.017482 0.997114 -0.073884 168 96 61 1.000000
-0.062341 -0.147927 0.608813 0.000000 -0.371877 0.928282 102 45 29 1.000000
0.218350 -0.276620 0.531232 0.000000 0.997564 -0.069757 255 255 255 1.000000
0.063683 -0.104718 0.365657 0.000000 -0.953516 0.301342 255 255 255 1.000000
0.297160 0.801881 -0.377441 0.999689 0.024956 0.000000 102 45 29 1.000000
0.448721 -0.696535 0.108259 -0.017488 -0.997007 0.075301 168 96 61 1.000000
0.009376 -0.223950 0.099478 0.000000 -0.992360 0.123377 102 45 29 1.000000
-0.202603 0.287290 -0.282968 0.000000 -0.567740 -0.823208 255 255 255 1.000000
0.265235 0.539222 -0.442880 0.999570 0.023668 0.017338 255 255 255 1.000000
0.135545 0.763207 -0.446750 0.000000 -0.207029 -0.978335 102 45 29 1.000000
0.009308 0.185674 -0.289630 0.000000 0.495701 0.868493 255 255 255 1.000000
0.089916 -0.005303 -0.241807 -0.057965 0.390074 0.918957 255 255 255 1.000000
0.102607 -0.109630 0.609891 0.000000 0.352872 0.935672 102 45 29 1.000000
-0.089803 0.848107 -0.384071 0.000000 0.739950 0.672662 102 45 29 1.000000
-0.346102 -0.201729 0.542547 0.000000 -0.069756 -0.997564 255 255 255 1.000000
0.099252 -0.074813 0.552076 0.000000 0.994615 0.103634 102 45 29 1.000000
-0.218197 0.042772 -0.156208 0.000000 -0.324859 -0.945762 255 255 255 1.000000
-0.440813 0.165967 -0.129981 -0.017452 -0.999844 -0.002730 255 255 255 1.000000
-0.235583 0.664807 -0.421820 0.057682 -0.095687 0.993739 168 96 61 1.000000
-0.433486 -0.121808 0.499290 0.017452 0.097985 0.995035 255 255 255 1.000000
0.230737 -0.225298 0.513574 0.000000 -0.069757 -0.997564 168 96 61 1.000000
-0.450833 0.116668 0.146122 0.017423 0.999260 0.034278 255 255 255 1.000000
0.039431 -0.161034 0.451317 -0.023204 0.972108 -0.233382 168 96 61 1.000000
-0.014766 0.791874 -0.354020 0.000000 -0.275607 -0.961270 255 255 255 1.000000
-0.429555 -0.470502 0.519160 0.017451 0.002978 0.999843 255 255 255 1.000000
0.275815 0.261658 -0.267291 0.000000 -0.518140 -0.855296 255 255 255 1.000000
0.438808 -0.696360 -0.332080 0.017426 0.999702 -0.017091 255 255 255 1.000000
-0.119204 0.860193 -0.405925 0.000000 0.963340 0.268285 102 45 29 1.000000
-0.357030 -0.080955 -0.141962 -0.907922 0.211873 0.361645 168 96 61 1.000000
-0.262856 -0.198710 0.204057 0.000000 0.988687 -0.149992 255 255 255 1.000000
0.443691 0.071622 0.507609 0.017514 -0.518680 -0.854789 255 255 255 1.000000
0.345961 -0.176479 0.164419 0.007229 -0.990026 0.140697 255 255 255 1.000000
-0.214943 0.491075 -0.424281 0.000000 0.000209 -1.000000 102 45 29 1.000000
0.373061 -0.154615 0.394665 0.974904 -0.217492 0.047539 168 96 61 1.000000
0.139813 -0.018254 -0.232249 -0.092196 0.389067 0.916584 255 255 255 1.000000
-0.309596 -0.131215 0.580234 -0.999689 0.024956 0.000000 102 45 29 1.000000
0.361282 0.366764 -0.401494 0.997935 -0.005505 -0.063990 168 96 61 1.000000
0.467816 -0.696865 0.137938 -0.017490 -0.996704 0.079212 168 96 61 1.000000
-0.073393 0.749218 -0.349849 0.000000 0.068865 0.997626 102 45 29 1.000000
-0.289943 -0.199454 0.200977 0.000000 0.988806 -0.149209 255 255 255 1.000000
-0.239354 -0.077354 -0.104065 0.000000 0.482422 0.875939 102 45 29 1.000000
0.312905 0.171153 -0.241208 0.999689 0.024956 0.000000 102 45 29 1.000000
0.375925 -0.237970 0.514460 0.000000 0.069757 0.997564 255 255 255 1.000000
-0.436025 -0.696502 0.175469 -0.017492 0.996298 -0.084168 255 255 255 1.000000
0.255970 0.176029 -0.284629 0.000000 -0.490475 -0.871456 102 45 29 1.000000
0.300932 -0.094455 0.408181 0.000000 -0.968780 0.247923 255 255 255 1.000000
-0.037471 -0.074123 0.546388 0.000000 -0.998150 -0.060800 255 255 255 1.000000
0.077382 -0.170849 0.456294 -0.047008 0.971295 -0.233188 255 255 255 1.000000
0.160700 -0.205311 0.176707 0.000000 0.989717 -0.143038 255 255 255 1.000000
-0.165712 0.158291 -0.275433 0.000000 -0.480813 -0.876823 102 45 29 1.000000
-0.423553 -0.650459 0.220386 -0.017489 0.995730 -0.090642 168 96 61 1.000000
0.483613 -0.181961 0.505464 -0.017454 0.085848 0.996155 255 255 255 1.000000
-0.298593 -0.226394 0.047337 0.042423 0.996191 -0.076184 168 96 61 1.000000
0.373220 -0.209979 0.018374 -0.934689 -0.355051 -0.017156 255 255 255 1.000000
0.100804 -0.652938 -0.315387 0.044071 0.999028 0.000000 255 255 255 1.000000
0.477572 0.123662 -0.176340 0.017103 -0.979405 -0.201179 168 96 61 1.000000
0.325680 0.391875 -0.383202 -0.008656 -0.357883 -0.933726 255 255 255 1.000000
-0.227274 0.766127 -0.447376 0.000000 0.206777 0.978388 255 255 255 1.000000
-0.217660 -0.164757 0.412562 0.155402 0.960557 -0.230609 255 255 255 1.000000
0.151727 0.612905 -0.439781 0.114002 0.095221 -0.988907 255 255 255 1.000000
-0.426013 0.162602 -0.176586 -0.017103 -0.979405 0.201182 255 255 255 1.000000
0.016341 0.760913 -0.446259 0.000000 -0.207226 -0.978293 102 45 29 1.000000
0.133784 0.802240 -0.454902 0.000000 0.075614 0.997137 255 255 255 1.000000
-0.294871 0.139457 -0.282627 0.999331 -0.033172 -0.015403 255 255 255 1.000000
0.226091 -0.097126 0.397113 0.000000 -0.965111 0.261841 255 255 255 1.000000
-0.048756 -0.651420 -0.278225 0.000000 -0.000000 1.000000 168 96 61 1.000000
-0.373688 -0.264970 0.516348 0.000000 -0.069757 -0.997564 168 96 61 1.000000
-0.309363 0.605050 -0.391406 0.019622 0.087248 -0.995993 255 255 255 1.000000
-0.293934 -0.175737 0.510108 0.000000 0.069757 0.997564 255 255 255 1.000000
-0.087622 0.522888 -0.422461 0.000000 0.081248 -0.996694 102 45 29 1.000000
-0.480554 -0.659860 0.206765 0.827243 -0.559635 0.049782 255 255 255 1.000000
0.320829 -0.152259 0.424560 -0.999961 -0.007916 -0.003897 168 96 61 1.000000
-0.042051 0.609320 -0.447660 0.036998 -0.095780 0.994715 168 96 61 1.000000
0.312219 -0.128391 0.506490 -0.999115 -0.041870 0.004016 255 255 255 1.000000
0.193170 -0.659056 -0.343677 0.086754 0.996230 0.000000 255 255 255 1.000000
-0.266242 -0.176737 0.021600 0.000000 0.996971 0.077776 102 45 29 1.000000
0.451977 -0.613229 0.497909 0.017540 0.622370 -0.782527 168 96 61 1.000000
0.369316 -0.198691 0.260311 -0.896284 0.437142 -0.074718 255 255 255 1.000000
-0.054588 -0.005094 -0.138737 0.000000 -0.039156 -0.999233 255 255 255 1.000000
0.319629 -0.098242 -0.128281 -0.999689 -0.024956 -0.000000 255 255 255 1.000000
0.277088 0.058134 -0.233885 -0.999351 -0.032360 -0.015820 168 96 61 1.000000
