ply
format ascii 1.0
element vertex 1269
property float x
property float y
property float z
property uchar red
property uchar green
property uchar blue
end_header
0.445981 -0.446702 0.405253 0 255 0
-0.362923 -0.373598 0.304134 127 127 0
0.005934 0.572482 -0.391216 153 0 76
0.025938 0.099984 0.088776 0 127 127
-0.431933 -0.074385 0.503367 127 127 0
-0.207409 -0.585027 -0.276934 127 127 0
-0.000478 0.107716 0.250929 0 127 127
-0.305933 0.701508 -0.334713 153 0 76
-0.200341 0.099366 0.000253 0 127 127
-0.389541 -0.441605 0.338509 127 127 0
0.120024 0.838757 -0.475421 153 0 76
-0.179415 0.763393 -0.420100 153 0 76
-0.244183 -0.444165 -0.009096 127 127 0
-0.055012 0.143977 -0.369786 153 0 76
0.448355 0.164077 0.332221 0 127 127
-0.003274 0.094572 0.083904 0 127 127
0.330141 -0.397901 0.190530 127 127 0
0.381920 0.172726 0.086571 0 127 127
0.158626 0.313682 -0.381419 153 0 76
0.419631 0.198263 0.075260 0 127 127
0.430528 -0.271377 0.475781 127 127 0
-0.343065 -0.079010 0.432192 127 127 0
0.280482 -0.281252 0.240181 0 255 0
-0.420477 -0.251698 0.495713 0 255 0
0.322325 -0.518069 0.008430 127 127 0
0.056382 0.526018 -0.386985 153 0 76
-0.040134 -0.507895 -0.240591 0 255 0
0.081936 0.354362 -0.389886 153 0 76
-0.025627 -0.472311 -0.185039 0 255 0
0.417152 -0.571577 0.333123 127 127 0
0.337423 0.417312 -0.315419 153 0 76
0.032431 0.637772 -0.399619 153 0 76
0.382234 0.183077 0.172177 0 127 127
0.140802 -0.246156 0.162654 127 127 0
-0.041268 0.070136 -0.052887 0 127 127
0.203125 -0.253915 0.196566 0 255 0
-0.072555 0.371083 -0.389805 153 0 76
-0.220070 0.090754 -0.077377 0 127 127
0.337459 -0.140324 0.397748 0 255 0
0.383248 -0.554041 0.174135 0 255 0
0.283952 0.687146 -0.350591 153 0 76
-0.401258 -0.498644 0.361440 0 255 0
-0.307217 -0.499519 0.028290 0 255 0
0.120772 -0.414629 -0.079775 127 127 0
0.359641 -0.226879 0.384040 0 255 0
-0.062068 -0.471735 -0.178716 0 255 0
-0.210690 0.097513 -0.239407 0 127 127
0.160871 -0.596322 -0.342439 127 127 0
0.045182 -0.251461 0.136975 0 255 0
0.088859 -0.086364 0.322602 0 255 0
0.166985 -0.050868 0.358552 127 127 0
0.127046 0.106133 0.133211 0 127 127
0.018355 0.342416 -0.387761 153 0 76
0.204034 -0.429525 -0.040835 127 127 0
0.104847 -0.558897 -0.306842 0 255 0
0.195551 0.516791 -0.370370 153 0 76
0.334114 0.130796 0.363558 0 127 127
-0.382539 -0.235747 0.425798 127 127 0
0.031711 -0.330291 0.030736 0 255 0
-0.415085 -0.408805 0.422247 127 127 0
0.273246 0.710181 -0.365567 153 0 76
0.168307 0.117524 0.182561 0 127 127
0.196744 0.738908 -0.407973 153 0 76
-0.303628 -0.176853 0.350384 0 255 0
0.424932 0.099195 0.482729 127 127 0
0.346347 0.476636 -0.306520 153 0 76
-0.305601 0.126415 -0.104240 0 127 127
-0.168775 -0.360910 0.034938 127 127 0
-0.080349 -0.439015 -0.122647 0 255 0
0.389900 -0.415443 0.337757 127 127 0
0.221599 -0.485801 -0.099315 0 255 0
0.098949 0.071160 -0.064723 0 127 127
0.046101 0.097412 0.073902 0 127 127
-0.286485 0.135520 0.301599 0 127 127
0.443071 -0.074257 0.519727 0 255 0
0.382486 -0.090530 0.465457 127 127 0
-0.155227 0.129593 -0.330808 153 0 76
0.448180 -0.163186 0.453076 127 127 0
0.405320 0.198843 0.265128 0 127 127
0.119839 0.665078 -0.403588 153 0 76
-0.132809 0.110745 0.200338 0 127 127
0.364962 -0.447604 0.218175 127 127 0
-0.019492 -0.462832 -0.178041 127 127 0
0.081778 -0.179732 0.222978 127 127 0
0.404538 -0.539468 0.322623 0 255 0
-0.340604 -0.399701 0.225623 127 127 0
-0.417944 0.206781 -0.006439 0 127 127
0.393415 0.183061 -0.003100 0 127 127
0.314601 0.129479 -0.018094 0 127 127
0.238313 0.689013 -0.375895 153 0 76
-0.141564 -0.362917 0.021252 0 255 0
-0.214197 0.098643 0.356815 0 127 127
0.447049 0.162944 0.121873 0 127 127
0.358986 -0.572833 0.023881 127 127 0
0.278956 0.115786 -0.018108 0 127 127
-0.357373 0.165378 0.152541 0 127 127
0.401263 -0.060114 0.497706 127 127 0
-0.434197 0.187719 -0.016617 0 127 127
0.148129 -0.009064 0.382446 0 255 0
0.358143 0.171088 -0.190812 0 127 127
0.038850 0.510321 -0.391397 153 0 76
0.283640 -0.315046 0.212455 0 255 0
-0.005356 0.083964 0.028390 0 127 127
0.340490 0.151960 0.308860 0 127 127
0.217722 0.545896 -0.369862 153 0 76
-0.305586 -0.565029 -0.091006 127 127 0
0.142312 -0.433300 -0.095846 127 127 0
-0.094147 -0.467862 -0.162407 0 255 0
0.025939 0.030093 0.381628 0 255 0
-0.367294 0.159039 -0.060196 0 127 127
-0.045719 0.699126 -0.417610 153 0 76
-0.204254 0.110328 -0.281202 0 127 127
-0.440347 -0.278868 0.472229 127 127 0
0.374485 -0.282602 0.373144 127 127 0
0.098244 0.080644 -0.028079 0 127 127
-0.248701 0.049408 0.402837 0 255 0
0.377988 -0.368549 0.341490 0 255 0
-0.437975 -0.123945 0.469054 127 127 0
0.444124 -0.233753 0.463439 127 127 0
-0.134563 0.560065 -0.381795 153 0 76
-0.046035 0.486572 -0.391123 153 0 76
-0.105933 0.684386 -0.404477 153 0 76
0.335486 -0.040485 0.433814 127 127 0
0.064376 -0.219240 0.172984 127 127 0
0.099858 0.797489 -0.458213 153 0 76
0.337544 -0.422258 0.187595 0 255 0
-0.340022 0.151670 0.089227 0 127 127
-0.416976 0.091939 0.468003 0 127 127
0.212891 -0.140629 0.304199 127 127 0
-0.303569 -0.096451 0.392391 127 127 0
0.445762 0.212875 -0.104333 0 127 127
0.428393 -0.450786 0.420587 0 255 0
-0.042117 0.845239 -0.518784 153 0 76
-0.337124 -0.425377 0.196486 0 255 0
-0.128284 -0.451565 -0.127833 127 127 0
-0.266720 0.109369 -0.078436 0 127 127
0.267750 0.136048 0.209059 0 127 127
0.371689 0.171125 0.219442 0 127 127
-0.182405 0.638883 -0.382110 153 0 76
-0.364057 0.160726 0.049750 0 127 127
0.436987 0.206860 0.097669 0 127 127
-0.270412 0.121502 0.057734 0 127 127
0.261595 -0.050613 0.389704 127 127 0
0.318561 -0.178442 0.358042 0 255 0
-0.281760 0.163300 -0.286354 153 0 76
-0.428102 -0.261835 0.474326 127 127 0
-0.154869 0.087125 0.350725 0 127 127
0.422358 0.139094 0.448819 0 127 127
0.338940 0.169554 -0.232327 153 0 76
0.110260 0.133988 -0.355705 153 0 76
-0.298007 0.369447 -0.339158 153 0 76
0.179287 0.361590 -0.377839 153 0 76
-0.278271 -0.507827 -0.042890 0 255 0
-0.139672 -0.076601 0.335263 127 127 0
-0.191336 -0.208359 0.241432 0 255 0
0.239846 0.101665 -0.193680 0 127 127
0.150593 0.063234 0.381055 0 255 0
0.219513 -0.205879 0.257349 0 255 0
0.017746 -0.342198 0.005656 127 127 0
-0.184148 0.826995 -0.464029 153 0 76
0.325119 0.132166 -0.084187 0 127 127
0.013669 0.305362 -0.392382 153 0 76
0.265117 -0.095835 0.364798 127 127 0
0.274313 -0.478641 -0.014275 0 255 0
0.186750 0.293039 -0.375833 153 0 76
0.383412 -0.445808 0.300430 0 255 0
0.365867 0.158165 -0.016051 0 127 127
-0.037352 -0.246258 0.136868 127 127 0
-0.309018 0.446927 -0.328735 153 0 76
-0.440508 -0.517794 0.369969 127 127 0
-0.244154 -0.574634 -0.214546 127 127 0
-0.205183 -0.525177 -0.174322 0 255 0
-0.434157 -0.307064 0.472570 0 255 0
-0.384574 0.060141 0.475345 0 255 0
0.092290 -0.320848 0.054606 0 255 0
-0.195700 0.516445 -0.373295 153 0 76
0.141039 0.077863 -0.082871 0 127 127
0.119474 -0.010737 0.373126 127 127 0
0.395315 0.179559 0.316334 0 127 127
0.172703 0.081310 -0.168311 0 127 127
0.401050 0.243561 -0.182090 153 0 76
-0.431435 0.193718 0.131145 0 127 127
0.237343 -0.591558 -0.249175 0 255 0
0.443691 -0.207662 0.472737 127 127 0
-0.057940 0.121240 -0.350811 153 0 76
-0.377033 -0.529315 0.183369 127 127 0
-0.304201 0.143094 0.238701 0 127 127
0.067178 0.126635 -0.350312 153 0 76
0.315393 0.735343 -0.375509 153 0 76
0.370107 -0.327724 0.347282 0 255 0
0.037462 0.079633 -0.288913 0 127 127
0.340875 0.468385 -0.316687 153 0 76
-0.077073 0.068373 -0.153993 0 127 127
-0.428307 0.039811 0.509005 0 255 0
-0.340477 -0.111670 0.415372 127 127 0
0.295848 0.350439 -0.338117 153 0 76
0.139285 0.238681 -0.379168 153 0 76
0.053963 0.090264 -0.302834 0 127 127
0.373470 -0.198856 0.419836 0 255 0
-0.305884 -0.194595 0.335297 127 127 0
0.423097 0.446673 -0.286415 153 0 76
0.375384 -0.093566 0.454909 127 127 0
-0.043794 0.275321 -0.391677 153 0 76
-0.369211 0.467634 -0.286367 153 0 76
0.008352 -0.364170 -0.019408 0 255 0
0.022223 0.779267 -0.452542 153 0 76
0.279466 0.133458 0.105848 0 127 127
-0.328111 -0.542869 0.011537 0 255 0
0.374332 0.289418 -0.277949 153 0 76
-0.404533 -0.272568 0.474971 0 255 0
0.221678 0.674360 -0.379416 153 0 76
-0.278325 -0.484364 -0.016155 127 127 0
-0.206620 -0.371297 0.053022 127 127 0
-0.108590 0.058456 0.373652 0 127 127
0.415845 0.200252 -0.082532 0 127 127
-0.388226 -0.013495 0.489279 127 127 0
0.437466 -0.096535 0.504071 127 127 0
-0.438692 -0.345642 0.452147 0 255 0
-0.101933 -0.385837 -0.033079 0 255 0
-0.073752 -0.210892 0.192604 0 255 0
0.050608 -0.563124 -0.336625 127 127 0
-0.144220 0.551067 -0.379666 153 0 76
0.292089 0.546311 -0.343634 153 0 76
0.414671 0.119752 0.449380 0 127 127
-0.101413 -0.319650 0.054611 127 127 0
0.202958 0.813488 -0.455227 153 0 76
0.439014 0.191359 0.173728 0 127 127
-0.393667 0.224990 -0.158417 0 127 127
0.224876 0.090034 -0.152121 0 127 127
-0.002617 0.275288 -0.392351 153 0 76
-0.222726 0.100939 -0.023632 0 127 127
-0.361266 0.184521 -0.180346 0 127 127
-0.393777 -0.490110 0.336350 0 255 0
-0.273443 -0.463850 0.016225 0 255 0
-0.273301 0.133018 0.252541 0 127 127
0.219941 -0.264907 0.197503 0 255 0
0.336431 0.142316 -0.123074 0 127 127
-0.365537 0.479718 -0.289007 153 0 76
-0.035013 0.085050 0.011735 0 127 127
-0.341507 -0.389429 0.240594 127 127 0
0.266427 0.753726 -0.388610 153 0 76
0.448331 -0.313756 0.440326 0 255 0
-0.374139 0.459410 -0.275891 153 0 76
-0.109245 -0.369415 -0.012980 127 127 0
0.191719 0.104132 0.322106 0 127 127
-0.363551 0.242048 -0.263865 153 0 76
0.081784 -0.138221 0.273504 0 255 0
-0.185405 0.215430 -0.370238 153 0 76
0.004053 0.803381 -0.467408 153 0 76
0.327819 -0.484446 0.082100 0 255 0
0.433850 0.320485 -0.255302 153 0 76
0.364475 0.094219 0.426933 0 127 127
-0.185042 -0.578715 -0.289041 127 127 0
-0.437521 0.114896 0.425636 0 127 127
0.398838 0.369513 -0.252177 153 0 76
0.179616 0.115340 0.219978 0 127 127
0.219177 -0.102610 0.342825 0 255 0
-0.052470 -0.524355 -0.272872 127 127 0
0.348294 0.195555 -0.257077 153 0 76
0.024350 -0.459734 -0.173284 127 127 0
-0.442135 -0.342579 0.409541 127 127 0
0.155187 0.080018 -0.082017 0 127 127
0.125779 -0.482183 -0.173385 0 255 0
-0.376708 -0.304491 0.380481 127 127 0
0.376098 -0.453861 0.263023 0 255 0
0.271448 -0.262995 0.240210 127 127 0
-0.211921 -0.243104 0.212881 127 127 0
0.440294 -0.041688 0.500439 127 127 0
-0.271819 -0.359343 0.147033 127 127 0
0.258351 -0.305055 0.185060 127 127 0
-0.200859 0.338520 -0.371904 153 0 76
-0.274794 0.246527 -0.342573 153 0 76
0.372290 0.230059 -0.239871 153 0 76
0.397695 0.187838 0.117072 0 127 127
-0.388354 -0.307065 0.409520 127 127 0
-0.066913 0.848337 -0.499160 153 0 76
-0.093983 0.493225 -0.388386 153 0 76
-0.057566 0.030230 0.382501 0 255 0
0.394975 0.321047 -0.255449 153 0 76
-0.122777 0.358996 -0.385497 153 0 76
0.201484 -0.456613 -0.083499 127 127 0
0.005224 0.067853 -0.228117 0 127 127
-0.237494 0.096487 -0.063646 0 127 127
-0.323857 0.142489 0.073180 0 127 127
0.267349 0.130083 0.249984 0 127 127
0.416298 0.379589 -0.248270 153 0 76
0.034367 0.107760 0.253800 0 127 127
-0.229415 0.541153 -0.364922 153 0 76
0.237925 -0.367222 0.093625 0 255 0
-0.210583 0.153952 -0.328595 153 0 76
-0.309223 -0.604927 -0.146433 127 127 0
-0.394883 -0.581123 0.261552 0 255 0
0.248013 -0.412202 0.035470 127 127 0
0.080471 0.069228 -0.128850 0 127 127
0.216217 0.093699 -0.190175 0 127 127
-0.084398 0.147815 -0.368601 153 0 76
0.274683 -0.492062 -0.034130 0 255 0
-0.014538 -0.237480 0.146338 127 127 0
-0.215473 0.110874 0.048116 0 127 127
-0.328619 -0.520978 0.034190 127 127 0
0.387246 0.469869 -0.272096 153 0 76
0.436341 0.144015 0.407668 0 127 127
0.396716 -0.494083 0.293216 127 127 0
-0.397459 -0.227773 0.463561 127 127 0
0.158782 -0.499387 -0.180021 0 255 0
0.078797 0.642410 -0.402939 153 0 76
-0.371477 -0.344993 0.343281 127 127 0
0.347336 0.440755 -0.307692 153 0 76
0.379228 0.177143 0.279111 0 127 127
0.047294 0.234871 -0.391386 153 0 76
-0.392984 -0.550504 0.248739 127 127 0
-0.290892 -0.567666 -0.115346 0 255 0
0.084102 0.528409 -0.385579 153 0 76
-0.387882 -0.567294 0.219693 0 255 0
0.292871 0.119864 0.010705 0 127 127
0.076421 0.392638 -0.385438 153 0 76
0.448214 0.097646 0.401733 0 127 127
0.394065 -0.363774 0.380060 127 127 0
-0.276794 0.129954 0.292670 0 127 127
-0.264234 0.315641 -0.347683 153 0 76
-0.318773 0.133642 0.021628 0 127 127
-0.317312 0.562383 -0.319767 153 0 76
-0.112597 0.752263 -0.431072 153 0 76
0.032223 0.347922 -0.391752 153 0 76
0.208539 0.756984 -0.404240 153 0 76
0.444920 -0.181000 0.501493 0 255 0
-0.190408 -0.491674 -0.144213 127 127 0
0.421249 0.209172 0.171800 0 127 127
0.316332 -0.044746 0.425669 0 255 0
-0.296191 0.553079 -0.338324 153 0 76
0.362036 0.107468 0.413201 0 127 127
-0.029644 -0.190084 0.212315 0 255 0
0.281627 0.130266 0.288357 0 127 127
0.401312 -0.408493 0.393176 0 255 0
0.220846 0.709280 -0.390994 153 0 76
-0.442094 -0.022385 0.501892 127 127 0
-0.396674 0.216247 -0.148434 0 127 127
0.221669 0.125877 0.176197 0 127 127
0.047660 -0.334023 0.019935 127 127 0
-0.390891 -0.500208 0.313955 0 255 0
-0.189417 -0.360534 0.052130 127 127 0
0.337496 0.243253 -0.302749 153 0 76
0.111228 0.594409 -0.388680 153 0 76
0.182060 0.718543 -0.401392 153 0 76
0.110151 0.073658 -0.092357 0 127 127
-0.165451 0.114247 0.187675 0 127 127
0.055387 -0.131421 0.277765 0 255 0
0.243632 -0.615606 -0.281108 0 255 0
-0.129931 -0.557645 -0.289190 0 255 0
0.231596 0.091931 -0.080455 0 127 127
0.222178 0.309439 -0.363503 153 0 76
-0.389324 -0.458612 0.341469 0 255 0
0.417074 0.169836 0.377851 0 127 127
-0.262192 0.500397 -0.349254 153 0 76
0.447196 -0.089644 0.510627 127 127 0
0.119431 -0.195007 0.214580 127 127 0
-0.277315 -0.541179 -0.108305 127 127 0
0.004805 -0.441119 -0.144904 127 127 0
0.024299 -0.086725 0.312377 127 127 0
0.401785 0.270958 -0.218415 153 0 76
-0.220831 0.032920 0.404017 0 255 0
0.425348 0.198985 0.209173 0 127 127
0.155246 0.105989 0.085336 0 127 127
0.402116 0.407929 -0.257473 153 0 76
-0.440071 -0.477186 0.391170 127 127 0
0.328986 0.150702 0.200863 0 127 127
0.369803 0.263172 -0.266889 153 0 76
0.092102 0.107145 0.194680 0 127 127
0.039683 0.072618 -0.251621 0 127 127
-0.186947 -0.339652 0.078392 127 127 0
-0.222392 -0.050022 0.377289 127 127 0
0.156869 -0.314085 0.086663 127 127 0
-0.176283 0.311986 -0.377064 153 0 76
0.021972 0.319069 -0.392262 153 0 76
0.167923 -0.253537 0.174384 0 255 0
0.232384 -0.313268 0.157144 0 255 0
0.326147 0.086252 0.408922 0 127 127
0.386152 -0.243986 0.427313 0 255 0
-0.236817 0.506944 -0.358160 153 0 76
-0.254486 0.126030 0.123062 0 127 127
0.425848 0.260872 -0.194099 153 0 76
-0.004234 0.107112 0.147441 0 127 127
0.408050 -0.249862 0.467261 127 127 0
0.014058 -0.433334 -0.125307 0 255 0
0.138650 0.087747 0.353680 0 127 127
0.375422 0.586294 -0.289699 153 0 76
0.337431 -0.363442 0.254527 0 255 0
-0.055510 -0.163882 0.238419 127 127 0
0.329792 -0.585731 -0.069561 0 255 0
0.119226 0.069467 -0.211035 0 127 127
-0.296143 0.117415 -0.052263 0 127 127
-0.359800 -0.509337 0.159267 0 255 0
-0.311608 0.305832 -0.324041 153 0 76
0.295881 -0.291097 0.242889 127 127 0
0.226456 0.117756 -0.283112 153 0 76
0.109739 0.110806 0.253526 0 127 127
0.016656 0.048103 0.373191 127 127 0
0.114012 -0.255548 0.146951 0 255 0
-0.257755 0.376943 -0.351247 153 0 76
0.073323 -0.287937 0.086581 127 127 0
-0.068675 -0.090165 0.317669 0 255 0
-0.152944 0.084362 -0.045544 0 127 127
-0.442197 -0.021287 0.474267 127 127 0
-0.240436 0.729389 -0.384145 153 0 76
0.255282 0.120700 0.088534 0 127 127
0.436987 0.180299 0.329510 0 127 127
0.145368 0.544645 -0.379963 153 0 76
0.298753 0.143884 0.234268 0 127 127
0.000395 0.073489 -0.052163 0 127 127
-0.086193 0.070518 -0.116581 0 127 127
0.006055 -0.278117 0.100362 0 255 0
0.388716 0.181209 0.135316 0 127 127
0.432725 0.196849 0.164112 0 127 127
0.042262 0.068130 -0.115077 0 127 127
-0.375867 0.196364 -0.159895 0 127 127
-0.121990 -0.006005 0.376253 127 127 0
-0.199500 -0.484738 -0.124257 127 127 0
-0.336512 0.151152 0.063038 0 127 127
-0.109726 0.396265 -0.386546 153 0 76
0.373039 0.333381 -0.286897 153 0 76
0.048335 -0.206615 0.193368 0 255 0
0.439307 0.261052 -0.205636 153 0 76
-0.397501 0.291740 -0.218242 153 0 76
0.283404 -0.042472 0.408653 0 255 0
0.152994 -0.512494 -0.213246 127 127 0
-0.438262 0.180005 0.182746 0 127 127
0.240932 0.126835 0.133044 0 127 127
-0.093583 0.070030 -0.170185 0 127 127
-0.101924 -0.260511 0.131932 127 127 0
0.377601 -0.274616 0.383668 127 127 0
-0.182637 0.706031 -0.395946 153 0 76
0.416920 -0.535500 0.379410 0 255 0
-0.026679 0.675089 -0.407138 153 0 76
-0.274180 -0.376637 0.127922 127 127 0
0.249214 -0.259814 0.221502 127 127 0
0.236309 -0.259812 0.216611 0 255 0
-0.062804 0.103618 0.144279 0 127 127
0.063433 0.105920 0.197583 0 127 127
-0.088448 0.110565 0.164061 0 127 127
-0.394919 0.192453 0.171647 0 127 127
-0.271330 0.121655 0.028373 0 127 127
-0.319829 0.499712 -0.320610 153 0 76
-0.250326 0.710355 -0.370768 153 0 76
-0.201959 -0.116022 0.322141 127 127 0
0.380409 0.175321 0.302925 0 127 127
0.436446 0.212422 -0.072013 0 127 127
-0.244111 0.771478 -0.387899 153 0 76
-0.154597 0.078973 -0.141681 0 127 127
-0.274810 0.133766 -0.254024 0 127 127
-0.438211 0.100890 0.421988 0 127 127
-0.065620 -0.012679 0.373020 0 255 0
0.344153 0.402666 -0.310809 153 0 76
0.295976 0.488193 -0.337457 153 0 76
0.360403 -0.553645 0.060072 127 127 0
-0.131780 0.077785 -0.247447 0 127 127
0.158207 0.078514 -0.132225 0 127 127
-0.026734 0.120025 -0.351668 153 0 76
-0.329300 0.713022 -0.351475 153 0 76
0.012092 -0.176806 0.220707 127 127 0
0.332379 0.302586 -0.319343 153 0 76
-0.082162 0.069917 -0.068011 0 127 127
0.296958 0.525721 -0.341336 153 0 76
-0.373272 -0.538945 0.173572 0 255 0
-0.258594 -0.107800 0.356071 127 127 0
0.201148 -0.089061 0.346650 0 255 0
0.275846 -0.513968 -0.075864 127 127 0
-0.306317 -0.312004 0.254443 0 255 0
0.226239 -0.235536 0.233666 0 255 0
0.066646 0.087334 0.020011 0 127 127
-0.018964 -0.114581 0.292509 0 255 0
0.445103 -0.511925 0.378653 127 127 0
0.115362 0.094475 0.335108 0 127 127
-0.117779 -0.530524 -0.260166 127 127 0
-0.442177 -0.204436 0.476919 127 127 0
-0.241551 0.127089 0.120049 0 127 127
-0.397810 -0.353372 0.426405 0 255 0
0.323546 0.094940 0.399964 0 127 127
0.311408 0.713538 -0.352145 153 0 76
-0.356548 0.119348 0.406959 0 127 127
-0.050558 -0.210303 0.189762 0 255 0
-0.016535 0.373685 -0.386892 153 0 76
-0.389019 0.181144 0.335752 0 127 127
-0.149690 0.102398 0.082812 0 127 127
-0.197828 -0.579249 -0.269544 0 255 0
-0.121458 -0.029558 0.365214 127 127 0
0.328358 0.626443 -0.320120 153 0 76
0.259878 0.426368 -0.352607 153 0 76
-0.257976 0.119014 0.063602 0 127 127
-0.044842 0.077470 -0.007880 0 127 127
0.375959 -0.119477 0.446243 127 127 0
-0.411109 0.471567 -0.299902 153 0 76
-0.060296 0.097709 0.302651 0 127 127
0.358948 0.164502 0.280897 0 127 127
0.448348 0.142843 0.387593 0 127 127
-0.273382 0.108002 -0.119606 0 127 127
-0.171014 0.755270 -0.415293 153 0 76
0.394568 -0.549431 0.247718 0 255 0
-0.346175 0.148446 -0.046760 0 127 127
-0.175604 0.809617 -0.451389 153 0 76
0.327463 -0.103173 0.402356 127 127 0
-0.351351 -0.616119 -0.042804 0 255 0
-0.010660 0.535346 -0.388023 153 0 76
-0.146387 -0.257051 0.161648 0 255 0
-0.316496 0.152330 0.182758 0 127 127
-0.066199 -0.550211 -0.303564 0 255 0
0.408622 -0.392632 0.411261 127 127 0
0.395406 0.300522 -0.249926 153 0 76
0.386164 -0.505623 0.248719 0 255 0
0.267120 0.752541 -0.372489 153 0 76
0.342685 0.209260 -0.269647 153 0 76
-0.034703 0.085692 0.035519 0 127 127
0.209883 0.110693 0.308348 0 127 127
-0.382598 0.189678 -0.136908 0 127 127
0.308796 -0.247911 0.295206 127 127 0
0.317553 0.123505 -0.073989 0 127 127
-0.348271 -0.530656 0.090669 0 255 0
-0.082328 -0.497548 -0.221938 127 127 0
-0.069576 -0.504480 -0.237396 127 127 0
0.044140 0.681484 -0.412857 153 0 76
0.217033 -0.531157 -0.186282 127 127 0
0.409179 -0.578035 0.296175 127 127 0
0.111172 -0.154466 0.256631 127 127 0
-0.107250 -0.194381 0.213293 127 127 0
-0.057085 -0.281379 0.093695 127 127 0
0.392007 -0.386883 0.360689 127 127 0
0.350389 -0.367637 0.276907 0 255 0
0.356505 -0.110375 0.426338 127 127 0
0.259809 0.105216 -0.131512 0 127 127
0.396929 0.429559 -0.261909 153 0 76
-0.334730 -0.317165 0.286595 127 127 0
-0.298177 0.059024 0.420943 0 255 0
-0.383827 -0.525148 0.245498 0 255 0
0.017193 -0.338263 0.018690 0 255 0
-0.198013 0.821928 -0.455218 153 0 76
0.444150 -0.026210 0.473198 127 127 0
0.216307 0.125178 0.188773 0 127 127
-0.033125 -0.110593 0.290874 127 127 0
0.345969 -0.197529 0.379101 0 255 0
-0.105366 0.087399 0.026301 0 127 127
-0.187797 0.117473 0.215643 0 127 127
-0.406543 -0.566236 0.326491 127 127 0
0.011077 0.583894 -0.396327 153 0 76
-0.378551 0.326298 -0.270884 153 0 76
0.413206 -0.567714 0.353400 0 255 0
0.270572 -0.524337 -0.102509 127 127 0
0.249808 -0.490308 -0.079194 127 127 0
-0.157207 0.101173 -0.297129 0 127 127
-0.052250 -0.054451 0.345628 0 255 0
-0.016194 -0.059769 0.340681 0 255 0
0.396615 -0.329604 0.417086 0 255 0
-0.335118 0.084485 0.423927 0 127 127
0.289024 0.111198 -0.107393 0 127 127
0.313441 -0.156532 0.359589 127 127 0
-0.401514 -0.174585 0.496409 0 255 0
0.396502 0.452365 -0.267379 153 0 76
0.060572 -0.301150 0.073819 0 255 0
0.087451 -0.533050 -0.271771 0 255 0
0.040258 -0.356578 -0.013579 127 127 0
0.267684 0.021565 0.415700 0 255 0
-0.413954 0.197859 0.285628 0 127 127
0.310150 -0.561334 -0.088195 127 127 0
0.126771 0.109255 0.226076 0 127 127
0.407768 -0.527506 0.347304 0 255 0
0.040604 0.324440 -0.387708 153 0 76
-0.416065 0.397088 -0.269218 153 0 76
-0.266218 0.580648 -0.353427 153 0 76
0.027657 -0.478509 -0.195316 0 255 0
-0.315336 -0.179628 0.354041 127 127 0
0.097310 0.326278 -0.389005 153 0 76
0.062980 0.073305 -0.034597 0 127 127
-0.356758 0.550572 -0.287034 153 0 76
-0.179692 -0.554607 -0.247061 0 255 0
-0.316089 0.424905 -0.329875 153 0 76
-0.034342 -0.456868 -0.167261 127 127 0
0.281171 0.106417 0.361781 0 127 127
0.006721 0.657797 -0.403792 153 0 76
0.394253 -0.464374 0.331141 0 255 0
0.355313 -0.137716 0.411978 127 127 0
-0.440745 0.242823 -0.169959 0 127 127
-0.395534 -0.427008 0.384957 0 255 0
-0.237042 -0.371880 0.093378 0 255 0
0.308194 -0.195124 0.337745 0 255 0
0.379559 0.461715 -0.282914 153 0 76
0.185798 0.213150 -0.366711 153 0 76
0.321410 0.394878 -0.330464 153 0 76
-0.045720 0.092179 0.068097 0 127 127
0.203552 0.716889 -0.394416 153 0 76
0.354907 -0.080171 0.443415 0 255 0
-0.143401 -0.565663 -0.293430 0 255 0
0.256020 0.451138 -0.353878 153 0 76
-0.248824 -0.543243 -0.147702 0 255 0
0.353297 -0.243270 0.365424 0 255 0
0.362885 0.152496 0.008215 0 127 127
0.349417 -0.340941 0.294336 0 255 0
-0.436954 0.307484 -0.246030 153 0 76
0.005240 -0.534634 -0.294079 127 127 0
-0.090915 -0.035301 0.357506 127 127 0
-0.152343 0.108989 0.130146 0 127 127
0.413186 0.300208 -0.208973 153 0 76
0.334658 -0.561699 -0.017405 0 255 0
-0.182257 -0.089095 0.336547 127 127 0
-0.146536 -0.300561 0.108861 0 255 0
0.368060 -0.215263 0.403541 0 255 0
-0.393868 0.254790 -0.209536 153 0 76
0.103684 -0.010971 0.371604 127 127 0
-0.180588 0.478422 -0.376330 153 0 76
0.106729 0.404704 -0.387360 153 0 76
0.072313 0.591206 -0.395535 153 0 76
-0.221251 -0.280148 0.186745 0 255 0
-0.141958 0.161133 -0.359279 153 0 76
-0.045731 0.450408 -0.386779 153 0 76
-0.414725 -0.300933 0.461920 127 127 0
0.393233 0.146351 0.406913 0 127 127
0.417869 -0.113877 0.507373 127 127 0
0.216638 -0.015990 0.389701 127 127 0
-0.114746 0.167765 -0.372138 153 0 76
0.200900 0.106634 -0.280841 0 127 127
-0.183020 0.293052 -0.375373 153 0 76
0.326006 -0.350374 0.235453 127 127 0
-0.302769 0.141984 -0.228925 0 127 127
0.009928 -0.074252 0.329031 0 255 0
-0.034709 -0.571065 -0.342565 0 255 0
-0.170856 0.097411 -0.277797 0 127 127
0.182244 -0.388418 0.009359 0 255 0
0.128638 0.185910 -0.372602 153 0 76
-0.377449 0.578517 -0.306893 153 0 76
0.238904 -0.038794 0.386636 127 127 0
-0.387838 -0.434067 0.353615 0 255 0
0.309570 -0.592146 -0.127214 0 255 0
0.383703 -0.302946 0.383468 127 127 0
-0.343312 0.141784 -0.035046 0 127 127
-0.249544 0.127380 0.152790 0 127 127
-0.078170 0.358426 -0.385759 153 0 76
0.228899 0.005425 0.398665 127 127 0
0.414890 -0.035985 0.510187 127 127 0
0.332575 -0.576802 -0.047512 0 255 0
-0.275705 0.127259 -0.220401 0 127 127
0.104238 -0.491854 -0.199488 0 255 0
0.048672 0.107286 0.262335 0 127 127
-0.438470 0.202611 -0.051911 0 127 127
-0.196602 0.116551 0.143496 0 127 127
0.087172 0.482864 -0.385167 153 0 76
-0.442180 0.078699 0.430118 0 127 127
0.223765 -0.592173 -0.276110 127 127 0
0.078215 -0.170151 0.239758 0 255 0
-0.388841 -0.567683 0.196551 127 127 0
0.143325 0.154124 -0.362663 153 0 76
-0.348544 -0.443526 0.193193 127 127 0
-0.038945 0.580849 -0.391572 153 0 76
-0.411504 0.105195 0.476808 0 255 0
-0.060367 -0.596757 -0.387856 127 127 0
0.252168 -0.372804 0.103376 0 255 0
0.380186 0.169402 0.335159 0 127 127
0.363373 -0.481144 0.188227 0 255 0
-0.371219 -0.580444 0.102475 0 255 0
-0.356850 0.484097 -0.296819 153 0 76
-0.257807 -0.587568 -0.215397 127 127 0
0.321807 -0.331128 0.252916 0 255 0
-0.129011 0.090560 0.347695 0 127 127
-0.047899 -0.599706 -0.394684 127 127 0
0.446968 0.146841 0.280421 0 127 127
0.019779 0.756565 -0.435496 153 0 76
0.110507 0.108431 0.205069 0 127 127
0.186707 -0.141586 0.292210 127 127 0
-0.333906 -0.586240 -0.041818 0 255 0
-0.062662 -0.183043 0.223711 0 255 0
0.026910 0.423149 -0.386590 153 0 76
-0.061584 -0.486417 -0.202517 0 255 0
-0.130498 0.077950 -0.223968 0 127 127
-0.261305 -0.525448 -0.099715 0 255 0
-0.408519 0.195410 0.040643 0 127 127
0.252579 0.111012 0.032873 0 127 127
0.439505 -0.542045 0.347708 127 127 0
-0.040019 0.062335 -0.194149 0 127 127
0.238874 0.582091 -0.361837 153 0 76
0.158258 -0.174969 0.249730 127 127 0
-0.441803 0.221357 -0.158028 0 127 127
0.252173 -0.608778 -0.256913 0 255 0
0.302493 -0.598434 -0.152533 0 255 0
0.188058 0.820359 -0.466419 153 0 76
-0.110519 0.072196 -0.152269 0 127 127
0.010074 0.844602 -0.513076 153 0 76
-0.318220 0.673567 -0.321076 153 0 76
0.367091 0.488735 -0.295926 153 0 76
0.320463 0.569700 -0.326803 153 0 76
0.334297 0.640310 -0.310888 153 0 76
-0.401837 0.509316 -0.305065 153 0 76
0.448208 0.059342 0.454933 127 127 0
-0.148677 -0.246647 0.168636 127 127 0
-0.390801 0.181033 0.016703 0 127 127
-0.135351 0.075825 -0.171449 0 127 127
-0.351622 -0.089568 0.442901 0 255 0
0.274076 -0.597976 -0.214572 127 127 0
0.159447 0.094761 0.016442 0 127 127
-0.339180 -0.467295 0.151351 0 255 0
-0.438083 -0.073334 0.477442 127 127 0
-0.014925 0.083143 0.340731 0 127 127
0.009273 0.697483 -0.413638 153 0 76
0.400733 0.061866 0.478877 127 127 0
0.057995 -0.455508 -0.154781 0 255 0
-0.422617 -0.190807 0.510013 0 255 0
0.358839 0.163459 0.169016 0 127 127
0.097749 -0.033311 0.363912 0 255 0
0.320943 0.456669 -0.330039 153 0 76
-0.227343 -0.128554 0.323967 127 127 0
-0.153661 0.242490 -0.379862 153 0 76
0.250913 0.764019 -0.385883 153 0 76
0.137553 -0.605949 -0.373425 127 127 0
0.150189 0.111050 0.168008 0 127 127
0.178538 -0.487626 -0.145494 0 255 0
0.034386 -0.149179 0.258707 0 255 0
-0.408018 -0.051865 0.520890 0 255 0
-0.315950 -0.532075 -0.015272 127 127 0
-0.438738 0.144139 0.433572 0 127 127
0.081080 0.079493 -0.003826 0 127 127
-0.234787 0.122501 0.270969 0 127 127
0.195993 -0.318094 0.109644 127 127 0
0.228794 0.122891 0.227383 0 127 127
-0.284930 0.137259 0.235621 0 127 127
0.257706 0.087717 0.385280 0 127 127
-0.125806 0.106580 0.272749 0 127 127
0.190625 0.088508 -0.236937 0 127 127
-0.222336 0.126063 0.153361 0 127 127
-0.442069 -0.552888 0.339597 127 127 0
-0.033439 0.161794 -0.373594 153 0 76
-0.169587 -0.293958 0.132278 0 255 0
0.444151 -0.078286 0.471305 127 127 0
0.007739 0.150459 -0.374627 153 0 76
0.307179 -0.093742 0.392380 127 127 0
0.390735 0.538835 -0.300122 153 0 76
0.444149 -0.098213 0.474835 127 127 0
-0.299461 -0.517884 -0.017531 0 255 0
-0.323187 0.150315 0.284564 0 127 127
-0.386352 -0.470267 0.316747 0 255 0
-0.436212 0.182753 0.283211 0 127 127
-0.173322 0.083447 -0.186878 0 127 127
0.438720 -0.487940 0.377020 127 127 0
-0.319718 -0.267441 0.309742 0 255 0
-0.108474 0.071347 -0.233001 0 127 127
0.082963 -0.113644 0.297046 0 255 0
-0.252706 0.036700 0.411491 0 255 0
-0.263987 0.218233 -0.335998 153 0 76
0.197363 0.370588 -0.374112 153 0 76
0.107503 0.193121 -0.377846 153 0 76
-0.020382 0.066334 -0.162613 0 127 127
0.096207 0.040941 0.383536 0 255 0
0.384387 -0.465650 0.283313 0 255 0
0.376868 0.174293 0.184909 0 127 127
-0.136210 0.419644 -0.383370 153 0 76
-0.138831 -0.546068 -0.272899 127 127 0
0.348673 0.281278 -0.298007 153 0 76
0.293853 0.422837 -0.339533 153 0 76
-0.379225 -0.468052 0.284642 0 255 0
0.253461 -0.433689 0.019603 0 255 0
0.136027 -0.165736 0.251682 127 127 0
0.130083 0.380799 -0.380980 153 0 76
0.372593 -0.154157 0.427729 127 127 0
0.384812 -0.545106 0.193252 0 255 0
-0.225125 0.619703 -0.367740 153 0 76
-0.355674 -0.408370 0.255162 127 127 0
0.265168 0.365935 -0.350787 153 0 76
0.066453 -0.415703 -0.092667 0 255 0
0.219295 -0.325201 0.121795 127 127 0
0.326256 -0.431381 0.151019 0 255 0
-0.206961 -0.455109 -0.070631 127 127 0
-0.386364 0.177319 -0.049870 0 127 127
0.226787 -0.442150 -0.035304 127 127 0
0.141433 -0.117340 0.298959 127 127 0
0.137036 0.032140 0.384397 127 127 0
-0.205061 0.132092 -0.316990 153 0 76
0.228471 0.796174 -0.428307 153 0 76
0.042758 -0.237484 0.147606 127 127 0
0.114064 0.106046 0.143179 0 127 127
0.089057 0.067176 -0.097271 0 127 127
0.443614 0.178708 0.068814 0 127 127
0.372453 0.172056 -0.122229 0 127 127
-0.304519 -0.030283 0.426710 0 255 0
-0.297788 0.121769 -0.072413 0 127 127
-0.041671 0.462549 -0.391210 153 0 76
0.239508 -0.329026 0.146279 0 255 0
-0.201191 0.089210 -0.099723 0 127 127
0.065725 0.722781 -0.425181 153 0 76
0.107370 -0.266099 0.131508 0 255 0
0.290024 0.011801 0.418722 127 127 0
0.087672 0.121184 -0.342262 153 0 76
0.344977 0.146760 -0.145805 0 127 127
0.407743 0.305245 -0.221078 153 0 76
0.309381 0.469885 -0.331465 153 0 76
-0.355702 0.165627 0.199582 0 127 127
0.192268 0.272883 -0.374133 153 0 76
-0.175208 0.498244 -0.373343 153 0 76
-0.050397 0.687412 -0.414064 153 0 76
-0.109437 -0.235241 0.165647 127 127 0
0.033591 -0.344945 0.002684 127 127 0
0.335207 0.209559 -0.286736 153 0 76
0.284660 -0.541481 -0.105786 127 127 0
0.356662 -0.565173 0.044076 0 255 0
0.202265 -0.524070 -0.181747 0 255 0
0.054612 0.097801 0.300684 0 127 127
0.448254 0.183466 0.300319 0 127 127
-0.253481 -0.351030 0.141553 0 255 0
-0.417231 -0.063742 0.525466 0 255 0
-0.296447 0.260066 -0.328011 153 0 76
-0.316427 0.211220 -0.294607 153 0 76
-0.396500 -0.582494 0.237961 127 127 0
0.043622 -0.446104 -0.149924 127 127 0
0.276345 0.137150 0.240992 0 127 127
-0.413401 -0.382613 0.428050 127 127 0
-0.442157 0.179461 0.142303 0 127 127
0.044726 0.795244 -0.456754 153 0 76
0.092590 0.103536 0.274922 0 127 127
0.279232 -0.468278 0.009268 0 255 0
-0.085101 0.096653 -0.309688 0 127 127
0.281365 -0.534925 -0.091214 0 255 0
-0.213270 -0.477558 -0.088937 0 255 0
-0.150922 0.833982 -0.467086 153 0 76
0.149611 -0.427559 -0.074566 0 255 0
-0.280053 0.114479 -0.071768 0 127 127
0.407318 -0.504010 0.341798 127 127 0
-0.329765 -0.379722 0.236044 0 255 0
-0.219655 0.752416 -0.395313 153 0 76
0.234077 0.105377 -0.000088 0 127 127
0.443821 0.037573 0.469401 127 127 0
-0.442190 0.038369 0.471158 127 127 0
-0.407506 -0.578983 0.349016 0 255 0
0.447803 0.068955 0.424130 0 127 127
-0.380590 -0.566456 0.152362 127 127 0
-0.080836 0.839293 -0.483502 153 0 76
-0.025050 0.630282 -0.398179 153 0 76
-0.030616 0.102574 0.106206 0 127 127
0.234004 -0.470006 -0.068071 127 127 0
0.431025 -0.182508 0.492393 127 127 0
-0.220274 0.631044 -0.374847 153 0 76
0.060757 0.104384 0.115843 0 127 127
-0.051258 0.097117 -0.316945 0 127 127
0.108441 0.718222 -0.415458 153 0 76
-0.426834 0.195655 0.033416 0 127 127
0.185712 -0.523379 -0.196542 0 255 0
-0.267724 0.124796 0.084021 0 127 127
-0.121308 0.493898 -0.385640 153 0 76
0.445293 0.188111 0.350605 0 127 127
-0.059889 0.778439 -0.445480 153 0 76
0.147098 -0.278195 0.133781 0 255 0
-0.091416 0.382460 -0.388329 153 0 76
0.346558 -0.485978 0.128579 0 255 0
0.319735 -0.443944 0.121463 0 255 0
-0.196014 0.090370 -0.065373 0 127 127
0.381490 -0.347814 0.351316 127 127 0
0.413773 0.131215 0.443024 0 127 127
-0.247151 -0.170133 0.309976 0 255 0
0.015550 -0.212607 0.177758 127 127 0
0.070062 -0.463562 -0.173127 127 127 0
0.391068 0.156157 0.387834 0 127 127
0.176480 -0.536450 -0.233951 127 127 0
-0.177887 -0.544174 -0.240174 127 127 0
0.063313 0.339708 -0.391067 153 0 76
0.205641 -0.531118 -0.197829 127 127 0
-0.260862 -0.132150 0.340129 127 127 0
-0.333478 -0.601951 -0.081826 127 127 0
0.338076 0.140079 -0.089972 0 127 127
-0.442183 0.087520 0.417895 0 127 127
-0.093787 0.173998 -0.377208 153 0 76
-0.056842 -0.107961 0.300376 0 255 0
0.275321 -0.544108 -0.116231 0 255 0
-0.282765 0.417123 -0.346126 153 0 76
0.263487 -0.557554 -0.167584 127 127 0
0.363512 0.158142 0.065600 0 127 127
0.289934 0.130022 -0.214372 0 127 127
-0.047048 0.811274 -0.471537 153 0 76
-0.354796 -0.337270 0.319678 0 255 0
0.366341 0.550408 -0.286047 153 0 76
-0.395468 -0.307632 0.439753 0 255 0
-0.400674 0.201009 0.247767 0 127 127
0.396212 0.105821 0.447918 0 127 127
0.444394 -0.238297 0.488443 127 127 0
0.243250 0.129008 0.247549 0 127 127
-0.060905 0.089358 -0.298799 0 127 127
0.271183 -0.423844 0.051597 127 127 0
0.444190 -0.010344 0.458717 127 127 0
0.185915 -0.241573 0.192754 127 127 0
-0.129308 0.399902 -0.384286 153 0 76
-0.377133 -0.486796 0.255309 0 255 0
-0.386590 -0.612078 0.134411 0 255 0
0.074941 0.070317 -0.227646 0 127 127
0.209853 0.734180 -0.396894 153 0 76
0.381983 0.234542 -0.222732 153 0 76
-0.376193 -0.589661 0.091034 127 127 0
0.386524 0.400600 -0.269504 153 0 76
-0.369251 0.165956 -0.014071 0 127 127
0.300998 -0.394729 0.147910 0 255 0
-0.054005 0.105706 0.280529 0 127 127
0.232307 -0.081184 0.359069 127 127 0
-0.375729 0.350840 -0.271180 153 0 76
-0.377276 -0.059995 0.480606 0 255 0
-0.019799 0.818651 -0.478237 153 0 76
0.398185 -0.235961 0.458805 0 255 0
0.034104 0.086684 0.333899 0 127 127
0.173879 0.609206 -0.385283 153 0 76
-0.087976 -0.554379 -0.303554 0 255 0
-0.441936 -0.572894 0.331114 127 127 0
-0.438186 0.163671 0.289637 0 127 127
-0.196758 0.202236 -0.363577 153 0 76
-0.212108 0.114451 0.075033 0 127 127
0.285323 -0.616303 -0.221943 127 127 0
0.098883 -0.498160 -0.211627 0 255 0
-0.382630 0.499379 -0.273229 153 0 76
0.082705 -0.299868 0.073340 127 127 0
0.239842 -0.230651 0.249094 0 255 0
0.442135 0.206648 -0.060260 0 127 127
0.334197 -0.386086 0.214074 127 127 0
0.395493 -0.561433 0.240434 0 255 0
-0.395001 -0.139574 0.491815 0 255 0
-0.158236 0.258490 -0.379469 153 0 76
-0.370412 -0.471217 0.228738 127 127 0
-0.438535 -0.273050 0.424885 127 127 0
-0.296523 0.736171 -0.355337 153 0 76
-0.355497 0.156013 -0.080392 0 127 127
-0.369211 -0.552469 0.118673 127 127 0
-0.297158 -0.444828 0.086305 0 255 0
0.150847 -0.485067 -0.162858 0 255 0
-0.412548 0.116254 0.455378 0 127 127
-0.176425 0.083197 -0.056992 0 127 127
0.179080 0.109878 0.084498 0 127 127
-0.181647 0.094877 0.016100 0 127 127
-0.076170 0.621648 -0.398948 153 0 76
0.274207 0.319696 -0.350778 153 0 76
0.367809 0.610351 -0.294823 153 0 76
0.206594 -0.564791 -0.251788 127 127 0
0.015015 0.403701 -0.386452 153 0 76
0.325095 0.169345 -0.257847 153 0 76
-0.322063 0.655268 -0.323194 153 0 76
-0.374235 0.179362 -0.139452 0 127 127
0.408001 0.203271 0.189885 0 127 127
-0.305542 -0.413280 0.133729 127 127 0
0.091736 0.729674 -0.425643 153 0 76
0.095032 -0.423890 -0.104272 127 127 0
-0.438218 0.084394 0.443147 0 127 127
-0.009595 0.798448 -0.464092 153 0 76
-0.164670 0.116430 0.150899 0 127 127
0.202137 0.183690 -0.352786 153 0 76
0.085926 0.089400 0.046482 0 127 127
0.148843 0.111516 0.222030 0 127 127
-0.435889 -0.415169 0.403928 127 127 0
0.438191 0.192548 0.125273 0 127 127
-0.215167 -0.385837 0.041756 127 127 0
0.252991 0.110224 -0.001123 0 127 127
-0.021199 0.474754 -0.387409 153 0 76
0.273001 0.431534 -0.352288 153 0 76
0.167074 -0.334237 0.073585 0 255 0
-0.092419 0.458110 -0.388469 153 0 76
0.277093 0.735896 -0.373753 153 0 76
0.385493 0.179134 0.066791 0 127 127
0.431142 -0.421551 0.433644 0 255 0
0.279596 -0.066140 0.395524 0 255 0
-0.182249 0.116279 0.124382 0 127 127
0.091963 0.467333 -0.384877 153 0 76
-0.309757 -0.505916 0.012513 127 127 0
-0.327932 -0.544484 -0.005117 127 127 0
0.422284 0.205618 0.004752 0 127 127
0.228903 0.335169 -0.362089 153 0 76
-0.310701 0.128479 -0.054248 0 127 127
0.029475 -0.440533 -0.142787 127 127 0
0.112703 -0.452032 -0.140182 127 127 0
0.173515 0.102386 -0.292657 0 127 127
0.327919 -0.217615 0.345415 0 255 0
-0.168003 0.619286 -0.382338 153 0 76
0.375990 -0.527476 0.155926 127 127 0
0.368712 0.168540 -0.149013 0 127 127
-0.047251 0.066647 -0.079790 0 127 127
0.018146 0.177090 -0.379143 153 0 76
-0.339290 0.340753 -0.313292 153 0 76
-0.045058 -0.288858 0.081868 127 127 0
0.072740 0.136352 -0.358651 153 0 76
0.225578 -0.364191 0.075909 127 127 0
0.069905 0.107990 0.145142 0 127 127
-0.287500 -0.223863 0.303144 0 255 0
-0.325798 -0.149204 0.387551 0 255 0
-0.214103 -0.042890 0.383594 0 255 0
0.123889 -0.246928 0.161303 0 255 0
-0.432428 0.318465 -0.258048 153 0 76
-0.346341 -0.425773 0.220727 0 255 0
0.287284 0.128199 -0.230434 0 127 127
0.190698 0.426618 -0.375266 153 0 76
0.112761 -0.548613 -0.286653 0 255 0
0.110462 0.071282 -0.178823 0 127 127
0.289500 0.445081 -0.345666 153 0 76
-0.213504 0.051125 0.392848 127 127 0
-0.292021 -0.600367 -0.166008 0 255 0
0.439488 -0.063301 0.501303 127 127 0
0.414065 -0.062330 0.520663 0 255 0
-0.138603 -0.460467 -0.127885 0 255 0
-0.384628 -0.527709 0.223351 127 127 0
-0.067645 0.106352 0.208343 0 127 127
0.441979 0.230522 -0.127377 0 127 127
-0.395898 -0.452799 0.371473 0 255 0
0.079310 0.110494 0.184603 0 127 127
-0.279407 -0.314914 0.215041 0 255 0
-0.196945 0.461759 -0.368637 153 0 76
0.077626 0.223969 -0.389594 153 0 76
0.365920 0.165186 0.263399 0 127 127
0.071917 0.738741 -0.430645 153 0 76
-0.255420 0.754749 -0.388004 153 0 76
0.072437 0.620203 -0.399279 153 0 76
0.147879 0.828074 -0.461087 153 0 76
-0.249928 -0.413869 0.052908 0 255 0
-0.349830 -0.509517 0.110569 127 127 0
-0.214956 0.773274 -0.409281 153 0 76
0.291786 -0.516344 -0.042905 0 255 0
0.441692 0.314858 -0.234321 153 0 76
-0.267318 -0.491818 -0.036672 0 255 0
0.445670 -0.582242 0.310447 127 127 0
0.244751 0.100912 -0.154568 0 127 127
-0.407864 -0.597391 0.340447 0 255 0
0.234282 0.112578 0.333138 0 127 127
-0.442184 -0.457541 0.381769 127 127 0
-0.360410 -0.176612 0.409965 127 127 0
0.360623 -0.268757 0.354507 127 127 0
-0.378748 -0.182848 0.437874 127 127 0
0.062656 0.096424 -0.324538 153 0 76
-0.079983 -0.573284 -0.336770 0 255 0
-0.441949 0.191491 0.024786 0 127 127
-0.215680 -0.221857 0.243877 0 255 0
-0.066419 0.243911 -0.390329 153 0 76
0.127064 -0.193198 0.225569 0 255 0
0.043239 0.097558 0.098809 0 127 127
-0.057693 -0.296477 0.073529 127 127 0
-0.422341 0.197684 -0.075303 0 127 127
-0.365191 0.203367 -0.221010 0 127 127
-0.077905 0.087150 0.035288 0 127 127
-0.278780 0.109990 0.366632 0 127 127
0.281943 -0.174821 0.321517 127 127 0
0.240263 0.098255 0.356880 0 127 127
-0.435317 -0.392027 0.418000 127 127 0
0.069831 0.102949 0.271066 0 127 127
0.206177 -0.399035 0.015418 0 255 0
0.057225 -0.193257 0.210250 0 255 0
0.058658 -0.560026 -0.322739 0 255 0
0.416592 0.229884 -0.152915 153 0 76
-0.338468 0.155368 0.138964 0 127 127
-0.145990 0.776782 -0.435714 153 0 76
-0.279335 -0.603579 -0.195936 0 255 0
0.278946 -0.393995 0.112950 0 255 0
0.081266 0.098786 0.074428 0 127 127
0.411578 0.243036 -0.174649 153 0 76
-0.174474 0.112231 0.271023 0 127 127
0.376079 0.437684 -0.286655 153 0 76
-0.125816 -0.358507 0.018499 0 255 0
-0.305512 0.127683 0.017072 0 127 127
-0.119442 0.093787 0.328232 0 127 127
0.126620 -0.052526 0.349415 127 127 0
-0.155300 -0.174209 0.251765 127 127 0
0.107348 -0.384214 -0.030975 0 255 0
0.104634 -0.376774 -0.020849 0 255 0
-0.224596 0.127291 0.168375 0 127 127
-0.422816 -0.293687 0.482359 0 255 0
0.014145 -0.033054 0.354968 127 127 0
0.442259 -0.559816 0.360717 127 127 0
-0.395816 -0.594213 0.253038 0 255 0
-0.036033 -0.422390 -0.106726 0 255 0
-0.260212 0.110412 0.002401 0 127 127
0.057637 -0.334936 0.026729 0 255 0
-0.402283 -0.423222 0.407961 0 255 0
-0.426387 0.173779 0.363284 0 127 127
0.084299 -0.211897 0.192242 0 255 0
0.227241 -0.610264 -0.292279 0 255 0
0.402798 0.373234 -0.262987 153 0 76
0.165509 0.791196 -0.434445 153 0 76
-0.211230 0.200200 -0.357818 153 0 76
-0.384020 -0.107323 0.480659 0 255 0
-0.053586 -0.424511 -0.107414 0 255 0
-0.387770 0.214592 -0.174395 0 127 127
-0.292165 0.111356 0.372019 0 127 127
0.447963 0.195645 0.218950 0 127 127
0.005300 0.384021 -0.390911 153 0 76
0.102065 -0.594545 -0.372259 127 127 0
0.267361 0.065408 0.399643 127 127 0
-0.381298 -0.607624 0.110872 0 255 0
-0.006710 0.104481 0.123492 0 127 127
0.027149 -0.582397 -0.369787 127 127 0
0.203075 0.119064 0.276955 0 127 127
-0.360716 -0.418475 0.272269 0 255 0
-0.292110 -0.575272 -0.135990 127 127 0
0.223746 0.120934 0.247844 0 127 127
-0.043886 0.062511 -0.173945 0 127 127
0.376222 0.601837 -0.313666 153 0 76
-0.073158 0.321764 -0.386141 153 0 76
-0.041369 0.079270 -0.021525 0 127 127
0.352807 -0.589921 -0.008649 0 255 0
0.296530 -0.246548 0.282250 127 127 0
-0.438343 0.173497 0.210224 0 127 127
-0.183432 -0.253228 0.187922 0 255 0
0.375760 -0.067925 0.462102 127 127 0
0.178137 0.109138 -0.305470 153 0 76
0.376848 -0.590639 0.065070 127 127 0
0.089267 0.012579 0.383497 0 255 0
0.367517 -0.118484 0.435657 127 127 0
-0.438284 0.152027 0.304118 0 127 127
-0.224630 -0.308965 0.152623 127 127 0
-0.150935 0.814475 -0.450003 153 0 76
-0.161460 -0.330287 0.071392 127 127 0
0.444009 -0.348671 0.452349 0 255 0
0.435969 0.076517 0.469123 127 127 0
-0.442186 0.147950 0.354616 0 127 127
0.145419 0.497046 -0.379122 153 0 76
0.152764 -0.021717 0.373129 127 127 0
0.219501 0.561230 -0.370152 153 0 76
-0.083294 -0.044775 0.350265 127 127 0
0.095655 -0.461106 -0.161098 127 127 0
0.282009 -0.299080 0.217698 127 127 0
0.231495 -0.483663 -0.092377 127 127 0
0.381422 0.554285 -0.283314 153 0 76
0.221063 0.199244 -0.351529 153 0 76
-0.333003 0.392931 -0.314387 153 0 76
-0.084616 0.254570 -0.385041 153 0 76
-0.132456 0.647462 -0.397580 153 0 76
0.147187 0.093267 0.334701 0 127 127
0.254923 0.124110 0.283572 0 127 127
-0.244277 0.127295 0.174507 0 127 127
0.447975 -0.376945 0.425290 0 255 0
-0.188967 0.091426 0.352238 0 127 127
-0.288903 -0.448386 0.053880 127 127 0
-0.012020 0.066845 -0.137746 0 127 127
-0.334634 -0.547815 0.021796 0 255 0
-0.184731 -0.135040 0.305124 0 255 0
0.197314 0.761707 -0.414776 153 0 76
0.311737 0.743173 -0.384347 153 0 76
0.125619 0.568003 -0.388732 153 0 76
0.303603 0.111162 0.367003 0 127 127
-0.218286 0.799558 -0.434570 153 0 76
-0.128058 0.091966 0.016934 0 127 127
0.189294 0.081737 -0.082886 0 127 127
0.429952 0.406132 -0.278536 153 0 76
0.291341 -0.374852 0.157087 0 255 0
-0.188148 0.114509 0.268104 0 127 127
-0.190806 -0.002102 0.389029 127 127 0
0.197611 0.639225 -0.379884 153 0 76
0.081947 -0.003707 0.372348 127 127 0
-0.254997 0.100664 -0.083892 0 127 127
0.241381 0.223342 -0.350662 153 0 76
0.209142 -0.005648 0.395615 0 255 0
-0.171683 0.147282 -0.346894 153 0 76
0.251688 0.104912 -0.209908 0 127 127
0.424831 -0.582964 0.333983 127 127 0
-0.263671 -0.617057 -0.247830 0 255 0
-0.067853 0.082239 -0.290108 0 127 127
0.322788 0.135230 0.341939 0 127 127
-0.182188 0.114430 0.145434 0 127 127
-0.268834 0.078502 0.398856 0 127 127
-0.157014 0.079738 -0.125849 0 127 127
0.376831 -0.503047 0.208997 0 255 0
0.233258 0.118985 0.313308 0 127 127
0.184040 0.084379 -0.186902 0 127 127
0.185728 -0.493480 -0.157301 127 127 0
-0.442014 0.185730 0.038710 0 127 127
-0.329694 0.138015 -0.056310 0 127 127
-0.256410 0.556141 -0.356342 153 0 76
0.428799 0.048112 0.493827 127 127 0
0.438253 0.190084 0.023105 0 127 127
-0.349901 0.198313 -0.247686 153 0 76
0.190926 -0.257333 0.177679 127 127 0
0.356350 0.230155 -0.275439 153 0 76
0.292220 -0.151230 0.344798 127 127 0
-0.185615 0.114856 0.294819 0 127 127
0.005805 -0.450970 -0.152404 0 255 0
0.252410 0.128133 0.194905 0 127 127
0.112995 -0.299007 0.084695 127 127 0
0.012404 0.105116 0.129424 0 127 127
0.280075 0.251880 -0.338826 153 0 76
-0.015786 0.075603 -0.040259 0 127 127
-0.355322 -0.381531 0.280039 127 127 0
-0.006350 -0.432733 -0.132004 127 127 0
0.388422 0.171917 -0.010359 0 127 127
-0.338447 0.138721 -0.079516 0 127 127
-0.406635 -0.328755 0.460074 0 255 0
-0.206583 -0.610551 -0.311748 0 255 0
-0.306187 -0.595775 -0.138997 127 127 0
-0.058410 0.063154 -0.192957 0 127 127
-0.346120 0.113591 0.405472 0 127 127
0.232553 0.303174 -0.360527 153 0 76
-0.404455 -0.136298 0.500376 127 127 0
-0.039975 -0.151107 0.251150 127 127 0
0.290428 -0.438725 0.070749 0 255 0
-0.313585 0.404143 -0.326790 153 0 76
-0.028841 0.722056 -0.426072 153 0 76
-0.134974 0.107996 -0.312531 0 127 127
-0.391906 0.451491 -0.277674 153 0 76
0.344686 -0.470430 0.145963 0 255 0
0.230812 -0.126749 0.323884 127 127 0
0.334981 0.148862 -0.188534 0 127 127
-0.387059 -0.580514 0.195693 0 255 0
-0.404744 -0.293457 0.454673 127 127 0
-0.187278 0.731668 -0.407016 153 0 76
0.200264 0.574668 -0.371946 153 0 76
-0.215799 -0.144052 0.305986 127 127 0
0.207307 -0.489999 -0.121913 0 255 0
0.108352 0.074454 -0.080526 0 127 127
0.305615 0.723457 -0.346449 153 0 76
-0.244750 0.746924 -0.386875 153 0 76
0.427666 0.209238 0.241535 0 127 127
0.279612 0.126039 0.081438 0 127 127
0.203667 -0.613898 -0.331599 127 127 0
-0.398012 0.200709 0.199756 0 127 127
-0.395076 -0.151829 0.488977 0 255 0
-0.430701 0.040749 0.490031 127 127 0
-0.092066 0.699941 -0.410165 153 0 76
-0.339710 0.553721 -0.307103 153 0 76
0.315397 -0.066465 0.411092 127 127 0
0.296390 -0.221270 0.308087 0 255 0
0.135241 0.114493 0.217542 0 127 127
0.447998 0.055938 0.483337 127 127 0
0.147892 -0.520963 -0.222312 0 255 0
0.106632 -0.441297 -0.118502 0 255 0
0.184051 -0.068777 0.355913 0 255 0
0.141201 0.096003 0.057679 0 127 127
0.037059 -0.501073 -0.238607 127 127 0
0.334440 0.113107 0.392864 0 127 127
-0.219057 0.093785 -0.042056 0 127 127
0.314963 -0.493005 0.041775 0 255 0
0.228102 -0.506791 -0.124868 0 255 0
-0.408538 0.197811 0.094370 0 127 127
-0.147159 0.020600 0.385736 127 127 0
-0.255327 0.623068 -0.361412 153 0 76
0.357120 0.590062 -0.298928 153 0 76
0.393768 -0.211877 0.447018 127 127 0
0.347859 0.156923 0.141911 0 127 127
0.438625 0.270075 -0.213964 153 0 76
-0.272749 -0.580724 -0.179437 127 127 0
0.150289 -0.554590 -0.274748 0 255 0
-0.278157 -0.089066 0.380076 127 127 0
-0.166908 -0.489440 -0.153161 0 255 0
-0.281906 -0.577514 -0.158904 127 127 0
-0.216314 0.334684 -0.363847 153 0 76
-0.375393 0.180770 0.129613 0 127 127
-0.309237 0.471044 -0.332780 153 0 76
-0.410377 -0.109231 0.520126 0 255 0
0.399927 -0.190456 0.476308 0 255 0
0.051473 0.067055 -0.154937 0 127 127
-0.290569 0.133125 0.094828 0 127 127
-0.245131 -0.320247 0.168925 0 255 0
0.448364 -0.325898 0.421247 0 255 0
-0.006327 0.630970 -0.398459 153 0 76
-0.073577 -0.423407 -0.108643 127 127 0
-0.205723 0.278200 -0.369468 153 0 76
-0.273663 -0.561092 -0.136967 0 255 0
-0.031672 0.090645 -0.316554 0 127 127
-0.422090 -0.407251 0.440524 0 255 0
-0.395006 -0.533892 0.282727 127 127 0
0.260390 -0.451256 -0.005249 127 127 0
0.378132 0.254511 -0.247362 153 0 76
0.267296 0.094022 0.381627 0 127 127
0.347212 -0.490519 0.111864 127 127 0
-0.338007 0.181618 -0.244469 0 127 127
-0.391804 -0.422843 0.359875 127 127 0
0.294718 -0.485038 0.000877 127 127 0
-0.243439 -0.217085 0.268702 0 255 0
-0.089096 0.743533 -0.425934 153 0 76
0.194574 -0.527885 -0.203685 127 127 0
-0.108767 0.798937 -0.457103 153 0 76
-0.253584 -0.470257 -0.025174 0 255 0
-0.403755 -0.474909 0.386019 0 255 0
-0.431989 -0.196743 0.486437 127 127 0
-0.406694 0.212367 -0.122848 0 127 127
-0.234918 0.785801 -0.416036 153 0 76
-0.092641 0.109244 0.142585 0 127 127
-0.328502 -0.492758 0.087940 0 255 0
-0.423143 0.192254 0.326245 0 127 127
-0.042797 0.427476 -0.386492 153 0 76
-0.302283 0.197591 -0.306241 153 0 76
0.439181 -0.400828 0.437115 0 255 0
