ply
format ascii 1.0
element vertex 1268
property float x
property float y
property float z
property uchar red
property uchar green
property uchar blue
end_header
-0.085939 -0.607726 -0.394065 0 255 0
-0.440085 0.098697 0.457877 0 127 127
-0.440083 0.065089 0.418895 0 127 127
-0.339417 -0.235458 0.355230 0 255 0
0.149754 0.807125 -0.450576 153 0 76
0.186599 0.176086 -0.357670 153 0 76
0.144315 -0.466152 -0.140897 127 127 0
0.357558 -0.470646 0.176482 127 127 0
0.344450 -0.283069 0.323778 127 127 0
0.243954 -0.340719 0.131125 0 255 0
-0.050284 0.389515 -0.388584 153 0 76
0.243020 0.118347 0.318503 0 127 127
0.051450 -0.016083 0.368412 127 127 0
0.269483 0.400886 -0.351599 153 0 76
-0.069857 0.108427 0.193501 0 127 127
0.193249 -0.017011 0.386100 127 127 0
0.397464 -0.220321 0.457771 0 255 0
-0.358853 -0.261072 0.370992 127 127 0
0.284502 0.123307 0.041931 0 127 127
-0.353507 -0.549680 0.070584 0 255 0
-0.415375 -0.069996 0.525234 0 255 0
0.373830 -0.183030 0.422150 127 127 0
0.120571 -0.595641 -0.363786 127 127 0
-0.255702 0.719697 -0.371844 153 0 76
-0.439428 0.257323 -0.195247 153 0 76
0.262613 -0.028124 0.404232 0 255 0
0.027734 -0.339512 0.013368 127 127 0
-0.409370 -0.181020 0.506276 0 255 0
0.405831 0.364191 -0.244365 153 0 76
0.355080 0.151412 0.030049 0 127 127
-0.084236 -0.093116 0.313696 127 127 0
-0.184335 -0.413758 -0.025773 0 255 0
0.329214 0.554034 -0.318995 153 0 76
0.379094 0.115346 0.425387 0 127 127
-0.239695 -0.208678 0.270364 127 127 0
0.322360 0.273962 -0.320545 153 0 76
-0.044601 0.130543 -0.358076 153 0 76
-0.015014 0.064795 -0.131904 0 127 127
-0.346299 0.156358 0.299892 0 127 127
-0.214969 0.662594 -0.379586 153 0 76
-0.069708 0.338250 -0.388456 153 0 76
-0.216797 0.345091 -0.366190 153 0 76
0.336448 -0.434931 0.163498 127 127 0
0.020383 0.211352 -0.389683 153 0 76
0.446259 -0.161885 0.441852 127 127 0
0.404582 -0.328964 0.433436 0 255 0
-0.186719 0.106015 0.063669 0 127 127
0.094847 0.333889 -0.387153 153 0 76
-0.300059 -0.049546 0.415064 0 255 0
0.256539 0.107006 -0.199002 0 127 127
-0.355066 0.558464 -0.290415 153 0 76
-0.176275 -0.189488 0.249374 0 255 0
-0.198163 0.099116 -0.254399 0 127 127
0.161402 0.768637 -0.426424 153 0 76
-0.389857 0.065331 0.475875 0 255 0
-0.232435 -0.505586 -0.114331 127 127 0
0.433418 0.069397 0.497499 0 255 0
-0.063611 0.103150 0.121815 0 127 127
0.310258 -0.113111 0.385120 127 127 0
-0.242973 0.227011 -0.351645 153 0 76
-0.440086 -0.073554 0.476639 127 127 0
0.393153 -0.155185 0.468221 127 127 0
0.211946 -0.308812 0.139744 127 127 0
0.217367 -0.181246 0.275064 0 255 0
0.397272 0.015292 0.494311 127 127 0
-0.039422 -0.508876 -0.246240 0 255 0
0.353216 -0.234357 0.366645 0 255 0
0.248683 -0.531986 -0.143757 0 255 0
-0.273099 0.135884 0.156327 0 127 127
-0.405379 0.171806 0.389432 0 127 127
0.224234 0.581852 -0.368711 153 0 76
0.143516 0.103897 0.087061 0 127 127
-0.326842 0.410704 -0.321292 153 0 76
-0.093250 0.378529 -0.386250 153 0 76
0.289080 0.117108 -0.017428 0 127 127
0.345782 0.590111 -0.302923 153 0 76
-0.216388 0.097165 -0.023687 0 127 127
0.308754 -0.231265 0.310272 0 255 0
0.440617 -0.403966 0.433324 0 255 0
-0.341646 -0.427317 0.199267 0 255 0
0.314453 -0.509346 0.010279 127 127 0
-0.043594 -0.417779 -0.102665 127 127 0
0.446236 0.204141 -0.155705 0 127 127
-0.362163 -0.554390 0.096773 0 255 0
0.429133 -0.337945 0.465723 0 255 0
-0.119270 0.444141 -0.383657 153 0 76
-0.432353 -0.506538 0.390088 127 127 0
-0.440085 0.069726 0.452001 0 127 127
0.348198 -0.499516 0.108351 0 255 0
0.319007 0.540196 -0.326613 153 0 76
0.345757 0.170082 -0.214608 0 127 127
0.406847 -0.512213 0.344233 127 127 0
-0.344858 -0.550414 0.040500 127 127 0
-0.440047 0.210693 -0.092138 0 127 127
0.349022 -0.330094 0.296671 0 255 0
-0.391995 -0.581988 0.220298 0 255 0
-0.439964 0.220664 -0.158799 0 127 127
-0.378072 0.600010 -0.315872 153 0 76
0.337213 -0.056883 0.432535 127 127 0
0.446258 -0.321645 0.402438 127 127 0
-0.247487 -0.290900 0.197979 127 127 0
0.360085 -0.288141 0.346174 127 127 0
-0.221358 0.108260 0.039844 0 127 127
-0.419946 0.350484 -0.236888 153 0 76
0.299723 0.540813 -0.337815 153 0 76
0.407377 -0.588608 0.285446 127 127 0
0.406711 0.204724 -0.092166 0 127 127
0.238329 0.444755 -0.361621 153 0 76
0.233618 0.126552 0.216712 0 127 127
-0.254904 0.188439 -0.332333 153 0 76
0.196296 0.114625 0.117146 0 127 127
-0.215755 -0.404071 0.019666 127 127 0
0.404853 -0.528686 0.320988 127 127 0
-0.407414 0.045642 0.502601 0 255 0
-0.335281 0.157830 0.192294 0 127 127
0.377583 -0.431321 0.284697 127 127 0
-0.410658 -0.562590 0.364628 0 255 0
0.038166 -0.321643 0.039506 0 255 0
0.185706 0.409089 -0.374248 153 0 76
-0.370124 -0.602190 0.051108 127 127 0
-0.186822 0.446779 -0.372863 153 0 76
-0.408708 -0.228749 0.494515 0 255 0
0.265084 -0.501775 -0.070865 127 127 0
0.073113 0.001716 0.376567 0 255 0
0.033757 0.130492 -0.358980 153 0 76
0.133267 0.012417 0.386196 0 255 0
-0.057073 0.145162 -0.369407 153 0 76
-0.126268 -0.491106 -0.188694 127 127 0
-0.364734 0.237101 -0.253532 153 0 76
-0.297212 0.320188 -0.335764 153 0 76
-0.067945 0.078133 -0.273962 0 127 127
0.410559 0.200334 -0.039560 0 127 127
0.283571 -0.161769 0.333912 127 127 0
0.146750 -0.009730 0.379714 0 255 0
-0.286993 -0.531998 -0.072011 0 255 0
-0.062721 -0.477712 -0.193288 127 127 0
-0.125034 0.689439 -0.405018 153 0 76
-0.014235 -0.026609 0.362973 0 255 0
0.414644 -0.590750 0.334935 0 255 0
-0.101635 0.107445 0.270011 0 127 127
-0.384198 -0.070187 0.484038 127 127 0
0.293915 0.132693 0.310443 0 127 127
0.187774 0.334009 -0.374427 153 0 76
0.024736 0.103459 0.277770 0 127 127
-0.428265 0.205234 0.062294 0 127 127
0.262176 0.011062 0.412536 0 255 0
0.167148 -0.267840 0.153842 127 127 0
0.333095 0.136601 -0.005282 0 127 127
0.102670 -0.556414 -0.307677 0 255 0
0.341397 -0.398376 0.219759 127 127 0
0.075596 0.096020 0.072865 0 127 127
-0.264407 0.273808 -0.347714 153 0 76
-0.179084 0.085300 -0.060015 0 127 127
0.039541 -0.283464 0.091509 127 127 0
-0.167025 -0.133472 0.297135 127 127 0
-0.396179 -0.087524 0.499823 0 255 0
0.198050 0.090623 -0.033286 0 127 127
0.230049 0.092782 -0.094549 0 127 127
0.079669 -0.247600 0.143301 0 255 0
0.300035 0.662228 -0.340526 153 0 76
-0.376797 0.180863 0.204642 0 127 127
-0.408135 -0.594838 0.330247 127 127 0
-0.062714 -0.378726 -0.039917 0 255 0
-0.321991 -0.532262 0.003828 127 127 0
-0.047148 -0.534481 -0.286359 127 127 0
0.426444 0.321687 -0.222268 153 0 76
-0.197018 -0.259134 0.186910 127 127 0
-0.304770 -0.541405 -0.048861 0 255 0
-0.105519 0.405166 -0.384822 153 0 76
-0.287118 -0.570847 -0.134144 127 127 0
0.276986 0.135939 0.187461 0 127 127
-0.072773 -0.057110 0.342507 0 255 0
0.015654 -0.104197 0.298861 0 255 0
-0.118644 0.333867 -0.384188 153 0 76
-0.128389 0.229299 -0.381650 153 0 76
-0.020750 0.073215 0.361280 0 127 127
-0.323151 0.143863 -0.178085 0 127 127
0.263315 0.665221 -0.362905 153 0 76
-0.186216 -0.512671 -0.177498 127 127 0
-0.428430 0.066636 0.498661 0 255 0
-0.313422 0.418528 -0.329242 153 0 76
-0.372607 -0.461005 0.257114 0 255 0
0.317053 -0.453283 0.096106 0 255 0
0.243140 -0.213515 0.263697 127 127 0
-0.233371 0.143583 -0.308932 153 0 76
-0.085403 0.846855 -0.508936 153 0 76
0.073331 0.677554 -0.408276 153 0 76
0.008861 0.540018 -0.390288 153 0 76
-0.440083 -0.374421 0.418883 127 127 0
0.367243 -0.499709 0.167584 127 127 0
-0.363831 -0.581357 0.060001 0 255 0
0.105279 0.078423 -0.265040 0 127 127
0.230237 -0.414340 0.014158 127 127 0
-0.325981 0.707908 -0.338760 153 0 76
0.382925 -0.510247 0.219786 0 255 0
0.413975 0.051837 0.500430 0 255 0
-0.006708 0.670615 -0.408497 153 0 76
-0.248713 0.111949 -0.225133 0 127 127
0.373632 -0.028835 0.470129 127 127 0
-0.022831 -0.319755 0.041118 0 255 0
-0.143229 -0.201429 0.221063 127 127 0
-0.370232 0.464365 -0.282555 153 0 76
0.431244 0.119741 0.465056 0 127 127
-0.306029 0.690965 -0.333865 153 0 76
-0.269333 -0.071775 0.387693 127 127 0
0.169165 0.100809 0.053915 0 127 127
0.278921 -0.557185 -0.136456 0 255 0
0.111833 -0.413597 -0.078732 0 255 0
-0.355125 0.165700 0.246949 0 127 127
0.339436 -0.486548 0.101728 0 255 0
0.319192 0.327435 -0.327540 153 0 76
0.317261 0.734538 -0.365381 153 0 76
-0.109970 -0.064225 0.341710 0 255 0
-0.365187 0.165332 0.064219 0 127 127
-0.147003 -0.297318 0.110031 0 255 0
-0.119041 0.475310 -0.383869 153 0 76
-0.290536 -0.153730 0.349291 127 127 0
0.409092 -0.460656 0.386136 0 255 0
-0.386414 -0.583101 0.170989 0 255 0
-0.021005 -0.471010 -0.187788 0 255 0
0.173191 0.598591 -0.382320 153 0 76
0.370710 -0.535941 0.134614 0 255 0
-0.129203 0.099625 0.068489 0 127 127
-0.131649 -0.352263 0.026800 127 127 0
-0.409325 -0.373159 0.445180 0 255 0
0.135333 -0.514103 -0.223716 0 255 0
-0.266188 0.536246 -0.350197 153 0 76
0.016248 -0.239478 0.146759 0 255 0
-0.224753 0.103179 0.347699 0 127 127
0.389450 0.197316 -0.143377 0 127 127
0.329884 -0.332165 0.260310 127 127 0
-0.253132 -0.573387 -0.195530 127 127 0
0.435621 0.206808 -0.027162 0 127 127
-0.286980 -0.165527 0.339390 0 255 0
0.180713 0.557898 -0.376938 153 0 76
0.366875 -0.456883 0.219023 127 127 0
-0.213860 0.718030 -0.391071 153 0 76
0.006203 -0.390818 -0.064291 0 255 0
-0.338922 -0.192788 0.377461 127 127 0
0.415431 -0.579572 0.348618 0 255 0
0.115889 -0.075157 0.333492 0 255 0
0.343701 0.155746 0.121929 0 127 127
0.384942 -0.244358 0.418479 127 127 0
0.323089 0.150455 0.185820 0 127 127
-0.179652 -0.103152 0.326699 127 127 0
-0.007591 0.496426 -0.389649 153 0 76
0.307908 0.155363 -0.254459 153 0 76
0.222266 -0.368133 0.071095 127 127 0
-0.426810 -0.297399 0.480232 0 255 0
-0.440075 0.198031 0.191621 0 127 127
-0.240408 0.365270 -0.359271 153 0 76
-0.251944 0.116365 0.044847 0 127 127
-0.183668 0.540862 -0.373864 153 0 76
-0.014991 0.366312 -0.389227 153 0 76
-0.214719 -0.506624 -0.138758 0 255 0
0.274758 -0.596778 -0.207015 127 127 0
-0.327163 0.458726 -0.320443 153 0 76
-0.311669 0.192671 -0.288490 153 0 76
-0.311750 0.545050 -0.327168 153 0 76
0.096793 0.088428 -0.293423 0 127 127
0.354847 0.499933 -0.300062 153 0 76
-0.346351 0.086350 0.426948 0 127 127
-0.391687 -0.533559 0.276309 127 127 0
0.185358 0.247857 -0.372874 153 0 76
-0.016945 -0.373001 -0.036768 127 127 0
0.446235 0.180432 -0.019075 0 127 127
0.175140 -0.547901 -0.250394 0 255 0
-0.205634 0.117926 0.121882 0 127 127
0.312594 0.146308 0.231438 0 127 127
0.386562 0.591305 -0.305562 153 0 76
-0.263255 0.290395 -0.349401 153 0 76
0.225306 0.115839 0.313338 0 127 127
-0.173280 -0.331963 0.081624 127 127 0
0.195924 0.110284 -0.289828 153 0 76
0.249923 0.097718 0.366939 0 127 127
0.331686 -0.532236 0.013999 0 255 0
0.433463 0.204014 0.044046 0 127 127
0.041001 0.094648 0.070805 0 127 127
0.354100 -0.556882 0.038948 0 255 0
-0.287139 0.370696 -0.342304 153 0 76
-0.028397 -0.152245 0.252560 0 255 0
-0.210536 0.123393 0.219745 0 127 127
-0.137409 0.074576 -0.113873 0 127 127
-0.261940 0.136133 -0.271498 0 127 127
-0.046913 0.362807 -0.389097 153 0 76
-0.192169 0.093462 -0.013804 0 127 127
0.131132 0.102540 0.314441 0 127 127
0.087414 -0.529279 -0.269963 0 255 0
-0.097733 0.703133 -0.412837 153 0 76
0.076154 0.070023 -0.074923 0 127 127
0.382100 0.170020 -0.076108 0 127 127
-0.232797 0.122567 0.118151 0 127 127
-0.245393 -0.355671 0.120456 127 127 0
0.217558 0.089492 -0.127418 0 127 127
0.326381 0.148708 0.274115 0 127 127
-0.392733 0.547036 -0.301467 153 0 76
-0.177175 -0.536121 -0.223704 127 127 0
-0.363149 -0.602634 0.023200 127 127 0
0.239051 0.209885 -0.350380 153 0 76
-0.013061 -0.590177 -0.379620 0 255 0
-0.347210 0.149719 0.018636 0 127 127
0.072012 -0.572858 -0.345596 0 255 0
-0.361433 -0.505039 0.161453 0 255 0
0.081846 0.087820 0.340097 0 127 127
-0.140970 -0.126645 0.295120 0 255 0
0.314368 -0.178335 0.350655 0 255 0
0.327174 0.204223 -0.288661 153 0 76
0.381918 -0.390043 0.332531 127 127 0
0.048420 -0.130584 0.275245 0 255 0
0.179612 0.105674 0.320830 0 127 127
-0.190395 0.512516 -0.372442 153 0 76
-0.046052 -0.376312 -0.038294 127 127 0
-0.055076 0.067037 -0.104580 0 127 127
-0.383331 -0.517893 0.241713 0 255 0
0.278680 -0.140323 0.344775 127 127 0
0.136012 0.798347 -0.449959 153 0 76
0.047408 0.366723 -0.389174 153 0 76
-0.203267 0.193524 -0.356136 153 0 76
0.016131 0.595814 -0.395319 153 0 76
-0.051757 -0.285965 0.090051 127 127 0
0.320942 -0.073557 0.414528 127 127 0
0.050852 -0.396476 -0.069592 0 255 0
-0.320825 -0.302387 0.279803 127 127 0
-0.356302 0.165285 0.126844 0 127 127
-0.368192 0.630529 -0.320421 153 0 76
0.440474 0.200576 0.307213 0 127 127
0.359875 -0.503238 0.135544 127 127 0
0.371421 -0.371238 0.316933 127 127 0
0.396064 0.182723 0.004389 0 127 127
0.446261 -0.110268 0.509080 127 127 0
-0.251610 -0.454815 -0.010766 127 127 0
0.151666 -0.573530 -0.308428 127 127 0
0.043598 -0.543022 -0.301291 127 127 0
0.190123 -0.402237 -0.008779 0 255 0
-0.047660 0.070548 -0.256309 0 127 127
0.177923 0.117011 0.183646 0 127 127
-0.172624 -0.308880 0.112585 0 255 0
0.251571 0.270351 -0.354849 153 0 76
-0.094630 0.086048 0.346821 0 127 127
-0.393940 -0.601989 0.207031 0 255 0
0.280864 0.110919 0.359072 0 127 127
0.446224 0.209298 -0.105099 0 127 127
-0.289241 0.139911 0.248002 0 127 127
-0.437963 0.200751 0.009639 0 127 127
0.291493 0.138824 0.149283 0 127 127
-0.433256 -0.242055 0.493089 127 127 0
-0.155592 -0.365028 0.023107 0 255 0
-0.439822 0.250651 -0.171993 0 127 127
0.175547 -0.614728 -0.357257 127 127 0
-0.169675 -0.490525 -0.157642 0 255 0
-0.310383 -0.209370 0.333632 127 127 0
0.380669 0.178737 0.186034 0 127 127
-0.137119 0.105891 -0.316463 0 127 127
-0.243052 0.094577 0.370714 0 127 127
0.140675 -0.305376 0.092540 127 127 0
-0.180033 -0.400308 -0.009485 127 127 0
0.247490 0.588799 -0.361805 153 0 76
-0.107514 0.676575 -0.404713 153 0 76
-0.337796 -0.340656 0.279362 127 127 0
0.258935 0.114172 -0.226836 0 127 127
-0.382759 -0.270419 0.417633 0 255 0
-0.189926 0.719749 -0.400027 153 0 76
-0.242992 -0.256592 0.228035 0 255 0
-0.096508 -0.248248 0.148592 127 127 0
-0.117647 0.579046 -0.388009 153 0 76
-0.434415 0.273436 -0.191446 153 0 76
0.139665 0.315897 -0.382342 153 0 76
0.384694 0.194147 -0.157268 0 127 127
0.265013 0.213575 -0.339441 153 0 76
0.052877 -0.190308 0.209835 0 255 0
-0.005459 0.072280 -0.048053 0 127 127
-0.279241 -0.501132 -0.035549 0 255 0
0.331674 0.146332 -0.182410 0 127 127
-0.003752 -0.125187 0.279502 0 255 0
-0.342372 -0.299841 0.317762 0 255 0
0.400295 0.190196 -0.066020 0 127 127
0.054083 -0.272426 0.107208 127 127 0
-0.378625 -0.235616 0.421872 127 127 0
0.248244 -0.601662 -0.256140 127 127 0
0.195693 -0.093894 0.337672 127 127 0
-0.407183 -0.535977 0.358700 127 127 0
0.031746 -0.546738 -0.308749 127 127 0
-0.341065 -0.325091 0.296772 0 255 0
0.416998 0.431302 -0.264245 153 0 76
-0.408130 -0.614335 0.316218 0 255 0
-0.226443 -0.587982 -0.254262 0 255 0
0.040390 0.846016 -0.530407 153 0 76
-0.032319 0.773998 -0.446790 153 0 76
-0.419401 -0.279293 0.486164 127 127 0
0.063100 0.081572 -0.285503 0 127 127
-0.073668 -0.019206 0.368532 0 255 0
-0.363335 0.151446 0.353656 0 127 127
-0.351141 0.165261 0.222837 0 127 127
0.026569 0.545251 -0.390688 153 0 76
0.320767 -0.348239 0.232890 127 127 0
-0.072545 -0.373859 -0.029907 127 127 0
-0.322439 0.137101 0.019290 0 127 127
0.044434 -0.117548 0.287540 0 255 0
0.277174 0.581988 -0.349253 153 0 76
-0.388488 -0.561983 0.213289 0 255 0
0.244333 -0.253041 0.227203 127 127 0
-0.131325 -0.256733 0.151709 127 127 0
-0.111243 0.185683 -0.376659 153 0 76
-0.241033 0.468888 -0.359090 153 0 76
0.395890 0.413674 -0.262987 153 0 76
0.431467 0.209983 0.222318 0 127 127
0.396251 0.184703 0.055248 0 127 127
0.245034 -0.137518 0.325922 127 127 0
-0.125229 0.089925 0.018939 0 127 127
-0.003176 -0.299703 0.067796 127 127 0
-0.256634 -0.553293 -0.157379 127 127 0
0.091550 -0.337115 0.028445 0 255 0
-0.268616 0.458852 -0.349510 153 0 76
-0.337950 -0.555044 0.013192 127 127 0
0.315803 0.154553 -0.238354 0 127 127
0.446253 0.184005 0.288621 0 127 127
-0.331928 -0.251830 0.333231 0 255 0
0.271166 0.314032 -0.349745 153 0 76
0.165466 0.112316 0.134466 0 127 127
0.321987 0.083898 0.411688 0 127 127
0.300661 -0.551520 -0.087640 127 127 0
-0.018573 0.474968 -0.389718 153 0 76
-0.284546 0.114882 -0.120439 0 127 127
-0.030190 0.066533 -0.101983 0 127 127
0.352766 0.157703 0.092809 0 127 127
-0.218812 0.807116 -0.423135 153 0 76
-0.130991 0.090002 0.344986 0 127 127
0.065703 0.107925 0.192647 0 127 127
0.039755 0.813164 -0.470370 153 0 76
0.403621 0.190842 0.020430 0 127 127
0.352872 -0.603954 -0.040126 0 255 0
-0.066410 0.503396 -0.388173 153 0 76
-0.146660 -0.278409 0.132517 0 255 0
-0.321726 -0.547280 -0.021034 0 255 0
-0.034543 0.092429 0.059547 0 127 127
-0.328019 0.153410 0.243657 0 127 127
0.446258 -0.360503 0.425927 0 255 0
0.169835 -0.128839 0.300186 127 127 0
-0.440086 -0.212063 0.481004 127 127 0
-0.015316 0.079861 -0.003287 0 127 127
-0.372650 0.060445 0.460169 0 255 0
-0.033290 0.097630 0.314110 0 127 127
-0.083794 0.683211 -0.408242 153 0 76
0.334463 -0.243440 0.333479 0 255 0
-0.147925 0.080670 -0.053593 0 127 127
0.446257 0.159398 0.385976 0 127 127
0.040993 0.096267 0.317345 0 127 127
0.345900 0.158668 0.244073 0 127 127
0.057298 0.511605 -0.388891 153 0 76
-0.385679 -0.537561 0.226487 127 127 0
-0.440073 0.176365 0.120236 0 127 127
0.101733 0.053252 0.379042 0 255 0
0.100814 -0.045601 0.353319 0 255 0
-0.356083 0.167962 0.208147 0 127 127
0.120849 0.576147 -0.388054 153 0 76
0.259854 -0.347508 0.142212 127 127 0
0.093671 -0.607770 -0.393539 127 127 0
-0.252160 -0.507396 -0.091266 0 255 0
0.446258 0.045929 0.419081 127 127 0
0.355023 0.107449 0.412277 0 127 127
-0.425155 -0.451745 0.419717 0 255 0
-0.353076 0.160672 0.091265 0 127 127
0.128653 -0.031321 0.367566 127 127 0
-0.212055 -0.457006 -0.064073 0 255 0
0.158926 0.238275 -0.377985 153 0 76
0.298128 0.393818 -0.340038 153 0 76
0.144090 -0.272054 0.135866 0 255 0
-0.327681 0.507583 -0.317384 153 0 76
-0.339202 0.580046 -0.303545 153 0 76
0.295426 0.636712 -0.342948 153 0 76
0.038295 0.788801 -0.455677 153 0 76
-0.175626 0.642831 -0.386589 153 0 76
-0.399601 -0.582767 0.279638 127 127 0
-0.247165 -0.301055 0.187121 127 127 0
0.329940 0.716473 -0.347199 153 0 76
-0.407409 -0.305046 0.465960 127 127 0
-0.328186 0.592009 -0.312037 153 0 76
-0.344452 0.161556 0.163906 0 127 127
0.408986 -0.529589 0.341403 0 255 0
-0.440085 -0.284088 0.455186 127 127 0
-0.076726 -0.542952 -0.293634 0 255 0
0.343444 0.152680 0.296042 0 127 127
0.272470 0.132252 0.266806 0 127 127
-0.013053 0.066132 -0.230410 0 127 127
0.423818 -0.488235 0.403297 0 255 0
-0.023454 -0.221786 0.169742 0 255 0
-0.131483 0.424199 -0.382047 153 0 76
-0.369080 -0.553645 0.124938 127 127 0
-0.165186 -0.180908 0.252210 127 127 0
0.166428 -0.527552 -0.225004 127 127 0
-0.216938 0.290682 -0.364890 153 0 76
-0.104035 0.815553 -0.465526 153 0 76
-0.360678 -0.589787 0.034182 127 127 0
-0.227467 -0.426586 0.000264 0 255 0
0.311441 -0.269285 0.285435 0 255 0
0.247191 -0.268060 0.214092 127 127 0
0.412536 -0.095756 0.515772 0 255 0
0.141773 -0.593231 -0.346503 0 255 0
-0.232526 -0.421236 0.014410 0 255 0
0.236020 -0.269415 0.202224 127 127 0
-0.309697 -0.413976 0.145054 0 255 0
0.275955 0.118028 -0.208392 0 127 127
-0.225899 -0.473885 -0.072105 0 255 0
0.339574 0.152182 0.101390 0 127 127
-0.015633 -0.243045 0.142237 127 127 0
-0.387219 -0.515217 0.263766 0 255 0
0.342751 0.662296 -0.312163 153 0 76
0.095756 0.068952 -0.116743 0 127 127
0.421800 -0.149601 0.517194 0 255 0
-0.096614 0.103386 0.107454 0 127 127
-0.408626 -0.108816 0.518348 0 255 0
-0.312385 -0.461657 0.087067 0 255 0
0.059860 0.092688 0.326514 0 127 127
-0.027569 -0.522782 -0.270050 0 255 0
0.194178 0.297941 -0.372407 153 0 76
-0.366633 -0.421689 0.280091 0 255 0
-0.019034 0.397957 -0.388348 153 0 76
-0.214342 -0.480051 -0.096597 0 255 0
0.446259 -0.218423 0.448653 127 127 0
-0.422888 -0.220230 0.503178 0 255 0
0.240478 -0.004404 0.402096 0 255 0
0.180756 0.486993 -0.375641 153 0 76
-0.133277 0.105658 0.300817 0 127 127
0.181008 -0.485268 -0.144313 0 255 0
-0.205423 0.118870 -0.295061 0 127 127
-0.396457 0.189278 -0.014129 0 127 127
-0.440086 -0.086786 0.500736 127 127 0
-0.411729 -0.049028 0.525925 0 255 0
0.067354 -0.465358 -0.173655 127 127 0
0.347153 -0.511286 0.090542 0 255 0
-0.345177 -0.365080 0.275763 127 127 0
-0.196450 -0.141225 0.301729 127 127 0
-0.071961 -0.499173 -0.225196 127 127 0
0.191817 -0.565215 -0.262367 0 255 0
0.102291 -0.206117 0.199941 127 127 0
0.160507 0.831257 -0.460704 153 0 76
-0.406821 -0.254938 0.481644 127 127 0
-0.014034 -0.199558 0.196643 0 255 0
-0.399937 -0.599989 0.266526 0 255 0
0.043281 0.000989 0.375240 0 255 0
0.446248 0.194714 0.141170 0 127 127
-0.393802 -0.506894 0.312312 127 127 0
-0.001131 -0.045067 0.348988 0 255 0
-0.319829 0.074719 0.420095 0 127 127
-0.061201 -0.417216 -0.099648 0 255 0
0.070997 -0.340204 0.017228 0 255 0
0.213052 0.089637 -0.170375 0 127 127
0.401871 -0.509069 0.321280 127 127 0
0.203084 0.073356 0.381333 0 127 127
0.446261 0.013626 0.501689 127 127 0
-0.440077 0.193995 0.235389 0 127 127
-0.313173 0.149617 0.212871 0 127 127
0.028972 -0.136393 0.268387 127 127 0
0.162933 0.099759 -0.288557 0 127 127
-0.015397 0.106525 0.168522 0 127 127
-0.348793 -0.451113 0.191112 127 127 0
0.078413 -0.195225 0.207318 0 255 0
-0.115186 0.073841 0.366832 0 127 127
0.059775 -0.067006 0.333756 127 127 0
-0.311990 0.153659 -0.232813 0 127 127
0.280376 0.032120 0.416987 0 255 0
0.336179 0.276175 -0.311226 153 0 76
0.339066 -0.332812 0.275842 127 127 0
0.088336 0.106242 0.139931 0 127 127
0.276686 -0.500737 -0.049636 127 127 0
-0.337681 -0.485819 0.114182 0 255 0
0.203711 0.818353 -0.436197 153 0 76
-0.020896 0.102828 0.282186 0 127 127
0.383740 0.180031 0.244732 0 127 127
-0.104929 -0.228322 0.175334 0 255 0
0.013059 0.089262 0.332784 0 127 127
-0.336431 -0.133117 0.402760 127 127 0
-0.226365 0.569242 -0.365048 153 0 76
0.179816 0.107443 0.081506 0 127 127
0.050548 0.145689 -0.370053 153 0 76
-0.169045 0.108846 -0.301847 0 127 127
0.415235 0.388391 -0.251247 153 0 76
0.098238 -0.265443 0.125783 0 255 0
-0.440087 -0.064236 0.517032 127 127 0
0.052398 -0.428996 -0.119235 0 255 0
-0.290180 0.127056 0.041417 0 127 127
-0.250373 0.131270 0.195788 0 127 127
-0.440085 -0.264635 0.473868 127 127 0
-0.246964 -0.555021 -0.175001 127 127 0
0.302762 -0.013413 0.423798 0 255 0
0.102866 0.097985 0.074871 0 127 127
0.113471 0.110155 0.181095 0 127 127
-0.015795 -0.167729 0.234419 127 127 0
0.328387 0.144387 0.077452 0 127 127
0.218775 -0.206023 0.253509 0 255 0
-0.343053 0.185017 -0.233585 0 127 127
0.315230 0.234365 -0.315344 153 0 76
-0.253666 0.488135 -0.354637 153 0 76
0.406210 0.065983 0.486129 0 255 0
-0.140049 0.097805 0.328946 0 127 127
0.377567 -0.069061 0.467001 127 127 0
0.420316 0.451690 -0.284711 153 0 76
0.401979 0.191468 0.070632 0 127 127
0.043684 -0.586733 -0.371432 127 127 0
0.370375 0.160262 0.009326 0 127 127
0.170376 0.250992 -0.376099 153 0 76
-0.371272 0.227187 -0.234990 153 0 76
0.430104 0.220170 -0.097747 0 127 127
-0.323316 0.147969 0.287502 0 127 127
-0.288288 0.124348 -0.191660 0 127 127
0.446256 0.144683 0.352681 0 127 127
0.446241 0.173922 0.074819 0 127 127
0.443519 -0.540833 0.364380 0 255 0
-0.055433 -0.362797 -0.016620 127 127 0
-0.258144 0.103881 -0.108388 0 127 127
0.363400 0.157071 0.330848 0 127 127
-0.083618 0.067210 -0.147677 0 127 127
0.149797 0.074434 -0.143852 0 127 127
-0.350058 0.156975 0.073227 0 127 127
0.229756 0.782081 -0.404203 153 0 76
-0.355365 0.057745 0.448112 0 255 0
-0.056192 0.820048 -0.474552 153 0 76
0.446260 0.060119 0.462111 127 127 0
-0.366917 -0.437012 0.261849 127 127 0
0.428180 0.407950 -0.276339 153 0 76
0.204601 -0.591027 -0.291669 127 127 0
0.343223 -0.605363 -0.070152 127 127 0
-0.169073 0.116718 0.226025 0 127 127
0.434747 0.363223 -0.258601 153 0 76
-0.440079 0.147360 0.289510 0 127 127
0.238234 0.100618 0.357158 0 127 127
-0.364180 -0.097566 0.451790 127 127 0
0.446257 0.097119 0.384446 0 127 127
-0.074275 0.600762 -0.393843 153 0 76
0.312736 -0.471500 0.061508 127 127 0
0.051229 0.086819 -0.300399 0 127 127
0.337857 -0.499192 0.082151 0 255 0
0.340544 0.145724 0.048527 0 127 127
0.069323 -0.537160 -0.288643 127 127 0
0.330797 0.303898 -0.318383 153 0 76
0.256307 0.677116 -0.368417 153 0 76
-0.189107 0.750574 -0.410463 153 0 76
0.084476 0.231667 -0.387313 153 0 76
-0.267051 -0.094472 0.372577 127 127 0
0.366489 0.654673 -0.315269 153 0 76
-0.131312 -0.105457 0.311044 0 255 0
-0.185008 0.042302 0.393134 0 255 0
-0.071406 0.087730 0.029586 0 127 127
0.380012 -0.125276 0.453466 127 127 0
-0.190889 0.119785 0.222650 0 127 127
0.088898 0.107815 -0.331443 153 0 76
0.194750 -0.001837 0.391168 0 255 0
-0.286740 0.092972 0.391438 0 127 127
-0.222032 0.057069 0.396692 0 127 127
-0.075440 -0.284292 0.097170 127 127 0
-0.039496 0.082722 0.008940 0 127 127
-0.316682 -0.322754 0.257291 127 127 0
0.099881 -0.138952 0.272638 127 127 0
0.042079 0.283388 -0.389830 153 0 76
0.355361 -0.575996 0.011903 127 127 0
-0.018421 0.302341 -0.390291 153 0 76
0.039891 0.091352 0.054151 0 127 127
0.102681 -0.321868 0.052911 127 127 0
0.032723 0.064190 -0.167641 0 127 127
-0.378963 0.178106 0.284294 0 127 127
0.285804 0.120834 0.018828 0 127 127
0.397081 0.260657 -0.216453 153 0 76
-0.431325 -0.371051 0.450648 0 255 0
-0.007280 0.131267 -0.360361 153 0 76
-0.221886 -0.450219 -0.041505 0 255 0
-0.244152 -0.586351 -0.228892 127 127 0
0.009315 0.065867 -0.108351 0 127 127
0.425070 0.425986 -0.293888 153 0 76
-0.397797 0.193674 -0.051231 0 127 127
-0.220492 0.010595 0.402294 127 127 0
-0.039134 0.351243 -0.389452 153 0 76
0.357660 -0.480953 0.162114 127 127 0
-0.238474 0.122685 -0.269256 0 127 127
-0.137407 0.041873 0.386502 0 255 0
0.231343 0.525238 -0.363954 153 0 76
0.380137 -0.566277 0.127462 127 127 0
0.239572 0.606257 -0.366115 153 0 76
0.189926 -0.172343 0.268887 127 127 0
-0.332236 0.091924 0.414413 0 127 127
0.165525 -0.215355 0.213186 127 127 0
0.343564 0.182795 -0.241599 153 0 76
-0.132200 0.080199 -0.043547 0 127 127
0.384842 -0.286069 0.399323 0 255 0
0.399699 -0.616616 0.179544 127 127 0
0.263745 -0.362120 0.128167 127 127 0
0.285668 -0.475627 0.003922 0 255 0
-0.404312 0.325221 -0.227274 153 0 76
-0.390093 -0.339709 0.405632 0 255 0
-0.228240 0.094912 -0.156519 0 127 127
0.048641 0.204013 -0.388856 153 0 76
-0.334486 -0.459767 0.144542 0 255 0
0.446261 -0.202718 0.485720 127 127 0
-0.399463 0.449746 -0.266022 153 0 76
0.056298 -0.226529 0.165884 0 255 0
0.404998 -0.204515 0.478170 0 255 0
0.233232 0.093648 -0.125837 0 127 127
-0.220343 -0.232194 0.234123 127 127 0
-0.349071 -0.172148 0.399319 0 255 0
0.252909 0.079718 0.389250 0 255 0
-0.312728 0.134207 0.334928 0 127 127
-0.440084 -0.236623 0.439385 127 127 0
-0.044427 -0.109043 0.295614 127 127 0
-0.340836 0.231535 -0.286035 153 0 76
-0.323778 0.623167 -0.315785 153 0 76
0.412579 -0.173367 0.501940 127 127 0
0.241896 0.698487 -0.378536 153 0 76
-0.151122 -0.268216 0.147085 127 127 0
0.057342 -0.318177 0.046237 127 127 0
0.300128 -0.088356 0.393410 127 127 0
0.109663 0.109000 0.244477 0 127 127
-0.252387 -0.582984 -0.212189 127 127 0
0.389895 0.182219 -0.088866 0 127 127
-0.383479 0.305132 -0.255839 153 0 76
-0.145551 0.295907 -0.380481 153 0 76
-0.137920 0.838155 -0.471261 153 0 76
0.358699 0.207375 -0.250654 153 0 76
0.234349 -0.536862 -0.169999 0 255 0
-0.076893 -0.468223 -0.173638 127 127 0
0.278543 -0.439056 0.044872 127 127 0
-0.392690 -0.200482 0.466471 0 255 0
0.097872 0.412206 -0.386129 153 0 76
-0.178913 -0.207067 0.232147 127 127 0
-0.290290 0.119013 -0.025353 0 127 127
-0.108545 0.071048 -0.102918 0 127 127
0.003369 -0.195687 0.201299 0 255 0
0.144923 0.095224 0.040484 0 127 127
-0.199311 -0.084124 0.349344 0 255 0
-0.121183 0.199896 -0.379544 153 0 76
-0.267008 -0.367961 0.133407 127 127 0
0.116504 0.379387 -0.384595 153 0 76
0.084680 -0.578547 -0.350078 0 255 0
0.086863 -0.222311 0.176759 0 255 0
0.318015 -0.557182 -0.058676 0 255 0
0.029549 -0.564658 -0.337785 127 127 0
-0.363963 0.178187 -0.165805 0 127 127
-0.167991 0.831615 -0.472317 153 0 76
0.380775 -0.290217 0.386972 0 255 0
0.284045 -0.203617 0.305671 127 127 0
-0.116124 0.109499 0.254099 0 127 127
-0.127719 0.011792 0.386027 0 255 0
0.373921 0.633125 -0.331033 153 0 76
0.446261 -0.143252 0.508612 127 127 0
0.108725 0.617651 -0.393343 153 0 76
0.064688 0.401195 -0.388250 153 0 76
-0.235125 0.128105 0.208765 0 127 127
0.024068 0.083305 -0.294152 0 127 127
-0.212960 0.203153 -0.355944 153 0 76
-0.317882 0.433243 -0.326575 153 0 76
0.289348 -0.398843 0.117426 0 255 0
-0.440076 0.166196 0.211730 0 127 127
0.010209 0.305848 -0.390346 153 0 76
-0.021083 0.064135 -0.157901 0 127 127
0.224323 0.135018 -0.309722 153 0 76
0.087207 0.090470 0.040904 0 127 127
-0.177770 0.113136 0.285743 0 127 127
0.252452 0.118618 -0.250458 0 127 127
-0.371735 -0.578163 0.095943 0 255 0
-0.365371 -0.394970 0.302350 127 127 0
-0.218729 0.108649 -0.257622 0 127 127
0.207974 0.119479 0.260696 0 127 127
-0.180613 0.174207 -0.356974 153 0 76
0.026898 0.163881 -0.376930 153 0 76
0.335687 -0.141980 0.391034 0 255 0
0.128108 -0.258129 0.145896 127 127 0
-0.263105 0.111865 -0.196115 0 127 127
0.232509 -0.102016 0.346118 127 127 0
0.280178 0.609072 -0.349845 153 0 76
0.167942 -0.606029 -0.349961 127 127 0
-0.156162 -0.452816 -0.108501 0 255 0
-0.038015 0.315897 -0.389847 153 0 76
-0.021827 0.082675 0.010686 0 127 127
-0.417572 0.434027 -0.294175 153 0 76
0.402556 0.236151 -0.175416 153 0 76
-0.409061 -0.000314 0.516484 0 255 0
-0.279274 0.160795 -0.290848 153 0 76
-0.376889 -0.356416 0.355852 127 127 0
-0.239482 0.553365 -0.359670 153 0 76
0.124850 -0.044633 0.357302 0 255 0
0.128707 0.391950 -0.383035 153 0 76
-0.340272 0.695425 -0.351247 153 0 76
0.019959 0.276915 -0.390295 153 0 76
-0.344582 0.159300 0.270107 0 127 127
0.130719 -0.166492 0.252363 127 127 0
-0.191017 -0.607201 -0.324652 127 127 0
0.368510 -0.047632 0.462395 0 255 0
0.306226 -0.536288 -0.050994 0 255 0
-0.140982 -0.576180 -0.315624 0 255 0
-0.037056 0.064453 -0.211874 0 127 127
0.032290 0.072997 -0.266314 0 127 127
-0.061202 0.726252 -0.424265 153 0 76
-0.104405 0.094318 -0.304350 0 127 127
0.318156 -0.219150 0.329905 127 127 0
0.242290 0.772479 -0.393604 153 0 76
-0.026537 -0.311812 0.052312 0 255 0
-0.391928 -0.561882 0.238890 127 127 0
-0.332430 0.139194 -0.108386 0 127 127
0.373104 0.143524 0.378082 0 127 127
0.346493 0.089102 0.421211 0 127 127
-0.330907 0.136304 0.347402 0 127 127
-0.030683 0.070466 -0.062715 0 127 127
0.443635 -0.315898 0.463774 0 255 0
-0.440085 -0.151491 0.460145 127 127 0
0.116778 0.497587 -0.384802 153 0 76
-0.070353 0.576991 -0.391920 153 0 76
0.150575 0.113450 0.177018 0 127 127
-0.133288 -0.302710 0.095568 127 127 0
0.070709 0.574637 -0.392032 153 0 76
0.394002 -0.572346 0.196163 0 255 0
-0.328405 -0.532252 0.022303 127 127 0
-0.335785 0.473782 -0.313391 153 0 76
0.154534 -0.264103 0.150514 127 127 0
0.446259 0.105523 0.458566 0 127 127
-0.325779 -0.234099 0.336348 0 255 0
-0.214548 0.150701 -0.326376 153 0 76
0.056276 0.849245 -0.505705 153 0 76
-0.086185 0.429324 -0.386694 153 0 76
-0.114179 0.084462 -0.004019 0 127 127
-0.105841 0.463769 -0.385304 153 0 76
-0.072316 0.076505 -0.031387 0 127 127
-0.151087 0.622545 -0.387505 153 0 76
-0.426676 0.204284 0.293381 0 127 127
0.413263 0.446448 -0.266699 153 0 76
0.023116 -0.573851 -0.353351 0 255 0
0.441922 0.301116 -0.232192 153 0 76
0.378197 0.164743 -0.032351 0 127 127
-0.151359 -0.518133 -0.215693 127 127 0
0.303782 0.648545 -0.337496 153 0 76
-0.385194 -0.202219 0.449757 127 127 0
-0.006211 -0.064237 0.334464 127 127 0
-0.427361 0.152330 0.429623 0 127 127
-0.312597 -0.005958 0.432451 0 255 0
-0.217976 -0.605349 -0.293012 0 255 0
-0.037134 0.097239 0.083830 0 127 127
-0.377948 0.257356 -0.242839 153 0 76
-0.407523 -0.331490 0.456800 0 255 0
0.275664 0.263068 -0.344722 153 0 76
-0.265121 -0.400615 0.088539 0 255 0
-0.375841 0.179364 0.232494 0 127 127
-0.157233 -0.109620 0.314078 127 127 0
-0.028522 0.822763 -0.478917 153 0 76
0.405613 0.518633 -0.293204 153 0 76
0.097876 0.006210 0.380125 0 255 0
0.097040 0.242366 -0.386431 153 0 76
-0.125992 -0.514512 -0.226438 127 127 0
-0.393436 -0.401784 0.384442 127 127 0
0.316977 0.142791 0.097466 0 127 127
-0.356245 -0.234619 0.380120 127 127 0
-0.363452 -0.070528 0.457219 127 127 0
-0.243094 -0.158054 0.312809 127 127 0
0.375858 -0.526964 0.163189 127 127 0
-0.148375 -0.082101 0.335296 0 255 0
-0.159486 0.116117 0.213014 0 127 127
-0.303019 0.155585 -0.252545 0 127 127
0.227371 -0.578561 -0.245884 127 127 0
-0.409998 0.065359 0.497225 0 255 0
0.259154 -0.337953 0.154361 127 127 0
-0.162466 0.757595 -0.420660 153 0 76
-0.277704 -0.110664 0.367881 0 255 0
-0.261055 0.388866 -0.352460 153 0 76
0.227700 0.098757 -0.216396 0 127 127
0.446259 -0.339348 0.449558 0 255 0
-0.225376 -0.281540 0.185805 0 255 0
-0.300769 -0.391081 0.157936 127 127 0
-0.374652 0.201010 -0.186985 0 127 127
0.149381 0.109854 0.129489 0 127 127
0.059631 0.064552 -0.208246 0 127 127
0.446260 0.061017 0.478217 127 127 0
-0.051073 -0.048324 0.347666 0 255 0
-0.440085 0.092160 0.469710 0 127 127
0.353168 -0.254542 0.354240 127 127 0
-0.204337 0.613121 -0.375425 153 0 76
-0.283334 0.696093 -0.350202 153 0 76
-0.180918 0.700447 -0.396854 153 0 76
-0.115558 -0.545903 -0.283518 0 255 0
0.324309 -0.000563 0.435878 127 127 0
-0.359428 0.656976 -0.325216 153 0 76
-0.135436 -0.547100 -0.272575 127 127 0
0.363158 -0.461883 0.202565 0 255 0
0.010339 0.721197 -0.423862 153 0 76
0.110441 0.071110 -0.088997 0 127 127
0.054441 0.070096 -0.068136 0 127 127
0.303748 -0.275479 0.269455 0 255 0
-0.415382 0.209751 0.225842 0 127 127
0.199138 -0.071760 0.356095 127 127 0
0.259720 0.102615 -0.124114 0 127 127
0.255741 -0.591860 -0.230777 127 127 0
0.076460 -0.237079 0.155688 0 255 0
-0.044643 -0.027282 0.363322 127 127 0
0.090806 -0.099895 0.307571 0 255 0
-0.019929 -0.358212 -0.013849 0 255 0
-0.066852 -0.512240 -0.248120 127 127 0
-0.414397 -0.317315 0.473106 0 255 0
0.364233 0.163993 0.287883 0 127 127
0.061954 0.346312 -0.389132 153 0 76
0.179526 -0.083725 0.341063 0 255 0
-0.188012 -0.238280 0.204048 127 127 0
-0.346467 0.302741 -0.301382 153 0 76
-0.053489 0.015078 0.381501 0 255 0
-0.333840 0.627190 -0.307754 153 0 76
-0.102334 0.072411 -0.074872 0 127 127
-0.389610 0.191659 0.214200 0 127 127
-0.033168 -0.336850 0.018461 0 255 0
0.073615 -0.311065 0.058477 127 127 0
-0.226085 -0.332429 0.129102 0 255 0
-0.360422 -0.562080 0.077648 0 255 0
0.369740 -0.479830 0.203521 0 255 0
0.405053 0.258937 -0.194739 153 0 76
-0.353232 0.136361 0.373982 0 127 127
0.063241 0.703645 -0.416392 153 0 76
0.029772 -0.159550 0.244313 127 127 0
-0.405307 -0.542003 0.345237 127 127 0
-0.064024 -0.301053 0.071127 127 127 0
-0.259453 0.375454 -0.353093 153 0 76
-0.005736 0.460035 -0.389812 153 0 76
-0.125909 0.552638 -0.384587 153 0 76
-0.176001 -0.579456 -0.294364 127 127 0
-0.301702 0.112219 0.373435 0 127 127
-0.136761 0.562027 -0.383898 153 0 76
-0.014806 0.064186 -0.215162 0 127 127
-0.207008 -0.550213 -0.218033 0 255 0
-0.086712 0.306494 -0.387334 153 0 76
0.244914 0.127487 0.241726 0 127 127
0.366359 -0.610584 -0.001114 127 127 0
-0.269520 0.135910 0.203074 0 127 127
0.367210 0.276001 -0.280089 153 0 76
-0.126853 -0.607019 -0.374338 0 255 0
-0.384533 0.373079 -0.266093 153 0 76
0.277016 0.135332 0.159476 0 127 127
-0.172893 0.670633 -0.392713 153 0 76
0.283976 -0.606566 -0.207179 127 127 0
-0.177271 -0.155386 0.281773 0 255 0
-0.363762 -0.451255 0.234361 127 127 0
0.368598 0.085517 0.439097 0 127 127
0.277297 -0.040605 0.404454 127 127 0
0.257812 0.103235 -0.059111 0 127 127
0.172676 0.701662 -0.400341 153 0 76
0.080459 0.085643 0.017496 0 127 127
0.400597 0.540693 -0.307827 153 0 76
-0.404726 0.111417 0.463485 0 127 127
-0.187252 0.206045 -0.366029 153 0 76
0.352809 0.148341 0.337731 0 127 127
-0.438503 -0.313339 0.463473 127 127 0
0.399326 -0.603470 0.197029 127 127 0
-0.075785 0.079933 -0.012884 0 127 127
0.163094 -0.554408 -0.270281 0 255 0
0.055137 0.076011 -0.271824 0 127 127
0.386456 -0.615337 0.084527 127 127 0
-0.309928 -0.132970 0.378042 0 255 0
0.405320 -0.287420 0.452091 127 127 0
-0.032381 0.842821 -0.495569 153 0 76
-0.235475 -0.225141 0.251746 127 127 0
-0.254821 -0.095664 0.364814 0 255 0
0.381591 0.209666 -0.199815 153 0 76
-0.142354 0.323528 -0.381253 153 0 76
0.408246 -0.610249 0.269009 0 255 0
-0.025093 0.105505 0.255031 0 127 127
0.267750 0.121752 0.062707 0 127 127
-0.072306 0.133168 -0.357830 153 0 76
0.384830 0.171497 0.332496 0 127 127
0.137509 0.077975 -0.059584 0 127 127
-0.194196 0.112440 0.306163 0 127 127
0.358085 -0.607258 -0.028036 127 127 0
0.002278 -0.211972 0.181624 127 127 0
-0.113892 0.070697 -0.209222 0 127 127
0.172059 0.098099 -0.277265 0 127 127
0.173106 0.382521 -0.376716 153 0 76
-0.233828 0.170636 -0.333918 153 0 76
-0.374202 -0.180207 0.433921 127 127 0
0.195527 0.024325 0.396202 0 255 0
0.097928 -0.118340 0.292086 0 255 0
-0.139528 0.110724 0.269926 0 127 127
-0.328260 0.290869 -0.314285 153 0 76
0.313906 0.135017 -0.186618 0 127 127
0.446247 0.163360 0.124127 0 127 127
-0.330956 -0.297477 0.299566 127 127 0
-0.158206 0.412616 -0.377894 153 0 76
-0.304333 -0.604450 -0.150990 127 127 0
0.446260 -0.125230 0.461524 127 127 0
0.038918 0.113148 -0.341790 153 0 76
0.368992 -0.314789 0.347766 0 255 0
-0.351469 0.161254 0.104742 0 127 127
0.031068 0.438605 -0.389069 153 0 76
-0.155955 0.112597 0.267680 0 127 127
-0.126721 -0.459917 -0.138345 0 255 0
0.081615 0.102897 0.113699 0 127 127
0.128526 0.111362 0.174295 0 127 127
0.021535 -0.498673 -0.232765 127 127 0
0.336430 0.500856 -0.315973 153 0 76
-0.361670 0.166725 -0.133321 0 127 127
-0.313574 -0.158950 0.366518 127 127 0
-0.440085 -0.115756 0.465605 127 127 0
0.446259 -0.103588 0.446142 127 127 0
-0.358405 -0.577992 0.044248 0 255 0
0.092089 0.688517 -0.409102 153 0 76
0.070394 0.605612 -0.394840 153 0 76
0.089803 -0.514071 -0.244643 127 127 0
-0.049376 -0.433092 -0.125015 0 255 0
-0.026337 0.000288 0.374702 127 127 0
-0.440086 -0.034176 0.501657 127 127 0
0.074486 -0.181592 0.222720 127 127 0
-0.347438 -0.205513 0.381558 127 127 0
-0.276894 0.198628 -0.323778 153 0 76
-0.430659 -0.389894 0.444210 0 255 0
-0.089410 -0.532313 -0.271707 127 127 0
-0.096918 -0.164277 0.247507 127 127 0
0.219007 0.306164 -0.366366 153 0 76
0.366168 -0.405559 0.278449 127 127 0
0.311614 0.124059 -0.110423 0 127 127
0.220947 -0.282935 0.175475 127 127 0
0.194971 0.104114 -0.275408 0 127 127
0.441547 -0.605993 0.333230 0 255 0
-0.129966 -0.012198 0.377240 127 127 0
0.016009 -0.484958 -0.210753 127 127 0
-0.286054 -0.585400 -0.159294 127 127 0
-0.192906 -0.440065 -0.057394 127 127 0
0.446248 0.180522 0.128467 0 127 127
0.024472 0.844153 -0.497995 153 0 76
0.043615 0.066960 -0.096316 0 127 127
0.386457 -0.439785 0.310455 127 127 0
0.010792 0.689649 -0.412598 153 0 76
0.373267 0.634167 -0.313973 153 0 76
0.291610 0.127414 0.328302 0 127 127
0.399952 -0.591578 0.222158 127 127 0
0.370357 0.229194 -0.248282 153 0 76
-0.416927 0.209032 0.144558 0 127 127
0.210058 -0.494908 -0.132238 0 255 0
0.138588 -0.353340 0.025691 0 255 0
-0.226404 -0.291930 0.175528 127 127 0
-0.262353 0.520254 -0.351732 153 0 76
-0.414828 -0.529599 0.384261 0 255 0
0.315995 0.143745 0.282554 0 127 127
0.083021 0.042853 0.381546 127 127 0
-0.403450 0.078464 0.484793 0 255 0
-0.066085 0.547783 -0.389478 153 0 76
-0.055761 0.849043 -0.506157 153 0 76
0.257024 0.646417 -0.363206 153 0 76
-0.360700 0.507217 -0.288575 153 0 76
0.109942 -0.126746 0.286238 127 127 0
-0.108391 0.096608 0.063810 0 127 127
-0.361439 -0.178699 0.413825 127 127 0
-0.222002 0.093794 -0.068205 0 127 127
0.157332 0.144841 -0.350136 153 0 76
-0.411877 0.463609 -0.290853 153 0 76
0.151802 0.091006 0.346074 0 127 127
0.110996 0.470048 -0.385424 153 0 76
0.446260 -0.147670 0.484238 127 127 0
0.042914 0.083038 0.010878 0 127 127
0.126058 0.739204 -0.422760 153 0 76
-0.242111 0.771860 -0.390835 153 0 76
0.293971 -0.514104 -0.041940 0 255 0
0.130423 0.105523 0.296115 0 127 127
0.118658 0.136200 -0.353172 153 0 76
-0.430417 -0.196482 0.507204 127 127 0
-0.083560 -0.161286 0.248476 127 127 0
-0.053592 -0.489560 -0.213453 0 255 0
0.446254 -0.588151 0.313122 127 127 0
-0.204930 0.452253 -0.368955 153 0 76
0.390159 0.302074 -0.253622 153 0 76
-0.219780 -0.041374 0.383505 0 255 0
-0.353899 0.248198 -0.278419 153 0 76
0.285706 0.138245 0.177639 0 127 127
-0.412739 0.200808 0.320042 0 127 127
-0.420228 0.222011 -0.104012 0 127 127
0.219489 0.096311 -0.025402 0 127 127
0.313093 -0.578977 -0.104445 127 127 0
-0.440076 0.187875 0.217054 0 127 127
0.206172 -0.214531 0.236837 0 255 0
-0.244575 -0.272675 0.212720 127 127 0
0.138352 -0.232310 0.181211 0 255 0
0.179588 0.082557 -0.208309 0 127 127
0.292983 -0.102409 0.379234 0 255 0
0.092517 0.366171 -0.386904 153 0 76
0.251901 0.507256 -0.357512 153 0 76
-0.375483 0.016693 0.476635 0 255 0
-0.183372 0.557537 -0.375064 153 0 76
0.157727 0.781411 -0.434390 153 0 76
0.049208 -0.494827 -0.223237 127 127 0
0.142823 0.376880 -0.381559 153 0 76
0.291362 -0.548343 -0.101287 127 127 0
0.316413 -0.518139 0.000466 127 127 0
0.139006 0.197889 -0.376723 153 0 76
-0.094505 -0.445071 -0.130506 0 255 0
0.446260 -0.007677 0.477182 127 127 0
-0.296252 0.142894 0.169532 0 127 127
-0.440083 -0.439288 0.399724 127 127 0
-0.388485 0.264535 -0.224601 153 0 76
-0.440085 -0.330066 0.454105 127 127 0
-0.008854 0.791992 -0.457848 153 0 76
-0.419813 -0.017492 0.522440 0 255 0
0.443160 0.284336 -0.212837 153 0 76
0.347712 0.562280 -0.302223 153 0 76
0.327800 0.066583 0.426718 127 127 0
0.119287 -0.357846 0.008558 0 255 0
0.254275 -0.207146 0.278537 0 255 0
0.408784 0.242286 -0.165387 153 0 76
-0.396182 0.482157 -0.272045 153 0 76
0.277832 0.203210 -0.328681 153 0 76
0.398782 0.030971 0.492082 0 255 0
-0.150795 0.831807 -0.462298 153 0 76
0.446255 0.144942 0.339252 0 127 127
-0.111671 0.261085 -0.384593 153 0 76
0.105686 0.105237 0.284627 0 127 127
0.434806 -0.512276 0.392233 0 255 0
0.383498 0.586047 -0.293002 153 0 76
0.319462 -0.198455 0.343808 127 127 0
-0.292836 -0.470902 0.034441 127 127 0
0.239475 0.562995 -0.362116 153 0 76
0.184774 -0.329543 0.089021 0 255 0
0.284065 -0.223878 0.290357 127 127 0
0.334950 0.134710 -0.054947 0 127 127
0.388895 0.185962 0.216390 0 127 127
-0.264795 -0.536744 -0.117059 127 127 0
-0.235388 -0.306107 0.169547 0 255 0
0.211952 0.397476 -0.368625 153 0 76
0.374735 0.175397 0.222086 0 127 127
0.344803 0.155918 -0.177393 0 127 127
-0.378435 0.183740 -0.127199 0 127 127
0.258553 -0.582698 -0.211744 127 127 0
-0.298570 -0.423485 0.113698 127 127 0
-0.191759 0.096820 0.006762 0 127 127
-0.047426 0.276449 -0.389513 153 0 76
-0.196180 0.665226 -0.385839 153 0 76
-0.286114 0.406740 -0.342629 153 0 76
0.397790 -0.414719 0.371764 0 255 0
0.341528 0.144534 0.033152 0 127 127
-0.284529 0.125674 0.331713 0 127 127
0.395547 0.190029 0.242278 0 127 127
0.375412 -0.100472 0.456772 127 127 0
-0.075663 -0.576158 -0.347331 0 255 0
-0.428695 0.210089 0.216878 0 127 127
-0.036418 -0.551853 -0.315591 127 127 0
-0.371866 0.182045 -0.148353 0 127 127
0.398674 -0.538558 0.277257 0 255 0
-0.175046 0.081795 -0.188454 0 127 127
0.446238 0.185045 -0.107645 0 127 127
-0.435548 0.138202 0.445267 0 127 127
0.017600 -0.605376 -0.404014 127 127 0
0.445997 0.248923 -0.167391 153 0 76
-0.203624 0.088337 -0.162233 0 127 127
-0.203046 -0.105534 0.333296 0 255 0
-0.273043 0.177773 -0.311719 153 0 76
-0.263354 0.109676 -0.023147 0 127 127
0.297099 0.139676 0.259944 0 127 127
0.261369 -0.387160 0.091983 127 127 0
-0.074261 -0.453866 -0.151602 0 255 0
0.188933 -0.222904 0.218202 0 255 0
-0.440084 -0.330006 0.437498 127 127 0
-0.325857 -0.400905 0.195729 0 255 0
0.412768 0.204057 0.120590 0 127 127
0.223921 -0.539104 -0.186993 127 127 0
0.305019 -0.490996 0.017827 0 255 0
0.169865 -0.421691 -0.056681 0 255 0
0.149217 -0.386118 -0.015716 127 127 0
-0.164877 0.051197 0.388539 0 127 127
0.370288 0.446571 -0.288979 153 0 76
0.044205 0.124939 -0.352983 153 0 76
-0.157702 -0.591666 -0.329564 0 255 0
-0.211895 0.122047 0.247105 0 127 127
0.040957 0.743267 -0.431451 153 0 76
0.350657 0.077738 0.432047 127 127 0
0.308227 -0.355691 0.205680 0 255 0
0.058127 0.077682 0.356741 0 127 127
0.410863 -0.076706 0.513756 0 255 0
-0.089578 0.839348 -0.484014 153 0 76
0.293048 -0.604667 -0.188834 127 127 0
0.008890 0.401103 -0.388276 153 0 76
0.445224 0.200102 0.017006 0 127 127
-0.168434 0.231274 -0.374548 153 0 76
0.366703 -0.286742 0.359809 127 127 0
0.328487 -0.223072 0.339524 127 127 0
-0.368976 -0.367391 0.328725 127 127 0
-0.255279 -0.376865 0.105816 127 127 0
0.326706 -0.600267 -0.108763 127 127 0
-0.106941 0.534246 -0.385010 153 0 76
-0.134590 0.492822 -0.382056 153 0 76
0.075075 -0.408133 -0.084160 127 127 0
0.198499 -0.249704 0.193995 0 255 0
-0.291675 0.174762 -0.292875 153 0 76
-0.364647 0.159174 -0.071733 0 127 127
0.445426 0.204280 0.118180 0 127 127
0.409941 0.181197 0.363306 0 127 127
0.439659 -0.570479 0.356486 0 255 0
-0.379562 -0.327429 0.381086 0 255 0
0.237959 -0.460526 -0.044594 127 127 0
0.004142 0.562436 -0.392309 153 0 76
-0.432424 0.205829 -0.032065 0 127 127
-0.329725 0.534816 -0.314572 153 0 76
0.178944 0.114970 0.142448 0 127 127
0.141247 0.087770 -0.271470 0 127 127
-0.356689 -0.340185 0.316563 0 255 0
-0.246863 0.046705 0.405899 0 255 0
0.364567 -0.358993 0.308407 127 127 0
0.244031 0.719598 -0.381220 153 0 76
-0.392090 0.185414 0.312585 0 127 127
-0.357729 0.350840 -0.295879 153 0 76
0.335162 -0.039933 0.437074 127 127 0
-0.119860 -0.359445 0.009969 0 255 0
-0.049867 0.121952 -0.349418 153 0 76
-0.425201 0.209911 0.201814 0 127 127
0.117506 0.091794 0.037268 0 127 127
0.190891 0.082569 -0.138197 0 127 127
-0.189115 0.117784 0.148686 0 127 127
0.340368 0.147871 0.320728 0 127 127
-0.256296 0.553296 -0.354044 153 0 76
-0.384570 0.151642 0.391287 0 127 127
0.356827 -0.049952 0.450435 127 127 0
-0.408098 -0.416242 0.423547 0 255 0
-0.438149 0.202102 0.071044 0 127 127
-0.012409 0.714220 -0.421371 153 0 76
-0.236717 0.581833 -0.362714 153 0 76
0.117531 0.108117 0.270650 0 127 127
0.055862 0.064818 -0.171004 0 127 127
0.350382 0.522024 -0.302205 153 0 76
-0.141162 0.178103 -0.368505 153 0 76
-0.132693 0.096292 0.049245 0 127 127
-0.301266 -0.476079 0.044672 127 127 0
-0.088274 -0.457686 -0.152374 127 127 0
0.345839 -0.270289 0.333352 127 127 0
0.246094 -0.045657 0.388537 0 255 0
-0.036801 0.790839 -0.456768 153 0 76
0.350816 0.150139 -0.128708 0 127 127
-0.440066 0.171869 -0.055503 0 127 127
-0.024621 0.261883 -0.390040 153 0 76
0.160840 -0.475507 -0.145125 0 255 0
0.142159 -0.371625 0.002018 0 255 0
-0.382685 -0.569278 0.172049 0 255 0
-0.409751 0.234925 -0.134357 0 127 127
0.109028 0.103182 0.102577 0 127 127
0.097683 0.069623 -0.221742 0 127 127
-0.017759 -0.103743 0.299333 0 255 0
-0.333320 0.157075 0.221497 0 127 127
0.386516 -0.523888 0.216121 127 127 0
-0.339117 -0.222803 0.361050 0 255 0
-0.339867 -0.600698 -0.054553 0 255 0
-0.190971 -0.494218 -0.143374 127 127 0
0.407940 0.198241 0.088347 0 127 127
0.103057 -0.491397 -0.203184 0 255 0
0.290123 0.150168 -0.270198 153 0 76
-0.440083 0.094933 0.398245 0 127 127
-0.277600 0.727274 -0.357975 153 0 76
0.200635 0.467887 -0.371331 153 0 76
0.374488 -0.603405 0.042098 127 127 0
-0.306205 -0.529065 -0.025910 127 127 0
0.005858 -0.587131 -0.374731 127 127 0
0.022828 0.064010 -0.156677 0 127 127
-0.367525 0.084624 0.444064 0 127 127
-0.386387 0.167334 0.358998 0 127 127
0.148521 0.074537 -0.167316 0 127 127
-0.435350 0.306005 -0.259001 153 0 76
0.286718 0.106860 0.370170 0 127 127
0.145738 0.113594 0.200267 0 127 127
0.294791 0.115761 -0.098740 0 127 127
-0.008236 0.634276 -0.401301 153 0 76
0.323033 0.129521 -0.047781 0 127 127
-0.250822 -0.603939 -0.248456 0 255 0
0.257731 0.111109 0.343952 0 127 127
0.412079 -0.408640 0.420588 127 127 0
-0.027485 -0.296413 0.073387 0 255 0
-0.227062 0.440350 -0.363050 153 0 76
-0.303348 0.264839 -0.327632 153 0 76
0.236468 0.126599 0.190256 0 127 127
0.140729 0.107665 0.288179 0 127 127
-0.286689 -0.393100 0.130947 127 127 0
0.016496 0.821950 -0.478494 153 0 76
-0.415986 -0.245491 0.496368 0 255 0
-0.129597 0.078777 -0.246424 0 127 127
-0.293581 -0.342685 0.205411 0 255 0
-0.360195 0.528049 -0.287454 153 0 76
