ply
format ascii 1.0
element vertex 1253
property float x
property float y
property float z
property uchar red
property uchar green
property uchar blue
end_header
0.435887 -0.619542 0.304885 0 0 255
-0.323563 0.809940 -0.314096 153 0 76
-0.319095 -0.158843 0.083496 204 51 127
-0.411199 -0.267203 -0.143337 153 0 76
-0.271689 -0.122447 -0.221514 153 0 76
-0.443820 -0.483283 -0.343913 204 51 127
0.431912 0.191954 0.227946 76 153 0
0.403557 -0.205547 -0.303621 0 127 127
-0.154520 -0.264967 -0.192409 204 51 127
-0.411199 0.150369 0.328259 0 255 0
0.285895 -0.101046 -0.225882 153 0 76
-0.443826 0.119649 0.455577 0 255 0
0.403558 -0.573505 0.584636 0 0 255
0.134025 -0.196830 -0.028637 204 51 127
-0.111327 -0.180710 0.017098 204 51 127
0.122133 0.809584 -0.313981 153 0 76
-0.443826 -0.269702 0.478767 0 0 255
-0.442712 -0.602437 0.630942 255 0 0
0.088483 -0.291185 -0.033940 127 127 0
0.159097 -0.290774 -0.121490 204 51 127
-0.443826 -0.270834 0.392779 153 0 76
-0.235945 0.190781 -0.422462 127 127 0
-0.443826 0.023228 0.514725 0 0 255
-0.411199 -0.336770 0.536562 153 0 76
-0.062566 0.197283 -0.286445 153 0 76
0.435007 -0.382450 -0.375032 153 76 0
0.249783 0.059798 -0.134619 153 0 76
-0.443826 -0.268797 -0.264418 255 0 0
0.436123 -0.630124 -0.055476 0 0 255
0.367661 0.383369 -0.243822 153 0 76
-0.262655 0.803000 -0.311098 153 0 76
0.404246 0.106410 0.163359 76 153 0
0.437374 0.159279 0.329218 76 153 0
-0.202257 -0.016036 -0.243004 153 0 76
0.103646 0.590415 -0.366342 153 0 76
-0.443825 0.026517 -0.299178 255 0 0
0.083867 -0.118421 0.239692 204 51 127
0.353472 -0.163746 0.477534 204 51 127
0.143053 -0.086505 0.513295 204 51 127
-0.412990 -0.084234 -0.178753 153 0 76
0.049855 0.683111 -0.299414 153 0 76
-0.045056 0.022908 -0.251089 153 0 76
-0.008825 -0.191605 0.419354 204 51 127
-0.172460 0.556607 -0.359628 153 0 76
0.324974 -0.184637 0.539938 127 0 127
0.370909 -0.085497 0.577510 204 51 127
-0.411020 -0.121548 0.251830 204 51 127
-0.054655 0.279607 -0.303293 153 0 76
-0.443826 -0.134866 0.488188 0 0 255
0.403557 -0.262500 0.058850 76 153 0
0.052338 0.819760 -0.412895 153 0 76
-0.034860 -0.117614 0.245178 204 51 127
-0.109480 -0.144320 0.624310 204 51 127
0.336766 -0.108105 -0.111250 153 0 76
0.426326 -0.367023 0.496109 76 0 153
-0.407053 0.523211 -0.350367 153 0 76
-0.327023 -0.115439 0.629560 204 51 127
0.156258 -0.279333 -0.189120 204 51 127
-0.244373 -0.195342 -0.022883 204 51 127
0.082278 0.435774 -0.335020 153 0 76
0.095571 -0.165772 0.059019 204 51 127
-0.396086 -0.203056 0.543016 0 0 255
0.187964 -0.291065 -0.173130 204 51 127
-0.201455 -0.142711 0.139170 204 51 127
0.352336 -0.250667 0.044604 204 51 127
-0.365142 -0.190296 0.507751 127 0 127
0.340926 -0.206018 0.268405 204 51 127
0.169658 -0.202169 0.507797 127 0 127
0.233173 -0.265964 0.007301 204 51 127
0.263709 -0.110412 0.285942 204 51 127
-0.207056 -0.258591 0.010721 127 127 0
0.436005 -0.636460 0.270811 0 0 255
0.050364 -0.204895 0.507882 127 0 127
0.127214 0.374968 -0.243057 153 0 76
0.016951 -0.185058 0.538551 127 0 127
-0.443783 -0.323158 0.503319 153 0 76
-0.411365 -0.441410 -0.347565 204 51 127
-0.377738 -0.295088 -0.054459 127 127 0
-0.193459 -0.176661 0.466327 204 51 127
0.436184 -0.268301 -0.225602 76 153 0
0.056234 -0.134693 0.167909 204 51 127
-0.117242 -0.290020 -0.080063 204 51 127
0.436017 -0.633583 0.353548 0 0 255
-0.443826 -0.364366 -0.326439 204 51 127
0.296433 0.618795 -0.291710 153 0 76
0.339681 0.142429 -0.275396 153 0 76
0.229311 0.837319 -0.407322 153 0 76
-0.411211 -0.124579 0.538605 0 0 255
0.378543 0.424087 -0.332588 153 0 76
0.429008 -0.078172 0.559255 127 0 127
0.437684 0.159115 0.063635 76 153 0
-0.376587 -0.088114 0.484966 204 51 127
0.350051 0.046870 -0.131511 153 0 76
0.306999 -0.086500 0.520803 204 51 127
-0.073056 -0.286917 -0.012748 127 127 0
-0.150934 -0.049271 -0.115661 153 0 76
0.056677 0.504018 -0.348895 153 0 76
0.009827 -0.170394 -0.104371 153 0 76
0.325643 -0.061525 -0.113822 153 0 76
-0.073265 0.656866 -0.299175 153 0 76
0.434490 -0.384044 0.582347 76 0 153
0.434725 -0.226219 0.084923 76 153 0
0.176316 -0.154385 0.579934 204 51 127
-0.254120 -0.154470 0.097858 204 51 127
0.109414 -0.086690 -0.111897 153 0 76
-0.403741 0.206352 -0.188985 153 0 76
0.101803 -0.129118 -0.220098 153 0 76
-0.443709 -0.655446 0.014515 255 0 0
0.070117 0.834167 -0.327478 153 0 76
-0.414610 -0.217595 0.368334 153 0 76
-0.372935 0.124433 -0.300482 76 0 153
0.232470 -0.179261 0.019214 204 51 127
0.436115 0.116847 -0.043396 76 153 0
0.403598 -0.632586 -0.215985 0 0 255
0.322557 0.676144 -0.299260 153 0 76
-0.443826 -0.224058 -0.321175 255 0 0
0.260669 0.430957 -0.253358 153 0 76
0.155060 0.637943 -0.376168 153 0 76
0.403492 0.028551 -0.275494 0 127 127
-0.443236 -0.102338 0.553008 0 0 255
0.436184 -0.121485 -0.299476 0 127 127
-0.411445 -0.228088 0.475932 0 0 255
0.001061 -0.294092 -0.057922 127 127 0
0.433071 0.109232 -0.132024 76 153 0
0.403584 -0.005656 -0.302291 0 127 127
-0.294248 -0.048735 -0.236358 153 0 76
-0.210783 -0.285033 -0.077473 204 51 127
-0.338816 -0.064261 -0.114096 153 0 76
0.196758 0.369145 -0.321389 153 0 76
-0.117054 0.358495 -0.319180 153 0 76
-0.151330 0.178295 -0.175663 153 0 76
0.436184 -0.263231 0.127970 76 153 0
-0.137825 -0.085800 0.558361 204 51 127
0.396308 0.080462 -0.140897 153 0 76
-0.454624 0.178631 0.474903 0 255 0
-0.077661 -0.028680 -0.118255 153 0 76
0.284139 -0.242316 0.104766 204 51 127
0.435089 -0.602177 -0.256426 0 0 255
0.286277 0.047929 -0.131609 153 0 76
0.333717 0.313211 -0.229832 153 0 76
0.405064 -0.109385 -0.150976 153 0 76
-0.318825 -0.122225 0.225124 204 51 127
-0.411199 0.154890 -0.320300 0 255 0
-0.443303 -0.452841 0.585026 153 0 76
0.002001 0.346183 -0.236855 153 0 76
0.435687 -0.243664 -0.349307 0 127 127
-0.146215 -0.285045 -0.003449 127 127 0
-0.201161 -0.216352 0.267104 204 51 127
0.297072 0.550189 -0.277621 153 0 76
0.416679 0.105365 0.238195 76 153 0
0.112414 0.624218 -0.373290 153 0 76
0.257899 0.511102 -0.350373 153 0 76
-0.343426 -0.260276 -0.193401 153 0 76
-0.443826 0.040374 0.452806 0 0 255
-0.154416 0.692446 -0.387196 153 0 76
0.289109 0.773334 -0.403702 153 0 76
-0.088979 0.141594 -0.275226 153 0 76
0.176667 0.450895 -0.337993 153 0 76
-0.443766 -0.613133 0.562314 255 0 0
0.405152 -0.106851 0.429090 204 51 127
-0.082762 0.734134 -0.297221 153 0 76
-0.219341 0.474916 -0.262297 153 0 76
-0.376502 -0.172888 -0.211103 153 0 76
-0.116313 0.105672 -0.302581 76 0 153
0.403557 0.150223 0.217800 76 153 0
-0.411224 -0.543170 0.544197 153 0 76
-0.317966 0.403948 -0.248000 153 0 76
-0.120633 -0.088057 0.482542 204 51 127
0.435194 -0.287702 0.419438 76 153 0
-0.298760 -0.085790 0.574126 204 51 127
0.403605 -0.652473 0.220688 0 0 255
0.103894 -0.204977 0.507885 127 0 127
-0.443826 -0.069623 -0.301141 255 0 0
0.364617 -0.285609 -0.006256 127 127 0
0.435845 0.045518 0.525613 127 0 127
-0.046219 -0.091059 0.619205 204 51 127
-0.443820 -0.635977 0.054948 255 0 0
-0.257116 -0.248910 0.085936 204 51 127
-0.394426 -0.104349 -0.111350 153 0 76
-0.023611 -0.220125 0.277100 204 51 127
0.403563 -0.351243 0.565109 76 0 153
0.390911 -0.175256 0.416524 204 51 127
0.404700 -0.069944 -0.124483 153 0 76
-0.135303 0.799805 -0.409086 153 0 76
-0.418689 -0.648088 -0.177008 255 0 0
0.436163 -0.589113 0.615601 0 0 255
-0.222278 0.699017 -0.298965 153 0 76
0.435855 0.017080 -0.300671 0 127 127
0.168037 -0.085601 0.590778 204 51 127
-0.443825 -0.032960 0.450543 0 0 255
0.439462 0.191348 -0.328901 76 153 0
0.403557 -0.066880 0.488392 127 0 127
-0.450144 0.166387 0.180367 0 255 0
-0.411210 -0.120496 -0.322878 255 0 0
0.018279 -0.115916 0.253000 204 51 127
-0.044031 0.746131 -0.298003 153 0 76
-0.266203 0.182765 -0.283577 153 0 76
-0.411553 -0.496286 0.556069 153 0 76
-0.275767 0.115025 -0.272556 76 0 153
-0.443825 0.137968 0.241479 0 255 0
0.020805 -0.261154 0.073046 204 51 127
0.020984 0.843718 -0.385128 153 0 76
0.403557 0.139736 -0.019483 76 153 0
-0.283819 -0.199432 0.321142 204 51 127
0.430658 -0.219144 -0.096047 76 153 0
0.302945 -0.186829 0.507751 127 0 127
0.435000 -0.075307 -0.325980 0 127 127
-0.089402 -0.040044 -0.238123 153 0 76
-0.380728 -0.166730 0.462315 204 51 127
0.413306 0.191761 0.423089 76 153 0
-0.330919 0.584924 -0.365226 153 0 76
0.234085 -0.245496 0.108248 204 51 127
-0.443826 0.126469 0.162241 0 255 0
-0.415787 -0.386679 -0.381697 204 51 127
-0.011707 -0.250930 0.123868 204 51 127
0.070045 -0.094735 0.396704 204 51 127
0.403557 -0.237757 -0.112150 76 153 0
-0.443826 -0.300374 -0.342177 204 51 127
0.276630 0.117556 -0.301366 76 0 153
0.088535 -0.259357 0.075844 204 51 127
-0.199450 0.473591 -0.342583 153 0 76
-0.443826 0.096219 -0.200411 0 255 0
0.193430 -0.102449 0.335522 204 51 127
0.403661 -0.319364 -0.287019 153 76 0
0.403563 -0.204136 -0.260685 0 127 127
-0.443803 -0.356947 0.512010 153 0 76
0.264680 0.761229 -0.299736 153 0 76
-0.240909 0.262246 -0.216137 153 0 76
0.440294 0.191916 0.007776 76 153 0
-0.122972 0.018797 -0.250252 153 0 76
0.290538 -0.280954 -0.091819 204 51 127
-0.412730 0.338462 -0.282692 153 0 76
0.436184 -0.593392 0.535193 0 0 255
0.434176 -0.577231 -0.417700 0 0 255
-0.163507 0.728574 -0.297183 153 0 76
0.359207 0.656351 -0.379910 153 0 76
-0.229020 0.710174 -0.390721 153 0 76
-0.144700 0.621559 -0.372726 153 0 76
-0.409177 -0.186878 0.490059 0 0 255
-0.411198 -0.048385 0.529598 0 0 255
-0.318718 0.376312 -0.322909 153 0 76
0.359444 0.847965 -0.362462 153 0 76
-0.411552 0.211907 -0.273843 153 0 76
-0.361763 0.701105 -0.298790 153 0 76
0.293093 -0.031530 -0.239853 153 0 76
-0.411627 -0.225097 -0.002540 153 0 76
-0.415583 -0.590016 0.404247 255 0 0
-0.412071 -0.011848 -0.218575 255 0 0
0.109164 0.693968 -0.387494 153 0 76
0.023267 0.500577 -0.267656 153 0 76
0.106810 -0.043237 -0.237474 153 0 76
-0.401063 0.291753 -0.304982 153 0 76
-0.443826 -0.124927 0.522796 0 0 255
0.201370 -0.201918 0.336073 204 51 127
-0.240064 -0.177202 0.448779 204 51 127
-0.014379 0.531645 -0.354551 153 0 76
0.054748 -0.209886 -0.060480 204 51 127
0.326056 -0.131570 0.182007 204 51 127
-0.010130 -0.288772 -0.181320 204 51 127
-0.383694 0.000079 -0.121988 153 0 76
0.284595 0.139158 -0.274731 153 0 76
-0.173458 0.846299 -0.373444 153 0 76
0.435946 0.126687 0.516402 76 153 0
0.229567 -0.216205 0.256041 204 51 127
0.015416 0.781255 -0.405314 153 0 76
0.216828 -0.158235 0.549008 204 51 127
0.104678 -0.097657 0.371159 204 51 127
0.436105 0.115742 0.185562 76 153 0
-0.172100 0.242683 -0.206990 153 0 76
-0.089058 -0.211675 0.314037 204 51 127
-0.104400 -0.186740 0.538799 127 0 127
-0.163973 -0.185629 0.429875 204 51 127
-0.290033 -0.219742 -0.201743 153 0 76
-0.076921 0.309324 -0.228710 153 0 76
0.404886 0.040852 0.547020 127 0 127
-0.308166 0.274536 -0.220363 153 0 76
-0.404956 0.055059 -0.275552 76 0 153
0.173974 0.693239 -0.387352 153 0 76
0.431915 -0.620199 0.121490 0 0 255
0.403557 -0.244615 0.318784 76 153 0
-0.482025 0.181271 0.211513 0 255 0
0.405191 0.671272 -0.350984 153 0 76
-0.379055 0.785362 -0.406130 153 0 76
0.395887 0.130474 -0.302740 76 153 0
0.403557 -0.256830 -0.254724 0 127 127
-0.119927 -0.222882 0.252909 204 51 127
0.296631 0.712112 -0.391110 153 0 76
0.117724 -0.202633 0.540319 127 0 127
-0.449767 0.191954 0.024635 0 255 0
-0.411386 -0.501301 -0.391928 204 51 127
-0.443785 -0.452771 -0.376640 204 51 127
-0.003204 -0.202398 -0.081113 204 51 127
-0.025141 0.415982 -0.331029 153 0 76
0.436184 -0.501665 -0.357249 153 76 0
-0.411199 0.161952 0.128571 0 255 0
0.331759 -0.268938 -0.060195 127 127 0
0.133654 -0.008047 -0.244675 153 0 76
0.039107 0.320588 -0.311524 153 0 76
-0.317864 0.474987 -0.262312 153 0 76
0.346571 -0.214171 0.227094 204 51 127
0.157749 0.758557 -0.400685 153 0 76
0.403557 -0.108765 -0.249218 0 127 127
-0.262021 -0.089077 0.463988 204 51 127
-0.391874 -0.158866 0.534774 0 0 255
-0.182932 -0.292241 -0.148709 204 51 127
0.285856 -0.139128 0.152306 204 51 127
0.233722 -0.113103 0.269511 204 51 127
0.254257 0.027564 -0.252037 153 0 76
0.403572 -0.642929 -0.006941 0 0 255
-0.041860 0.366685 -0.240558 153 0 76
-0.019269 -0.293377 -0.121475 204 51 127
0.121319 -0.283820 -0.186221 204 51 127
0.403778 -0.224228 -0.000477 76 153 0
-0.282436 -0.092833 0.416282 204 51 127
0.261688 -0.170246 -0.211648 153 0 76
0.268549 -0.290906 -0.032550 127 127 0
-0.000838 -0.113324 -0.223384 153 0 76
-0.323994 -0.140911 0.597274 204 51 127
-0.296940 -0.186390 0.507774 127 0 127
-0.445841 0.160223 0.108623 0 255 0
0.403557 -0.241625 -0.315536 0 127 127
0.307722 -0.120831 0.229055 204 51 127
-0.411199 0.157225 0.361744 0 255 0
-0.443826 -0.134757 -0.271527 255 0 0
0.435342 0.106012 -0.215725 76 153 0
-0.153881 -0.173907 0.516730 127 0 127
-0.242681 -0.085841 0.583308 204 51 127
0.403557 -0.239528 0.183042 76 153 0
-0.180758 -0.267649 -0.056062 127 127 0
0.404948 0.141821 -0.211389 153 0 76
0.251938 -0.148891 0.582788 204 51 127
-0.411537 -0.274883 -0.240226 255 0 0
0.242975 0.666672 -0.298899 153 0 76
-0.400958 0.026948 -0.251376 153 0 76
-0.412311 0.019765 -0.143281 153 0 76
0.031491 0.235369 -0.203430 153 0 76
0.247525 -0.091709 0.621129 204 51 127
-0.146441 -0.250403 0.110888 204 51 127
-0.180712 -0.104123 0.323771 204 51 127
-0.032620 0.105367 -0.299928 76 0 153
-0.445857 0.160321 -0.114390 0 255 0
-0.106908 0.094422 -0.144255 153 0 76
-0.411739 -0.262409 -0.181906 204 51 127
0.124540 0.524620 -0.272547 153 0 76
-0.411311 -0.269064 0.048346 153 0 76
0.403557 -0.133345 -0.315208 0 127 127
0.435248 0.059553 0.440160 127 0 127
0.061510 0.558210 -0.279238 153 0 76
-0.008084 -0.090323 0.446032 204 51 127
0.435589 -0.273913 0.056838 76 153 0
-0.318096 -0.257588 0.019232 204 51 127
0.426614 0.101783 0.009377 76 153 0
0.341444 0.445963 -0.256410 153 0 76
-0.243042 0.422357 -0.251635 153 0 76
-0.015968 0.371984 -0.321991 153 0 76
-0.097988 0.096605 -0.273050 76 0 153
-0.388681 -0.057795 -0.114487 153 0 76
0.380516 0.698402 -0.299049 153 0 76
-0.330604 -0.137664 0.158694 204 51 127
-0.378031 0.089046 -0.264372 153 0 76
-0.121055 -0.244672 0.144580 204 51 127
0.237360 0.473049 -0.342473 153 0 76
-0.359999 -0.177736 0.025497 204 51 127
-0.369574 -0.232040 0.137274 204 51 127
-0.377350 -0.159638 0.497686 204 51 127
-0.289156 -0.172658 0.040380 204 51 127
0.403337 -0.201982 0.260207 204 51 127
-0.409230 -0.090951 0.507983 204 51 127
0.403557 0.162097 -0.153183 76 153 0
-0.200505 -0.124595 -0.221058 153 0 76
0.405270 -0.115168 0.512583 204 51 127
0.075021 0.069542 -0.306203 76 0 153
0.435974 -0.241301 0.235336 76 153 0
-0.440085 -0.613674 -0.380307 255 0 0
0.435421 0.011041 0.440837 127 0 127
0.403557 0.067953 0.475138 127 0 127
-0.304137 -0.112741 -0.223503 153 0 76
-0.089807 0.700414 -0.388766 153 0 76
0.183223 -0.122562 -0.221490 153 0 76
0.266285 0.302821 -0.228285 153 0 76
0.439898 0.191954 0.186842 76 153 0
0.034809 -0.292983 -0.143477 204 51 127
0.409499 -0.296038 -0.147620 76 153 0
-0.206810 0.008538 -0.123855 153 0 76
0.330968 0.225628 -0.292178 153 0 76
0.434224 0.106247 0.118073 76 153 0
-0.209368 -0.168719 -0.105013 153 0 76
0.436070 -0.096128 0.483473 127 0 127
0.435183 0.056803 -0.245523 76 153 0
-0.364440 -0.155841 0.093175 204 51 127
0.436173 -0.235949 0.358051 76 153 0
-0.061681 0.492731 -0.266056 153 0 76
-0.411532 -0.036685 -0.291411 255 0 0
-0.143124 -0.264202 -0.038918 127 127 0
-0.443816 -0.099700 -0.228676 255 0 0
0.328117 0.390019 -0.325749 153 0 76
-0.411701 -0.606147 -0.360729 255 0 0
-0.349444 0.194510 -0.285897 153 0 76
0.227879 -0.128294 -0.110467 153 0 76
-0.415549 0.190991 -0.352900 0 255 0
0.080693 -0.066419 -0.113343 153 0 76
0.435073 -0.592624 -0.313600 0 0 255
0.241327 -0.197879 -0.030868 204 51 127
-0.136179 -0.212384 -0.203239 153 0 76
-0.244850 -0.107605 0.301026 204 51 127
0.164542 0.274575 -0.221456 153 0 76
0.369712 0.605784 -0.369464 153 0 76
0.438751 0.161206 -0.203053 76 153 0
0.249941 0.166009 -0.170356 153 0 76
0.403557 -0.158643 -0.269425 0 127 127
0.420692 -0.457790 0.515330 76 0 153
-0.452118 0.191953 -0.188797 0 255 0
-0.378622 -0.176534 -0.102544 153 0 76
0.427174 0.191619 -0.100487 76 153 0
0.403556 -0.307348 0.512888 76 0 153
0.116096 0.664677 -0.298823 153 0 76
-0.443825 0.065375 0.429322 0 0 255
-0.381434 0.247799 -0.296736 153 0 76
0.187328 -0.086740 0.511077 204 51 127
0.129867 -0.090632 0.442466 204 51 127
0.219899 -0.145110 0.130452 204 51 127
0.435852 -0.645568 0.146341 0 0 255
0.233173 0.544434 -0.276484 153 0 76
-0.443826 0.037732 -0.224052 255 0 0
-0.165814 0.438820 -0.254957 153 0 76
-0.481888 0.179337 -0.019126 0 255 0
0.404316 0.209887 -0.208376 153 0 76
-0.412491 -0.652867 0.324619 255 0 0
0.403887 -0.576929 -0.356087 0 0 255
-0.411412 -0.061069 -0.321779 255 0 0
-0.313959 0.124220 -0.271636 153 0 76
0.026079 -0.229648 0.229111 204 51 127
0.430155 -0.289950 -0.366257 0 127 127
-0.441171 -0.555382 -0.347048 204 51 127
0.398310 0.446532 -0.259474 153 0 76
0.404938 -0.413341 0.586332 76 0 153
-0.354714 -0.086030 0.538902 204 51 127
-0.053392 -0.175584 -0.210570 153 0 76
-0.030638 0.256602 -0.298615 153 0 76
-0.044127 0.111079 -0.149620 153 0 76
-0.411585 0.107322 0.418315 0 255 0
-0.411667 -0.024622 -0.258592 255 0 0
-0.411209 -0.232138 -0.238017 255 0 0
0.436184 -0.254444 0.269518 76 153 0
0.278864 -0.160285 0.515507 204 51 127
0.403952 -0.229950 0.097543 204 51 127
0.302914 -0.089096 0.464018 204 51 127
0.358451 -0.200054 0.296269 204 51 127
0.165698 -0.275321 -0.065429 127 127 0
-0.135356 -0.099808 0.356144 204 51 127
-0.434329 -0.640236 -0.237069 255 0 0
-0.168579 -0.257001 0.073653 204 51 127
0.205691 -0.260438 -0.019759 127 127 0
-0.054525 0.180989 -0.437176 127 127 0
0.403555 -0.202120 -0.195133 153 0 76
-0.412839 0.597444 -0.326088 153 0 76
0.077637 0.015417 -0.249565 153 0 76
-0.211658 0.368801 -0.321316 153 0 76
-0.107044 0.064427 -0.259457 153 0 76
0.281453 0.573584 -0.362966 153 0 76
0.403557 0.044186 0.451655 127 0 127
0.059095 0.697236 -0.388142 153 0 76
-0.147897 0.378215 -0.323312 153 0 76
0.008389 0.713495 -0.391393 153 0 76
0.433203 -0.221309 0.016559 76 153 0
0.402793 -0.165595 -0.205104 153 0 76
0.170218 -0.069188 -0.232338 153 0 76
0.435828 -0.632421 0.071797 0 0 255
0.083362 -0.166604 0.538021 204 51 127
0.242306 -0.158806 0.081333 204 51 127
0.339841 -0.249504 -0.195668 153 0 76
-0.412131 -0.263349 0.384101 153 0 76
0.275047 0.814737 -0.316153 153 0 76
-0.166497 -0.010117 -0.120731 153 0 76
0.070267 0.731306 -0.297037 153 0 76
-0.168567 0.063360 -0.292017 76 0 153
0.436184 -0.322515 0.553900 76 0 153
-0.443327 -0.334094 0.576132 153 0 76
0.206470 0.002100 -0.246829 153 0 76
-0.205949 0.319356 -0.230696 153 0 76
-0.099108 -0.257013 0.086896 204 51 127
-0.232799 0.391324 -0.245437 153 0 76
-0.334865 -0.233523 0.134231 204 51 127
-0.108540 0.369884 -0.241077 153 0 76
-0.443826 -0.241934 0.202843 153 0 76
0.111646 0.843555 -0.386146 153 0 76
0.008230 -0.215497 -0.202606 153 0 76
0.405923 -0.590596 0.403127 0 0 255
0.323653 -0.104774 0.627602 204 51 127
0.261739 0.335135 -0.314428 153 0 76
0.381554 -0.130290 0.187975 204 51 127
0.403596 0.121310 0.305325 76 153 0
-0.270523 -0.119266 0.630375 204 51 127
-0.276587 0.658682 -0.380387 153 0 76
-0.440632 -0.614973 -0.136250 255 0 0
-0.443826 -0.293485 -0.305338 255 0 0
0.157871 0.534481 -0.274519 153 0 76
-0.411778 -0.647016 -0.133599 255 0 0
0.368854 0.253189 -0.212676 153 0 76
-0.411619 -0.225384 0.401076 153 0 76
-0.385135 0.382216 -0.243655 153 0 76
0.462016 0.173555 0.099354 76 153 0
0.008469 0.081750 -0.262894 153 0 76
0.197573 0.485764 -0.264585 153 0 76
-0.411450 -0.621877 0.247900 255 0 0
-0.077591 0.562265 -0.280725 153 0 76
0.339844 -0.210852 0.508136 127 0 127
0.188045 -0.188040 -0.095571 153 0 76
-0.016880 0.463225 -0.260085 153 0 76
0.092231 0.181430 -0.283314 153 0 76
-0.442262 -0.521824 -0.398873 204 51 127
-0.417892 -0.215990 0.100450 153 0 76
-0.411702 -0.378529 -0.311655 204 51 127
-0.343074 0.783321 -0.304559 153 0 76
-0.260371 -0.086611 0.516564 204 51 127
0.403599 -0.654651 0.035312 0 0 255
-0.426847 -0.215660 -0.056357 153 0 76
-0.176511 -0.186355 -0.208452 153 0 76
0.295689 0.078639 -0.275383 76 0 153
-0.410593 -0.159016 -0.205998 153 0 76
0.129929 -0.259805 -0.014541 127 127 0
-0.089886 0.399886 -0.247179 153 0 76
0.228131 -0.091187 0.435856 204 51 127
0.434919 -0.193834 -0.247104 0 127 127
0.050386 -0.200642 0.371511 204 51 127
0.140007 0.847855 -0.365844 153 0 76
0.231090 -0.114795 -0.223085 153 0 76
-0.412547 -0.595135 -0.273238 255 0 0
0.317441 0.549155 -0.358112 153 0 76
-0.299761 0.177821 -0.282594 153 0 76
0.435627 -0.008245 -0.279515 0 127 127
0.414038 0.191038 -0.387720 76 153 0
-0.244738 -0.184259 0.540128 127 0 127
0.436184 -0.271399 -0.145042 76 153 0
-0.411392 -0.569848 -0.377880 255 0 0
-0.076881 -0.293024 -0.129468 204 51 127
0.308637 -0.085765 0.595776 204 51 127
0.242299 0.067816 -0.260124 153 0 76
-0.065444 -0.099994 0.355206 204 51 127
0.021743 0.135928 -0.158268 153 0 76
0.414027 0.191058 -0.276713 76 153 0
0.404835 0.230946 -0.256996 153 0 76
-0.076991 -0.154835 0.597895 204 51 127
0.422192 0.191952 0.268605 76 153 0
-0.162173 -0.133703 0.174975 204 51 127
0.428142 -0.452900 -0.316445 153 76 0
-0.186594 -0.243570 0.135473 204 51 127
-0.167803 -0.289942 -0.027751 127 127 0
0.341564 -0.229102 0.152980 204 51 127
0.404208 -0.657436 -0.048427 0 0 255
0.350928 0.280526 -0.303480 153 0 76
-0.227832 0.106928 -0.268014 153 0 76
-0.191923 -0.190903 0.396375 204 51 127
0.067264 -0.172324 0.039294 204 51 127
-0.403191 0.070716 -0.140224 153 0 76
0.285979 -0.222581 0.202020 204 51 127
-0.119981 0.157246 -0.166358 153 0 76
-0.337148 0.120268 -0.300894 76 0 153
-0.082755 -0.156771 0.090513 204 51 127
-0.016453 -0.106490 0.306849 204 51 127
0.227797 -0.088256 0.478916 204 51 127
-0.272418 -0.186535 0.390725 204 51 127
0.163465 -0.175680 0.029421 204 51 127
-0.086440 0.289184 -0.305241 153 0 76
0.393169 0.055538 -0.290868 76 153 0
-0.443825 0.127917 -0.061814 0 255 0
-0.411530 0.071559 0.537215 0 0 255
-0.351022 0.651760 -0.378979 153 0 76
0.057890 -0.263211 -0.192783 153 0 76
0.102173 0.052850 -0.132855 153 0 76
-0.090217 0.211324 -0.190899 153 0 76
0.347720 -0.261088 -0.023269 127 127 0
0.061436 -0.085516 0.586855 204 51 127
-0.261661 0.195866 -0.183981 153 0 76
-0.239211 -0.260028 0.037542 204 51 127
-0.412921 -0.233854 -0.157407 204 51 127
-0.411533 -0.267929 0.546668 0 0 255
-0.351601 -0.094373 0.401640 204 51 127
0.436184 -0.251349 -0.197759 76 153 0
0.209004 -0.190403 0.391371 204 51 127
0.435993 0.129544 -0.263104 76 153 0
0.214871 0.617155 -0.291362 153 0 76
-0.421112 0.101078 0.090871 0 255 0
-0.411671 -0.230866 0.443503 0 0 255
0.435768 -0.521452 0.583446 76 0 153
0.403559 -0.639616 0.171846 0 0 255
-0.070638 -0.217028 0.512520 127 0 127
-0.412766 0.772423 -0.374957 153 0 76
-0.411322 -0.608028 0.486230 255 0 0
-0.411381 -0.649949 0.087064 255 0 0
0.436184 -0.169091 0.542553 127 0 127
-0.153306 0.691537 -0.299317 153 0 76
-0.100863 -0.141204 0.145241 204 51 127
0.205667 0.262577 -0.217145 153 0 76
0.103012 0.381353 -0.323977 153 0 76
-0.411506 0.114333 -0.121585 0 255 0
0.456686 0.189688 0.386353 76 153 0
0.424256 -0.216781 0.155821 76 153 0
-0.123034 0.157095 -0.278378 153 0 76
-0.122684 0.705414 -0.389757 153 0 76
-0.072184 0.429102 -0.252981 153 0 76
-0.411263 -0.458428 0.545594 153 0 76
-0.415072 0.079916 -0.308122 0 255 0
0.403557 0.139673 0.486721 76 153 0
0.160953 -0.256825 0.007562 127 127 0
0.436107 0.112098 0.407643 76 153 0
0.222308 -0.015139 -0.119525 153 0 76
-0.337793 -0.110072 0.287258 204 51 127
0.169322 0.180676 -0.437108 153 0 76
-0.396071 -0.254813 -0.015154 127 127 0
-0.366799 -0.037520 -0.238634 153 0 76
-0.203547 -0.113013 0.269581 204 51 127
-0.266537 0.498973 -0.347824 153 0 76
0.405031 -0.048257 -0.197241 153 0 76
0.191372 0.128075 -0.272454 153 0 76
-0.113030 -0.180949 0.463236 204 51 127
0.148547 0.568214 -0.361910 153 0 76
-0.441351 -0.049979 -0.327040 255 0 0
0.087964 0.214691 -0.192641 153 0 76
-0.184646 -0.281926 0.010470 127 127 0
0.003344 -0.061647 -0.233820 153 0 76
-0.443795 -0.613254 -0.279100 255 0 0
0.434651 -0.642624 0.407641 0 0 255
-0.443754 -0.632258 -0.055056 255 0 0
-0.412971 -0.134001 0.433274 204 51 127
-0.316542 -0.168544 0.462478 204 51 127
0.076495 -0.059612 -0.234219 153 0 76
0.076729 -0.292741 -0.152563 204 51 127
-0.411620 -0.583370 0.534306 255 0 0
0.436184 -0.605144 0.505167 0 0 255
0.052765 -0.258096 -0.005707 127 127 0
0.441216 0.165054 0.204511 76 153 0
-0.251129 -0.256610 -0.000973 127 127 0
-0.080840 0.526782 -0.353562 153 0 76
-0.149300 0.304638 -0.308384 153 0 76
0.436162 -0.280852 0.488212 127 0 127
-0.205707 -0.262943 -0.032498 127 127 0
0.226145 -0.190411 0.540093 127 0 127
-0.411385 -0.367683 0.550006 153 0 76
0.404272 0.100176 0.538582 76 153 0
-0.048488 -0.132909 0.177575 204 51 127
-0.411199 0.157033 0.200212 0 255 0
0.161227 -0.091991 0.426073 204 51 127
0.100943 0.115412 -0.269766 153 0 76
-0.290234 -0.221814 0.206862 204 51 127
-0.411366 -0.261567 0.092122 153 0 76
-0.002800 0.322546 -0.311909 153 0 76
0.042326 -0.114500 -0.223145 153 0 76
-0.284582 -0.155307 -0.214685 153 0 76
0.171625 0.094398 -0.273150 76 0 153
0.434013 0.105320 0.065301 76 153 0
-0.441956 -0.006675 -0.316982 255 0 0
-0.057639 -0.290598 -0.075433 204 51 127
0.177460 0.668805 -0.298980 153 0 76
-0.411832 -0.286500 0.284982 153 0 76
0.277131 -0.085471 0.562445 204 51 127
0.208396 0.845059 -0.379184 153 0 76
0.403063 -0.092149 0.591765 204 51 127
-0.040926 -0.280889 -0.188764 204 51 127
-0.441759 -0.291476 -0.241918 255 0 0
0.184630 -0.079374 -0.112284 153 0 76
0.403971 -0.488871 0.590231 76 0 153
-0.411560 -0.409041 0.569612 153 0 76
0.037973 -0.128035 0.196091 204 51 127
0.063896 -0.169054 -0.211890 153 0 76
-0.411362 0.115526 0.272229 0 255 0
0.045136 -0.208546 0.540139 127 0 127
0.403557 -0.053140 0.525336 127 0 127
-0.411553 -0.628398 -0.006197 255 0 0
0.125760 0.716555 -0.297968 153 0 76
0.435654 -0.619893 0.553980 0 0 255
-0.162125 0.293401 -0.225386 153 0 76
-0.264639 -0.292165 -0.158195 204 51 127
-0.443826 -0.038510 0.481979 0 0 255
-0.283793 -0.269326 -0.061416 127 127 0
0.119678 -0.177502 0.477492 204 51 127
-0.145297 -0.170572 -0.104427 153 0 76
-0.185860 0.200579 -0.186207 153 0 76
-0.028976 -0.165120 -0.105984 153 0 76
-0.412756 0.170680 -0.419685 76 153 0
0.304312 0.649165 -0.297354 153 0 76
-0.412994 0.054521 -0.208188 153 0 76
0.314508 -0.101607 0.341456 204 51 127
-0.468613 0.179762 -0.249803 0 255 0
0.115393 -0.186078 0.000089 204 51 127
0.430906 0.191656 -0.174909 76 153 0
-0.439218 -0.602249 0.332385 255 0 0
0.354620 -0.203112 0.540304 127 0 127
0.024171 -0.291229 -0.034160 127 127 0
0.226303 0.190795 -0.428649 153 0 76
-0.167372 0.185426 -0.417961 127 127 0
0.403557 -0.263467 0.418819 76 153 0
0.403557 -0.334895 0.529827 76 0 153
-0.427454 0.105392 -0.093161 0 255 0
0.403935 0.286465 -0.240579 153 0 76
0.435453 -0.032823 0.452929 127 0 127
-0.411199 0.159311 -0.164930 0 255 0
-0.439049 -0.660774 -0.018186 255 0 0
-0.271910 -0.137827 0.158058 204 51 127
-0.023455 0.621169 -0.293136 153 0 76
0.044626 0.559722 -0.360240 153 0 76
0.400479 -0.236877 0.528076 127 0 127
0.352764 0.572718 -0.282191 153 0 76
0.385035 -0.198674 -0.086968 153 0 76
-0.185571 -0.143933 0.617468 204 51 127
-0.440237 -0.132676 -0.340209 255 0 0
-0.265964 -0.290819 -0.032115 127 127 0
0.378021 -0.028834 -0.117609 153 0 76
-0.202916 -0.232202 -0.199209 153 0 76
-0.267948 -0.024401 -0.118851 153 0 76
-0.411163 -0.130456 0.601578 204 51 127
0.404495 0.001328 -0.231205 153 0 76
0.403951 -0.001767 0.423440 127 0 127
0.436019 -0.545318 -0.354503 153 76 0
-0.412068 -0.292106 0.425406 0 0 255
-0.337988 -0.151290 0.540751 204 51 127
-0.334095 0.091729 -0.264924 153 0 76
0.372264 -0.166183 0.058145 204 51 127
-0.201444 0.257048 -0.298706 153 0 76
-0.052534 0.115032 -0.269685 153 0 76
-0.018611 -0.139491 0.150351 204 51 127
0.103636 0.092860 -0.143768 153 0 76
-0.171024 -0.139538 -0.217892 153 0 76
0.435894 -0.632569 -0.095542 0 0 255
-0.271992 0.759335 -0.299386 153 0 76
0.383500 0.744032 -0.397576 153 0 76
-0.354473 0.064432 -0.279787 76 0 153
-0.412695 -0.105974 0.417548 204 51 127
0.403585 -0.166681 0.479919 127 0 127
0.386775 -0.283072 -0.186745 204 51 127
-0.412199 0.019465 0.499680 0 0 255
-0.332950 0.527324 -0.353673 153 0 76
-0.311531 0.808958 -0.410932 153 0 76
0.109726 -0.238190 0.177869 204 51 127
0.132096 -0.179057 -0.209887 153 0 76
0.396888 0.676683 -0.380937 153 0 76
-0.414990 0.189945 0.074778 0 255 0
0.294440 -0.112774 0.271515 204 51 127
-0.454710 0.191953 -0.139972 0 255 0
0.086230 -0.088116 0.477941 204 51 127
0.143264 0.251407 -0.211777 153 0 76
0.405640 -0.218263 0.068310 76 153 0
0.110516 0.065681 -0.278715 76 0 153
0.405040 -0.182202 -0.142040 153 0 76
0.403557 -0.060076 -0.244552 0 127 127
-0.089639 0.270616 -0.219171 153 0 76
0.014702 0.051462 -0.256897 153 0 76
0.403557 0.160792 -0.071357 76 153 0
0.436184 -0.205342 -0.328473 0 127 127
-0.211329 -0.286317 -0.009768 127 127 0
-0.434015 0.113449 0.346019 0 255 0
-0.106297 0.662318 -0.299312 153 0 76
-0.412871 0.627888 -0.339167 153 0 76
-0.445209 0.156532 0.410286 0 255 0
-0.443826 -0.395773 -0.342054 204 51 127
-0.345229 -0.258230 -0.009402 127 127 0
0.046835 0.044748 -0.130885 153 0 76
0.176472 0.165994 -0.170169 153 0 76
-0.088501 0.837628 -0.329789 153 0 76
-0.445605 0.158845 0.218062 0 255 0
-0.001302 -0.097803 0.624058 204 51 127
0.375215 -0.237820 0.108425 204 51 127
0.230958 0.123456 -0.271474 153 0 76
0.403558 0.169798 0.346463 76 153 0
-0.377292 -0.099509 0.355339 204 51 127
0.303812 -0.236081 0.128423 204 51 127
0.063184 -0.207801 0.335310 204 51 127
-0.192302 -0.090236 -0.228081 153 0 76
0.022671 -0.107420 0.301127 204 51 127
0.403244 0.385582 -0.317940 153 0 76
0.092786 -0.085514 0.586113 204 51 127
0.058103 0.842596 -0.390582 153 0 76
-0.060633 -0.259520 0.079004 204 51 127
-0.433992 0.191953 0.397633 0 255 0
-0.240210 0.589772 -0.366211 153 0 76
0.146711 0.590352 -0.285773 153 0 76
0.121334 -0.145566 0.127547 204 51 127
-0.037499 0.619818 -0.372357 153 0 76
0.403557 -0.406262 0.536611 76 0 153
-0.178791 0.748686 -0.398600 153 0 76
-0.052107 0.761993 -0.401395 153 0 76
0.382619 -0.139306 0.152021 204 51 127
0.370309 -0.266861 -0.052200 127 127 0
0.403319 -0.105266 0.366806 204 51 127
-0.061640 -0.113913 0.262829 204 51 127
-0.014394 -0.257335 -0.004171 127 127 0
-0.032689 0.727834 -0.394310 153 0 76
0.219956 -0.223337 0.223495 204 51 127
0.219771 0.848239 -0.346961 153 0 76
-0.292655 0.816700 -0.317151 153 0 76
-0.411899 0.107600 0.514228 0 0 255
0.436133 -0.626431 -0.159190 0 0 255
0.145095 0.053822 -0.133101 153 0 76
0.391241 0.017314 -0.125544 153 0 76
0.343938 -0.150920 0.110827 204 51 127
0.404934 0.819001 -0.382905 153 0 76
-0.046729 0.847691 -0.366834 153 0 76
-0.412817 0.557831 -0.300160 153 0 76
0.094202 -0.105428 0.314596 204 51 127
0.209235 -0.236055 0.164262 204 51 127
-0.384098 -0.086226 0.528275 204 51 127
0.039359 -0.217245 -0.202251 153 0 76
-0.256726 0.298015 -0.307037 153 0 76
0.102985 -0.266552 0.013430 127 127 0
-0.411336 -0.349536 -0.365655 204 51 127
0.149568 0.197253 -0.286439 153 0 76
0.149228 -0.209514 0.312721 204 51 127
0.433860 -0.635050 -0.264862 0 0 255
-0.412324 -0.480318 0.594077 153 0 76
0.289995 -0.209298 -0.064780 204 51 127
0.353316 -0.107637 -0.224539 153 0 76
0.369975 -0.121297 -0.110769 153 0 76
0.405017 0.061813 -0.215351 153 0 76
0.032575 -0.097686 0.371027 204 51 127
-0.001877 -0.240007 0.178568 204 51 127
-0.183655 -0.186471 0.000969 204 51 127
0.403557 -0.549828 -0.371316 153 76 0
-0.020825 0.768429 -0.301067 153 0 76
0.321271 -0.243686 0.084358 204 51 127
0.403559 -0.332807 -0.353112 153 76 0
-0.410572 0.832775 -0.332788 153 0 76
0.185140 0.796009 -0.308555 153 0 76
-0.360648 -0.198651 0.302976 204 51 127
-0.186187 0.698532 -0.298987 153 0 76
0.079070 -0.267073 -0.053263 127 127 0
-0.121189 0.210296 -0.190469 153 0 76
-0.443825 0.110174 -0.281749 0 255 0
-0.309138 0.138298 -0.159198 153 0 76
-0.406675 0.456066 -0.261548 153 0 76
0.324487 -0.094984 0.397565 204 51 127
-0.441650 -0.223961 0.569494 0 0 255
-0.442391 -0.090696 0.443583 0 0 255
-0.411199 -0.620640 0.405451 255 0 0
-0.443826 -0.379578 0.533123 153 0 76
0.405722 -0.350233 -0.286717 153 76 0
0.159367 -0.215845 0.278636 204 51 127
-0.121622 0.578535 -0.363939 153 0 76
-0.354287 -0.269632 -0.062379 127 127 0
0.403661 0.094477 -0.168204 76 153 0
-0.399686 0.502221 -0.268479 153 0 76
-0.342859 0.340660 -0.234997 153 0 76
-0.443005 -0.154076 0.458585 0 0 255
0.403558 0.168340 0.275673 76 153 0
-0.300673 0.636341 -0.375842 153 0 76
0.369640 0.166996 -0.280388 153 0 76
-0.230657 0.764481 -0.401901 153 0 76
-0.409377 -0.231332 0.547100 0 0 255
0.106031 0.185591 -0.436200 153 0 76
0.189299 0.408824 -0.249147 153 0 76
0.215471 -0.287588 -0.103462 204 51 127
-0.113875 0.740887 -0.297661 153 0 76
-0.439200 -0.551154 -0.407979 204 51 127
0.404010 -0.476211 -0.329619 153 76 0
-0.350485 0.008919 -0.248242 153 0 76
0.406527 0.161655 0.547081 76 153 0
0.436184 -0.365256 0.555607 76 0 153
0.027968 0.799695 -0.309812 153 0 76
0.418096 -0.183123 0.456698 127 0 127
-0.411410 0.159664 0.475167 0 255 0
-0.414517 -0.547826 0.603317 255 0 0
0.387473 0.101513 -0.268257 76 153 0
-0.411199 -0.048942 0.460250 0 0 255
0.231030 -0.167163 -0.212275 153 0 76
0.140015 -0.165364 0.534382 204 51 127
0.403557 -0.250604 0.140606 76 153 0
-0.412935 -0.181848 0.248239 204 51 127
0.066972 0.329081 -0.233661 153 0 76
-0.253867 -0.100717 0.347741 204 51 127
0.040146 0.008769 -0.123429 153 0 76
0.074120 -0.285357 -0.004994 127 127 0
-0.441016 0.130558 0.538082 0 255 0
-0.182478 -0.132758 -0.110846 153 0 76
-0.136013 -0.146373 -0.216502 153 0 76
0.030792 -0.148804 -0.110676 153 0 76
-0.443690 0.112724 -0.149467 0 255 0
0.236319 -0.193638 -0.091037 153 0 76
0.254253 -0.166285 0.495351 204 51 127
0.245915 -0.096969 0.379680 204 51 127
-0.145294 -0.191230 0.406134 204 51 127
0.292035 0.367055 -0.240504 153 0 76
-0.443826 -0.251087 0.056718 153 0 76
0.432547 -0.544591 0.534936 76 0 153
-0.288125 -0.097168 0.375200 204 51 127
0.435824 -0.038124 -0.286614 0 127 127
-0.171271 -0.095108 0.392507 204 51 127
-0.070096 -0.293451 -0.045232 127 127 0
0.274031 -0.218786 0.519052 127 0 127
0.205131 0.708622 -0.390402 153 0 76
-0.439006 -0.293797 0.457735 0 0 255
-0.411199 -0.069071 -0.248793 255 0 0
0.100875 -0.154263 0.596515 204 51 127
-0.439280 -0.627010 0.533003 255 0 0
0.023868 -0.194633 -0.022898 204 51 127
-0.443826 -0.256449 0.364982 153 0 76
-0.127719 -0.172241 0.041608 204 51 127
-0.268689 -0.203417 0.540053 127 0 127
-0.431219 0.191951 0.361087 0 255 0
-0.011960 -0.266432 0.046999 204 51 127
0.083339 -0.154144 0.097306 204 51 127
-0.413361 -0.249096 -0.358035 255 0 0
0.126419 0.195587 -0.183489 153 0 76
-0.302284 0.494438 -0.346862 153 0 76
-0.080343 0.418094 -0.331459 153 0 76
-0.303546 -0.161324 0.526192 127 0 127
-0.412519 0.732616 -0.370665 153 0 76
-0.428780 -0.664276 0.177435 255 0 0
0.039600 0.832313 -0.326053 153 0 76
0.079960 -0.114760 0.629488 204 51 127
0.403557 0.150810 0.035309 76 153 0
0.399081 -0.227222 0.499092 127 0 127
-0.223063 -0.200154 0.340207 204 51 127
-0.443825 -0.048269 -0.217638 255 0 0
0.435949 -0.027108 0.495247 127 0 127
-0.374062 0.117653 -0.152264 153 0 76
-0.411236 -0.636876 -0.035660 255 0 0
0.346753 0.805954 -0.312451 153 0 76
-0.324437 -0.187216 -0.001102 204 51 127
0.189812 -0.266209 -0.049059 127 127 0
-0.199503 -0.098178 0.367019 204 51 127
0.405023 -0.269305 -0.133578 204 51 127
0.403958 -0.288645 0.231600 76 153 0
0.284728 -0.267602 -0.021284 204 51 127
-0.384582 -0.119675 0.236345 204 51 127
-0.412384 -0.512089 -0.333995 204 51 127
-0.180966 -0.086468 0.606456 204 51 127
-0.443461 0.075507 -0.171389 0 255 0
-0.088013 -0.260588 -0.020779 127 127 0
0.436184 -0.199235 0.488285 127 0 127
-0.390416 -0.291777 -0.163920 204 51 127
-0.012324 0.051213 -0.132442 153 0 76
-0.116676 -0.085947 0.529169 204 51 127
-0.443826 -0.497737 0.555324 153 0 76
-0.272890 -0.085922 0.590247 204 51 127
0.406663 -0.217594 0.234239 76 153 0
0.174448 -0.235274 -0.198584 153 0 76
0.057628 -0.163076 0.558433 204 51 127
0.403556 0.123986 0.513487 76 153 0
-0.318501 -0.242200 0.095643 204 51 127
-0.405830 -0.294845 -0.066250 153 0 76
0.429070 -0.218357 -0.134400 76 153 0
-0.182344 0.821227 -0.319694 153 0 76
0.176738 -0.232785 0.189985 204 51 127
-0.137995 -0.192552 0.540377 127 0 127
0.030044 -0.145755 0.126856 204 51 127
0.322976 -0.277554 0.014785 127 127 0
-0.266593 0.630244 -0.294355 153 0 76
-0.354284 -0.163948 0.477097 204 51 127
-0.212235 -0.085831 0.558739 204 51 127
0.405237 -0.159265 0.158480 204 51 127
0.109965 -0.162926 0.552296 204 51 127
-0.211207 0.302580 -0.307965 153 0 76
-0.232083 0.584751 -0.284748 153 0 76
-0.367801 -0.201036 -0.038134 204 51 127
-0.345031 -0.150565 -0.215649 153 0 76
-0.425866 -0.215715 0.150741 153 0 76
-0.448594 0.179139 -0.403265 76 153 0
-0.419602 -0.602829 -0.212301 255 0 0
-0.411810 -0.321308 -0.297024 204 51 127
0.373165 0.502628 -0.268080 153 0 76
0.073983 -0.091918 -0.227739 153 0 76
-0.175649 0.354087 -0.318284 153 0 76
-0.111126 -0.266398 -0.049977 127 127 0
-0.411866 -0.253803 0.215850 153 0 76
0.197965 0.068685 -0.277240 76 0 153
0.433903 -0.180330 -0.346744 0 127 127
-0.421174 -0.296326 0.194213 153 0 76
-0.172200 -0.085821 0.576238 204 51 127
-0.411161 0.835873 -0.384979 153 0 76
0.405240 0.022215 -0.187810 153 0 76
-0.287507 -0.071385 -0.113341 153 0 76
0.403557 0.157495 0.378019 76 153 0
-0.411199 -0.415048 -0.362503 204 51 127
-0.361722 0.181654 -0.177286 153 0 76
0.242713 -0.103134 0.330712 204 51 127
0.097765 -0.124108 0.213390 204 51 127
0.434018 -0.291908 0.321396 76 153 0
-0.124581 0.423647 -0.332588 153 0 76
-0.049088 -0.091989 0.423784 204 51 127
-0.443810 -0.632892 -0.107122 255 0 0
-0.143506 -0.291141 -0.095041 204 51 127
0.009111 -0.042964 -0.115916 153 0 76
0.435992 0.131291 0.302550 76 153 0
0.101464 0.237651 -0.294623 153 0 76
-0.068377 -0.136060 -0.218625 153 0 76
-0.253778 0.214913 -0.289998 153 0 76
-0.128211 0.646365 -0.377881 153 0 76
0.034195 -0.272541 -0.064328 127 127 0
0.225584 -0.287654 -0.016404 127 127 0
-0.378923 0.844347 -0.382430 153 0 76
0.130091 -0.086496 0.609020 204 51 127
0.085967 0.616957 -0.291320 153 0 76
0.404394 -0.219077 0.410849 76 153 0
0.038623 -0.222441 0.264312 204 51 127
-0.215018 0.168460 -0.171230 153 0 76
-0.412965 -0.136881 0.370048 204 51 127
0.278438 -0.092901 0.418632 204 51 127
-0.233340 -0.294968 -0.053764 127 127 0
0.167874 0.837782 -0.329974 153 0 76
0.405144 0.454578 -0.294229 153 0 76
-0.161339 -0.151861 0.597988 204 51 127
-0.052208 0.574653 -0.363176 153 0 76
-0.047631 0.525656 -0.273210 153 0 76
-0.012210 -0.087631 0.490346 204 51 127
-0.294477 0.004653 -0.247371 153 0 76
-0.320717 -0.087852 0.492389 204 51 127
0.379473 0.340009 -0.315346 153 0 76
-0.356420 0.373316 -0.241775 153 0 76
0.227867 0.526998 -0.353606 153 0 76
-0.074779 0.076271 -0.308304 76 0 153
0.404968 -0.234259 -0.174260 153 0 76
-0.411774 0.107429 0.129465 0 255 0
-0.443826 0.076000 -0.222715 0 255 0
0.403557 0.133838 -0.084755 76 153 0
-0.448258 0.163776 -0.234108 0 255 0
0.047038 0.164152 -0.169205 153 0 76
0.021798 -0.259830 -0.012958 127 127 0
-0.443826 -0.268761 0.091610 153 0 76
-0.441272 0.105163 0.018042 0 255 0
-0.380555 0.214795 -0.289964 153 0 76
-0.079255 -0.269684 0.026559 204 51 127
-0.185628 -0.199771 0.353376 204 51 127
-0.184950 -0.162537 0.539457 204 51 127
0.322787 -0.085102 -0.229125 153 0 76
-0.435136 -0.165205 0.566584 0 0 255
0.058641 0.732798 -0.395319 153 0 76
0.436179 -0.275121 -0.261033 0 127 127
-0.269968 0.088070 -0.142470 153 0 76
0.447468 0.170018 -0.047852 76 153 0
-0.443826 -0.257678 -0.087509 153 0 76
-0.082495 0.047058 -0.131585 153 0 76
-0.126710 -0.229656 0.218343 204 51 127
-0.448352 0.163912 0.378242 0 255 0
-0.433411 -0.188405 -0.350837 255 0 0
0.437122 0.155848 0.016586 76 153 0
0.316011 -0.267911 -0.034344 204 51 127
0.167086 0.325979 -0.312584 153 0 76
0.133804 0.768180 -0.301021 153 0 76
-0.063471 -0.179229 0.477573 204 51 127
-0.383176 0.823178 -0.320761 153 0 76
0.343745 0.148432 -0.163305 153 0 76
0.410936 -0.031626 -0.325721 0 127 127
0.316763 0.610641 -0.370455 153 0 76
0.054746 0.185292 -0.436295 153 0 76
-0.327922 -0.223181 -0.201044 153 0 76
-0.218163 -0.289352 -0.179730 204 51 127
-0.443680 -0.209273 -0.253682 255 0 0
-0.412781 0.430942 -0.304843 153 0 76
-0.443812 -0.247577 -0.345189 255 0 0
-0.412989 -0.152143 0.244860 204 51 127
0.434008 -0.291881 0.026090 76 153 0
0.449726 0.191855 0.324942 76 153 0
-0.283144 -0.272589 -0.190664 204 51 127
-0.289618 0.031539 -0.128507 153 0 76
0.378912 -0.290509 -0.154012 204 51 127
-0.411372 -0.642305 0.278990 255 0 0
-0.057743 -0.085984 0.592121 204 51 127
-0.388839 0.401605 -0.328003 153 0 76
-0.115653 0.190718 -0.427432 127 127 0
-0.345115 -0.175854 0.417037 204 51 127
0.058917 -0.092138 0.424362 204 51 127
-0.412770 0.101705 -0.237856 153 0 76
0.142378 0.035497 -0.253650 153 0 76
0.387965 0.747131 -0.298467 153 0 76
0.269009 0.375384 -0.322712 153 0 76
0.387691 -0.208354 0.542947 127 0 127
-0.041388 -0.163461 0.558331 204 51 127
-0.121575 -0.041578 -0.237811 153 0 76
-0.443826 -0.628474 0.312446 255 0 0
-0.361962 -0.282360 -0.112982 204 51 127
0.133008 -0.107473 0.301833 204 51 127
-0.109441 0.032579 -0.128779 153 0 76
-0.452842 0.191954 0.195322 0 255 0
-0.092236 0.604171 -0.289633 153 0 76
-0.083651 -0.190756 0.418844 204 51 127
0.040335 0.396850 -0.247579 153 0 76
0.399365 0.629551 -0.296716 153 0 76
0.044422 -0.120172 0.231570 204 51 127
-0.034987 0.464007 -0.340634 153 0 76
0.114053 0.307213 -0.308893 153 0 76
-0.412885 0.233331 -0.251108 153 0 76
0.107028 -0.238247 -0.197979 153 0 76
-0.411425 -0.610745 0.583936 255 0 0
0.030846 -0.184081 0.005638 204 51 127
-0.448532 0.164163 -0.198650 0 255 0
0.269377 -0.105421 0.314646 204 51 127
0.403888 0.061995 0.411180 127 0 127
-0.443826 -0.238599 0.521804 0 0 255
-0.325693 -0.203879 0.282984 204 51 127
0.327248 0.084079 -0.274594 76 0 153
0.338566 -0.178479 0.405283 204 51 127
0.207842 -0.172777 0.479053 204 51 127
0.435404 0.108270 0.480967 76 153 0
0.436183 -0.642990 0.198925 0 0 255
0.404578 0.816154 -0.337869 153 0 76
0.404026 -0.651246 0.290825 0 0 255
-0.299254 0.691498 -0.299123 153 0 76
-0.440310 0.132553 -0.334885 0 255 0
-0.240089 -0.165849 0.505779 204 51 127
-0.436606 -0.216487 -0.111333 153 0 76
-0.151963 0.025578 -0.251632 153 0 76
0.403557 -0.420776 -0.357199 153 76 0
-0.439316 -0.642366 -0.201457 255 0 0
0.293364 -0.155753 -0.214594 153 0 76
-0.141668 0.248263 -0.209746 153 0 76
-0.412877 0.200096 -0.226121 153 0 76
0.261889 -0.192875 0.359723 204 51 127
0.427835 -0.552309 0.605384 0 0 255
-0.411264 -0.177298 -0.333004 255 0 0
0.129928 0.815171 -0.412061 153 0 76
0.405047 -0.135501 -0.137245 153 0 76
-0.417527 0.190936 0.136913 0 255 0
-0.412855 0.739825 -0.323324 153 0 76
-0.353870 0.027887 -0.127546 153 0 76
0.070015 -0.201965 -0.205358 153 0 76
0.230069 0.030763 -0.127832 153 0 76
-0.189970 -0.217460 0.534890 127 0 127
0.011238 -0.170884 -0.211518 153 0 76
-0.165950 -0.199252 0.507751 127 0 127
0.365594 -0.088111 0.484787 204 51 127
0.403557 -0.317240 -0.321916 153 76 0
-0.086779 -0.237832 -0.198064 153 0 76
-0.049757 0.061531 -0.258888 153 0 76
0.263953 -0.179020 0.540014 127 0 127
-0.411229 -0.226615 -0.209102 255 0 0
-0.338210 -0.198173 -0.087215 153 0 76
0.117154 -0.113567 0.629376 204 51 127
-0.272644 0.848117 -0.357927 153 0 76
-0.443135 -0.286628 -0.193432 153 0 76
-0.443826 -0.244870 0.131640 153 0 76
-0.443826 -0.269726 -0.042783 153 0 76
0.008300 0.660367 -0.299046 153 0 76
-0.134477 -0.131425 0.184575 204 51 127
-0.217853 0.672463 -0.383190 153 0 76
0.073498 -0.186788 0.508843 127 0 127
-0.153672 0.207166 -0.288422 153 0 76
0.042326 0.388362 -0.325412 153 0 76
-0.411546 -0.380413 0.506406 153 0 76
0.228128 -0.289687 -0.135074 204 51 127
0.401234 0.719410 -0.385425 153 0 76
0.407485 -0.603475 -0.216725 0 0 255
-0.441672 -0.459466 -0.320685 204 51 127
0.252703 0.625615 -0.373586 153 0 76
0.407101 -0.663653 0.076553 0 0 255
0.405238 0.522317 -0.317495 153 0 76
-0.127471 -0.293526 -0.045604 127 127 0
-0.301406 -0.105105 0.317844 204 51 127
0.404862 -0.045902 -0.145363 153 0 76
-0.412893 0.671049 -0.327202 153 0 76
-0.443826 -0.153021 0.514333 0 0 255
-0.443826 -0.095916 0.472413 0 0 255
-0.441320 -0.648275 0.389367 255 0 0
0.427216 -0.608489 0.270753 0 0 255
0.436182 -0.645220 0.029393 0 0 255
-0.411634 -0.278522 0.143124 153 0 76
0.335829 -0.089118 0.466173 204 51 127
-0.083740 -0.095792 0.386733 204 51 127
-0.443781 0.031140 0.424863 0 0 255
-0.131549 0.062598 -0.287024 76 0 153
-0.247741 -0.133128 -0.110850 153 0 76
0.028495 -0.160405 0.076129 204 51 127
-0.228332 -0.287847 -0.104266 204 51 127
-0.411636 -0.614742 0.514724 255 0 0
-0.312950 -0.210891 0.508160 127 0 127
0.313692 -0.166559 0.470728 204 51 127
0.124488 -0.288193 -0.019072 127 127 0
0.122231 -0.200884 0.360712 204 51 127
-0.388652 0.655784 -0.298598 153 0 76
0.266429 0.274407 -0.221396 153 0 76
-0.366524 0.057837 -0.134405 153 0 76
-0.001818 0.178694 -0.436680 153 0 76
0.323946 0.840457 -0.397530 153 0 76
-0.080967 -0.292937 -0.092850 204 51 127
-0.001909 -0.207764 0.540163 127 0 127
-0.196407 -0.229340 0.203578 204 51 127
-0.350701 -0.158681 0.515522 127 0 127
-0.155412 0.128926 -0.272635 153 0 76
0.413633 0.060654 -0.311047 76 153 0
-0.411979 -0.282472 0.573641 0 0 255
-0.443826 -0.303666 0.534861 153 0 76
0.405303 -0.600176 0.652112 0 0 255
-0.084502 -0.121008 0.630767 204 51 127
-0.149447 -0.153371 0.102477 204 51 127
0.405337 -0.124093 0.453607 204 51 127
-0.200483 0.384755 -0.244100 153 0 76
-0.331382 -0.290361 -0.175827 204 51 127
-0.461314 0.191954 -0.037389 0 255 0
-0.372182 -0.221936 0.187178 204 51 127
-0.442643 -0.657509 0.242204 255 0 0
-0.392818 -0.109926 0.288257 204 51 127
0.198904 0.469338 -0.341718 153 0 76
-0.431771 -0.216054 0.197105 153 0 76
-0.443643 -0.229689 -0.177739 153 0 76
0.403579 -0.281513 0.375157 76 153 0
0.403745 -0.096740 0.484615 204 51 127
0.286298 -0.212247 0.253704 204 51 127
-0.415487 0.005052 0.417300 0 0 255
-0.443808 -0.579815 -0.409680 255 0 0
0.187055 -0.112578 0.271685 204 51 127
0.045903 -0.087319 0.490530 204 51 127
0.435849 0.011036 0.521585 127 0 127
0.403557 -0.093154 -0.304512 0 127 127
0.214058 -0.203016 -0.044206 204 51 127
-0.062264 -0.087130 0.499455 204 51 127
-0.288923 0.461950 -0.259661 153 0 76
-0.061002 0.213984 -0.192198 153 0 76
0.403560 -0.182111 -0.335665 0 127 127
-0.364167 -0.218951 0.523896 127 0 127
-0.024120 -0.264022 -0.036237 127 127 0
-0.415260 -0.574306 0.474066 255 0 0
0.404170 -0.507961 -0.335568 153 76 0
0.206151 -0.211851 0.285672 204 51 127
-0.443826 0.048108 0.496775 0 0 255
-0.439716 0.191295 0.506921 0 255 0
0.266042 -0.031774 -0.117164 153 0 76
0.048347 -0.244185 0.155660 204 51 127
-0.441722 -0.583844 -0.338562 255 0 0
0.427297 -0.296123 0.152589 76 153 0
-0.287751 -0.233833 0.149054 204 51 127
-0.379522 0.588981 -0.285502 153 0 76
-0.262928 0.597666 -0.287380 153 0 76
0.404814 0.338898 -0.280372 153 0 76
0.087417 -0.179361 0.473473 204 51 127
-0.443826 -0.237275 0.463610 0 0 255
0.187469 -0.105025 0.627710 204 51 127
-0.411203 -0.641993 0.031311 255 0 0
0.404778 -0.649605 -0.147654 0 0 255
-0.437255 -0.419059 0.588746 153 0 76
-0.441540 -0.292309 -0.126575 153 0 76
-0.110274 -0.159329 0.081910 204 51 127
-0.147226 0.087219 -0.273975 76 0 153
0.319052 0.029544 -0.252439 153 0 76
0.433150 -0.457414 0.592741 76 0 153
0.393297 0.128410 -0.156542 153 0 76
-0.325613 0.023390 -0.251187 153 0 76
0.436165 -0.055564 -0.249201 0 127 127
-0.309092 -0.157993 -0.108407 153 0 76
-0.171912 -0.144132 0.134424 204 51 127
0.211121 -0.137845 0.157016 204 51 127
0.194864 -0.107475 0.302146 204 51 127
-0.412264 -0.101091 0.583850 204 51 127
0.275246 0.260951 -0.299500 153 0 76
-0.150002 0.505942 -0.268747 153 0 76
0.471785 0.189748 0.164531 76 153 0
0.399550 0.798371 -0.311962 153 0 76
-0.411467 -0.632790 0.185884 255 0 0
0.436184 -0.436795 0.544326 76 0 153
-0.411199 0.162197 -0.102159 0 255 0
0.435834 -0.275168 -0.026937 76 153 0
-0.210531 -0.261468 0.039860 204 51 127
0.186644 -0.260302 0.050444 204 51 127
0.405334 -0.166037 0.297501 204 51 127
-0.411218 -0.645068 -0.070863 255 0 0
-0.279056 0.247583 -0.209327 153 0 76
