ply
format ascii 1.0
element vertex 1249
property float x
property float y
property float z
property uchar red
property uchar green
property uchar blue
end_header
-0.412902 -0.017740 -0.315648 255 0 0
0.366228 -0.181817 0.509455 127 0 127
0.379280 -0.093242 0.622911 204 51 127
-0.272051 -0.156458 0.098972 204 51 127
0.405260 0.165481 0.195834 76 153 0
-0.010040 0.009698 -0.170759 153 0 76
-0.409980 0.758141 -0.381816 153 0 76
-0.416317 -0.294724 0.394436 153 0 76
-0.417043 -0.617049 0.194463 255 0 0
0.434480 0.074196 -0.296561 76 153 0
0.434480 -0.140129 -0.265438 0 127 127
-0.409536 -0.137641 0.167733 204 51 127
-0.412902 -0.416483 -0.306999 204 51 127
-0.439391 -0.526367 -0.403226 204 51 127
-0.340612 0.009136 -0.170645 153 0 76
-0.257193 -0.018055 -0.239680 153 0 76
-0.204775 0.738904 -0.393623 153 0 76
-0.080124 0.465149 -0.337949 153 0 76
0.227766 -0.138172 -0.140687 153 0 76
0.405260 -0.224757 -0.320230 0 127 127
0.092169 0.781756 -0.402338 153 0 76
0.399460 -0.106751 0.322884 204 51 127
-0.429638 -0.294724 -0.018579 153 0 76
-0.438702 -0.294724 -0.197616 153 0 76
0.190906 -0.013470 -0.166047 153 0 76
0.138614 0.655576 -0.376677 153 0 76
-0.362653 0.190250 -0.433110 127 127 0
-0.412902 0.189590 0.353816 0 255 0
-0.033711 -0.248337 0.121341 204 51 127
-0.442122 -0.606460 -0.214986 255 0 0
0.271110 -0.211403 0.012843 204 51 127
-0.084578 0.137145 -0.196678 153 0 76
0.005491 0.828162 -0.326332 153 0 76
0.038228 0.359244 -0.241846 153 0 76
0.301022 -0.093294 0.439968 204 51 127
0.203492 -0.074638 -0.228173 153 0 76
0.048794 -0.161578 0.082096 204 51 127
0.215041 0.306861 -0.231193 153 0 76
-0.011271 -0.090791 0.622418 204 51 127
-0.110819 -0.149584 0.320422 204 51 127
-0.241347 0.282408 -0.226220 153 0 76
0.133938 0.575844 -0.285896 153 0 76
-0.399064 -0.175790 0.037988 204 51 127
-0.420741 -0.294724 0.101658 153 0 76
0.402338 -0.005242 -0.240822 0 127 127
-0.062568 -0.174715 0.486163 204 51 127
-0.124622 0.013116 -0.246020 153 0 76
0.429734 -0.627529 0.528765 0 0 255
-0.208194 -0.026034 -0.120453 153 0 76
0.131272 -0.228206 0.208542 204 51 127
-0.342435 0.697337 -0.310604 153 0 76
0.434480 -0.293139 -0.197520 76 153 0
0.019559 0.392787 -0.323233 153 0 76
-0.109999 0.185657 -0.281109 153 0 76
-0.249858 -0.199163 -0.128283 153 0 76
0.089325 -0.201564 0.348326 204 51 127
0.107058 -0.088985 0.622055 204 51 127
-0.381628 0.273954 -0.224501 153 0 76
-0.412902 0.175561 0.490498 0 255 0
-0.442122 -0.656325 -0.077402 255 0 0
0.335519 0.543936 -0.353972 153 0 76
-0.100650 -0.220415 -0.198527 153 0 76
0.402338 -0.183632 0.180093 204 51 127
-0.436033 -0.279119 -0.363740 255 0 0
-0.132682 -0.106893 -0.221614 153 0 76
0.434480 0.020240 0.469646 127 0 127
-0.412902 -0.635918 0.065575 255 0 0
-0.135842 -0.102323 0.555571 204 51 127
0.100111 -0.094919 0.420882 204 51 127
0.213570 -0.217341 0.537417 127 0 127
-0.415359 -0.580482 -0.350028 255 0 0
0.434480 -0.229576 0.094322 76 153 0
-0.176665 -0.166187 0.508726 204 51 127
-0.341059 -0.156619 0.285419 204 51 127
-0.291210 -0.155138 0.524140 127 0 127
0.274050 -0.288549 -0.158471 204 51 127
-0.366437 0.093112 -0.304292 76 0 153
0.434480 -0.075143 -0.307035 0 127 127
-0.034730 0.056726 -0.254889 153 0 76
-0.010525 -0.194235 0.391477 204 51 127
-0.246814 -0.178467 0.176715 204 51 127
-0.016798 0.322228 -0.308884 153 0 76
-0.417060 -0.578340 0.461648 255 0 0
0.198377 -0.250485 -0.192411 153 0 76
-0.346279 -0.138109 0.589450 204 51 127
-0.129225 0.654440 -0.376445 153 0 76
0.405260 0.183785 -0.005716 76 153 0
-0.365934 -0.157515 0.492894 204 51 127
0.194626 -0.098701 0.384105 204 51 127
-0.251575 0.128550 -0.269495 153 0 76
-0.299345 0.144541 -0.198182 153 0 76
-0.442122 -0.329542 0.512425 153 0 76
0.268489 0.356885 -0.315932 153 0 76
-0.222974 0.794427 -0.310119 153 0 76
0.083075 -0.172477 0.493823 204 51 127
0.216650 -0.138462 0.631999 204 51 127
-0.442122 0.133177 -0.259525 0 255 0
-0.438797 -0.652478 0.342750 255 0 0
-0.412902 0.188173 -0.069128 0 255 0
-0.048940 0.537733 -0.352711 153 0 76
0.092041 0.251169 -0.294432 153 0 76
0.327749 0.014445 -0.171724 153 0 76
-0.152722 -0.196583 0.363045 204 51 127
0.346728 -0.169100 0.057333 204 51 127
0.101009 -0.225095 -0.123009 153 0 76
-0.388671 0.832956 -0.412750 153 0 76
-0.438973 -0.217341 -0.081102 153 0 76
-0.331303 0.536022 -0.277797 153 0 76
0.402338 0.506258 -0.346145 153 0 76
-0.132096 0.080911 -0.185242 153 0 76
-0.485253 0.180463 0.104373 0 255 0
0.183970 -0.166990 0.233819 204 51 127
-0.372210 -0.217990 -0.199020 153 0 76
0.405260 -0.272040 0.516494 127 0 127
-0.208179 -0.223196 -0.045832 204 51 127
-0.228448 0.324870 -0.309421 153 0 76
0.247328 -0.060426 -0.156498 153 0 76
0.378985 -0.175065 0.405573 204 51 127
0.275905 0.781240 -0.327667 153 0 76
0.131371 -0.089994 -0.225050 153 0 76
-0.063825 0.783634 -0.402720 153 0 76
-0.061878 0.787261 -0.307719 153 0 76
0.189090 -0.109712 0.518806 204 51 127
0.160569 0.532053 -0.351556 153 0 76
0.385724 0.577749 -0.286283 153 0 76
0.192463 -0.191745 0.110650 204 51 127
0.072106 -0.157360 0.281732 204 51 127
-0.402308 -0.090505 0.483451 204 51 127
-0.416283 -0.217341 0.416154 153 0 76
0.123121 0.103654 -0.189867 153 0 76
0.362435 0.067732 -0.308346 76 0 153
0.363205 -0.231215 -0.085490 204 51 127
-0.042109 -0.171739 0.210191 204 51 127
0.051719 0.131998 -0.270197 153 0 76
0.091860 -0.165579 -0.209679 153 0 76
0.184026 -0.198282 0.344712 204 51 127
-0.028433 -0.148981 0.323425 204 51 127
0.213127 0.423401 -0.254894 153 0 76
-0.442122 -0.227502 0.217928 153 0 76
-0.230892 -0.109858 0.301821 204 51 127
0.344356 -0.227809 -0.197023 153 0 76
-0.442122 -0.641628 0.435561 255 0 0
-0.355583 0.793654 -0.330192 153 0 76
-0.253016 -0.083377 -0.151830 153 0 76
0.112591 0.015437 -0.171926 153 0 76
0.402338 0.295132 -0.297142 153 0 76
0.434480 -0.222484 0.393697 76 153 0
0.405260 -0.287634 -0.284609 0 127 127
-0.215515 -0.250544 0.077809 204 51 127
-0.022360 -0.086068 -0.225849 153 0 76
-0.409980 0.426460 -0.255898 153 0 76
0.434480 0.125672 -0.176291 76 153 0
-0.177131 0.589264 -0.288625 153 0 76
0.405260 -0.051368 0.544123 127 0 127
0.276361 0.064735 -0.181952 153 0 76
-0.379098 0.075554 -0.141684 153 0 76
0.361177 0.777082 -0.401387 153 0 76
0.128505 -0.286995 -0.150831 204 51 127
0.080446 0.206610 -0.210805 153 0 76
0.405260 0.185916 0.304780 76 153 0
0.042565 -0.259659 -0.007910 127 127 0
0.199644 -0.174743 0.041016 204 51 127
-0.279140 -0.091079 0.474507 204 51 127
0.135329 -0.225823 -0.058906 204 51 127
-0.409980 -0.140667 0.316870 204 51 127
-0.082675 -0.288739 -0.030394 127 127 0
-0.287951 -0.184513 0.379461 204 51 127
-0.409980 0.586410 -0.289866 153 0 76
-0.170781 -0.168491 0.059309 204 51 127
0.251867 -0.168293 0.471446 204 51 127
0.250043 0.184759 -0.418794 153 0 76
-0.412902 0.137972 -0.121475 0 255 0
-0.136819 -0.116988 0.262487 204 51 127
0.387491 0.289117 -0.227584 153 0 76
-0.375700 -0.256133 0.009637 127 127 0
-0.219714 0.237568 -0.291666 153 0 76
0.157210 -0.123197 0.451712 204 51 127
-0.370488 0.361042 -0.316777 153 0 76
-0.053034 -0.126448 0.435537 204 51 127
-0.123055 -0.215531 -0.067909 204 51 127
0.258694 -0.088816 0.532366 204 51 127
0.419761 -0.574925 0.476903 0 0 255
-0.067318 0.591615 -0.289103 153 0 76
0.241954 -0.215739 0.239054 204 51 127
0.144358 -0.210669 0.016497 204 51 127
0.222087 0.799624 -0.405971 153 0 76
0.354443 -0.140534 0.577384 204 51 127
0.042946 -0.160893 0.555725 204 51 127
-0.309649 0.248149 -0.213360 153 0 76
-0.301413 0.383967 -0.246874 153 0 76
0.197990 0.059019 -0.255355 153 0 76
-0.181863 -0.284311 -0.080497 204 51 127
0.261635 0.128884 -0.269563 153 0 76
-0.089594 0.325182 -0.309485 153 0 76
-0.460524 0.190137 -0.317682 0 255 0
0.438708 0.190250 -0.310279 76 153 0
-0.220693 -0.089259 0.620569 204 51 127
0.271519 -0.115244 0.272107 204 51 127
0.428637 -0.623011 -0.333554 0 0 255
0.366227 0.130320 -0.195290 153 0 76
0.224906 -0.207304 -0.126627 153 0 76
0.374620 -0.091296 0.471128 204 51 127
-0.442122 -0.214084 0.503664 0 0 255
-0.041989 -0.284327 -0.107419 204 51 127
-0.436633 0.125460 0.540056 0 255 0
-0.418072 0.103161 0.011806 0 255 0
0.200053 0.348156 -0.314157 153 0 76
0.365843 -0.085404 -0.225984 153 0 76
0.064957 -0.171044 0.213650 204 51 127
-0.219100 -0.215548 0.250897 204 51 127
0.115387 -0.108672 0.309340 204 51 127
-0.140343 -0.183660 0.150878 204 51 127
-0.286970 -0.117038 0.262212 204 51 127
0.405260 0.181116 0.128954 76 153 0
-0.298435 -0.222354 0.186429 204 51 127
-0.244265 -0.148653 0.574821 204 51 127
0.337164 0.387269 -0.322111 153 0 76
0.011776 -0.206352 -0.045031 204 51 127
0.244381 -0.144811 0.140356 204 51 127
-0.414576 -0.025035 0.553498 0 0 255
-0.112231 -0.151146 0.597297 204 51 127
-0.013693 0.660786 -0.377736 153 0 76
-0.416488 -0.051221 0.430110 0 0 255
-0.159503 0.595070 -0.364371 153 0 76
0.434190 0.011272 -0.183431 0 127 127
-0.053398 -0.216323 0.538675 127 0 127
-0.003669 -0.115570 0.489659 204 51 127
0.402338 0.057269 -0.143575 153 0 76
0.379685 0.645357 -0.374598 153 0 76
0.172010 0.465645 -0.338050 153 0 76
0.253671 -0.088758 0.606096 204 51 127
-0.252177 0.495406 -0.344103 153 0 76
-0.187397 0.448078 -0.259912 153 0 76
0.358555 -0.254106 0.012308 127 127 0
-0.269042 0.678705 -0.306815 153 0 76
0.331243 0.632642 -0.297447 153 0 76
0.129533 -0.026310 -0.120421 153 0 76
0.434480 -0.647415 0.390007 0 0 255
-0.417154 -0.502185 0.596116 153 0 76
0.064117 -0.139171 0.372235 204 51 127
0.084248 0.042794 -0.252055 153 0 76
-0.409980 -0.074846 -0.161522 153 0 76
0.368648 -0.067203 -0.155120 153 0 76
-0.412902 0.188574 -0.367804 0 255 0
0.253251 -0.188062 0.372574 204 51 127
0.346412 -0.189428 0.122180 204 51 127
0.074376 -0.219804 0.259420 204 51 127
0.135379 -0.186266 0.416370 204 51 127
0.130686 -0.187036 0.134080 204 51 127
-0.002343 0.115217 -0.192219 153 0 76
0.270143 -0.245185 0.082092 204 51 127
0.003464 0.260498 -0.296330 153 0 76
-0.146056 0.470499 -0.339038 153 0 76
0.186703 -0.169110 0.489089 204 51 127
0.408040 -0.655955 0.305917 0 0 255
0.185315 0.107927 -0.301926 76 0 153
0.150430 -0.144147 0.622839 204 51 127
0.312484 -0.088378 0.576333 204 51 127
0.414701 -0.023687 0.424223 127 0 127
-0.002218 -0.190805 0.115328 204 51 127
0.360061 -0.163256 -0.135586 153 0 76
-0.054421 -0.088295 0.569894 204 51 127
-0.136150 0.120107 -0.267778 153 0 76
-0.240428 -0.167145 0.484234 204 51 127
-0.412902 0.189804 -0.003470 0 255 0
0.434480 -0.173890 0.519822 127 0 127
0.409849 -0.615826 0.591868 0 0 255
0.146882 0.437728 -0.257807 153 0 76
0.357254 0.184029 -0.280778 153 0 76
0.081227 -0.100837 0.562964 204 51 127
0.325942 0.505509 -0.271592 153 0 76
0.245516 -0.131986 0.407985 204 51 127
-0.010484 0.683900 -0.305168 153 0 76
0.434480 -0.294424 0.118153 76 153 0
-0.442122 0.102793 0.089724 0 255 0
-0.409980 -0.012391 -0.197448 255 0 0
0.405260 -0.255364 0.337981 76 153 0
-0.006388 0.190250 -0.433110 153 0 76
0.331883 -0.140685 0.364701 204 51 127
0.162148 0.222139 -0.213963 153 0 76
0.428210 0.104705 0.192241 76 153 0
-0.368872 0.468205 -0.338571 153 0 76
-0.036065 0.193202 -0.282644 153 0 76
-0.412902 -0.075391 -0.276498 255 0 0
-0.065343 0.395784 -0.249277 153 0 76
0.172815 0.601668 -0.365713 153 0 76
-0.218958 -0.139947 0.368371 204 51 127
0.036107 -0.207623 0.031650 204 51 127
-0.409980 -0.128489 -0.203531 153 0 76
-0.413739 -0.605265 0.306509 255 0 0
0.103267 0.350940 -0.240157 153 0 76
-0.184580 0.097171 -0.303644 76 0 153
-0.173298 -0.153460 0.301141 204 51 127
0.411784 -0.589407 0.406520 0 0 255
0.245441 -0.273528 0.013651 127 127 0
0.058563 0.836372 -0.407580 153 0 76
-0.017896 0.840990 -0.384877 153 0 76
0.334139 0.214207 -0.212350 153 0 76
-0.329486 -0.135151 0.392234 204 51 127
-0.127691 -0.225704 0.223302 204 51 127
0.406586 -0.294724 0.454108 76 153 0
0.159873 0.721134 -0.315443 153 0 76
-0.034888 0.171781 -0.175576 153 0 76
0.220249 0.077525 -0.142262 153 0 76
-0.290900 -0.275911 -0.187240 204 51 127
-0.419524 0.190250 -0.158915 0 255 0
-0.392771 -0.237484 -0.120490 153 0 76
-0.349515 0.218829 -0.287855 153 0 76
-0.014421 0.727591 -0.391322 153 0 76
0.007273 -0.238836 0.169384 204 51 127
-0.412902 0.185689 0.270291 0 255 0
-0.102336 -0.051906 -0.232796 153 0 76
0.434480 -0.493714 0.532281 76 0 153
-0.185536 -0.094143 0.428429 204 51 127
-0.415754 0.190250 0.194105 0 255 0
-0.129271 0.196022 -0.208652 153 0 76
0.108468 0.493076 -0.269063 153 0 76
0.351855 0.252937 -0.294792 153 0 76
-0.412902 0.027977 0.474399 0 0 255
0.056210 0.790097 -0.329468 153 0 76
0.257699 -0.291232 -0.060875 127 127 0
0.011132 0.501138 -0.270703 153 0 76
-0.170317 -0.171361 0.212072 204 51 127
-0.412902 -0.616669 0.580172 255 0 0
0.078032 -0.216918 0.538675 127 0 127
0.434480 -0.293943 0.222473 76 153 0
-0.358428 0.134327 -0.160670 153 0 76
0.039617 -0.293234 -0.102600 204 51 127
0.394802 0.355036 -0.315556 153 0 76
0.462119 0.190250 -0.220357 76 153 0
0.475929 0.174325 0.025389 76 153 0
-0.300792 0.834171 -0.412997 153 0 76
0.420439 -0.617005 0.194952 0 0 255
0.200654 0.240867 -0.292337 153 0 76
0.341361 0.773978 -0.326190 153 0 76
0.434480 0.105835 0.072671 76 153 0
-0.287600 -0.248305 0.062225 204 51 127
0.130238 -0.122958 -0.113340 153 0 76
0.333503 0.345685 -0.239088 153 0 76
0.179642 -0.154906 0.561795 204 51 127
-0.139665 0.698784 -0.310898 153 0 76
-0.412902 -0.189210 -0.291120 255 0 0
0.256843 -0.208811 -0.051344 204 51 127
-0.442122 -0.010714 -0.260111 255 0 0
0.397480 0.841303 -0.335160 153 0 76
-0.066107 0.080393 -0.306324 76 0 153
-0.272167 -0.270064 -0.039609 204 51 127
-0.176459 0.837371 -0.402670 153 0 76
-0.196611 -0.088154 0.558169 204 51 127
0.384139 0.725624 -0.316356 153 0 76
0.061889 -0.120027 0.467484 204 51 127
-0.176927 -0.212145 0.009149 204 51 127
-0.432604 -0.217341 -0.014229 153 0 76
-0.053766 0.009624 -0.126375 153 0 76
-0.099786 -0.165979 0.238851 204 51 127
0.434480 0.135706 -0.048354 76 153 0
-0.057565 0.280052 -0.225741 153 0 76
-0.414290 -0.294724 0.332368 153 0 76
-0.123422 0.824104 -0.323825 153 0 76
-0.101029 0.837783 -0.400644 153 0 76
0.207406 0.176632 -0.177616 153 0 76
-0.038146 -0.200841 -0.202507 153 0 76
0.225565 -0.146486 0.335838 204 51 127
-0.093831 -0.163219 0.539499 204 51 127
-0.345469 0.844605 -0.367099 153 0 76
-0.069337 -0.200930 0.064950 204 51 127
0.116521 0.178293 -0.437063 153 0 76
-0.011519 -0.182012 0.452253 204 51 127
-0.412902 -0.249547 -0.304095 255 0 0
-0.345714 -0.168938 0.224126 204 51 127
0.290820 -0.177371 0.182169 204 51 127
0.434480 0.116703 0.398703 76 153 0
0.314106 -0.161124 0.480500 204 51 127
-0.310435 -0.088430 0.580424 204 51 127
0.431365 -0.539064 0.599410 0 0 255
0.048830 0.619868 -0.369415 153 0 76
-0.157726 -0.088949 0.621028 204 51 127
-0.192698 0.191954 -0.207824 153 0 76
-0.377010 -0.171216 0.424724 204 51 127
0.090416 0.091181 -0.304601 76 0 153
0.477653 0.176473 0.101503 76 153 0
-0.125319 -0.262824 0.039097 204 51 127
-0.056676 -0.183423 0.152057 204 51 127
-0.409980 -0.174446 0.220579 204 51 127
-0.442122 0.129247 0.448414 0 255 0
0.233505 0.705178 -0.312199 153 0 76
-0.064541 -0.203188 0.344250 204 51 127
-0.260078 0.192887 -0.282580 153 0 76
-0.358535 -0.103209 0.347856 204 51 127
0.065963 0.124177 -0.157061 153 0 76
0.405260 0.187662 0.375221 76 153 0
-0.314582 -0.075693 -0.153393 153 0 76
-0.294858 0.487215 -0.267871 153 0 76
0.102198 0.715851 -0.388935 153 0 76
0.194647 -0.229764 -0.078353 204 51 127
0.045494 -0.100640 -0.113819 153 0 76
-0.438926 -0.363976 -0.291547 204 51 127
0.422402 0.190250 -0.371622 76 153 0
-0.184712 0.303438 -0.230497 153 0 76
-0.013900 -0.160881 0.264215 204 51 127
-0.011857 0.558515 -0.282372 153 0 76
-0.085279 -0.287118 -0.151438 204 51 127
-0.345593 0.626865 -0.370838 153 0 76
-0.147677 0.719304 -0.389637 153 0 76
0.275280 0.066713 -0.256920 153 0 76
-0.114744 -0.013159 -0.122407 153 0 76
0.474033 0.178868 -0.094821 76 153 0
0.353377 -0.221559 0.174246 204 51 127
0.022914 0.043798 -0.133613 153 0 76
-0.268634 0.764522 -0.398833 153 0 76
-0.240792 0.847734 -0.351715 153 0 76
0.087710 0.057419 -0.136785 153 0 76
0.063630 0.432864 -0.331384 153 0 76
-0.395577 0.487834 -0.267997 153 0 76
-0.121914 -0.176386 0.469871 204 51 127
-0.179185 -0.168578 -0.114157 153 0 76
-0.116191 -0.137843 0.378841 204 51 127
-0.128566 -0.114010 0.497424 204 51 127
0.434480 -0.612382 0.274739 0 0 255
0.405260 -0.339160 -0.371060 153 76 0
0.402338 -0.161356 0.276649 204 51 127
-0.221653 -0.194154 0.098666 204 51 127
0.407564 -0.443226 -0.389948 153 76 0
0.048934 0.701504 -0.301450 153 0 76
0.281938 0.119240 -0.155306 153 0 76
0.319634 0.603112 -0.366007 153 0 76
-0.360775 0.388303 -0.247756 153 0 76
-0.213824 -0.219573 -0.198698 153 0 76
0.173667 -0.264523 0.018120 127 127 0
-0.409980 0.173572 -0.221696 153 0 76
-0.316613 -0.195487 0.092030 204 51 127
-0.008961 -0.278638 0.014678 127 127 0
0.411764 0.135888 0.539125 76 153 0
-0.113241 0.416900 -0.328137 153 0 76
0.047409 -0.088857 0.613896 204 51 127
-0.010052 -0.134978 0.393094 204 51 127
-0.345277 -0.171041 -0.134002 153 0 76
-0.334403 -0.181049 0.163871 204 51 127
-0.064223 -0.104229 -0.147590 153 0 76
-0.251745 -0.165575 0.240861 204 51 127
0.317764 -0.125948 0.218324 204 51 127
0.355569 -0.201736 0.272875 204 51 127
0.386586 0.104285 -0.264561 76 153 0
0.050455 -0.185426 0.142089 204 51 127
0.151532 -0.154686 0.295040 204 51 127
-0.003435 -0.021981 -0.120926 153 0 76
-0.409980 0.087393 -0.237840 153 0 76
-0.409980 -0.168087 0.097597 204 51 127
-0.242065 0.386347 -0.321924 153 0 76
0.402338 -0.148587 -0.173866 153 0 76
0.044845 0.737293 -0.393295 153 0 76
-0.412902 -0.573299 0.520156 255 0 0
-0.121975 0.243671 -0.292908 153 0 76
-0.186763 -0.000129 -0.168760 153 0 76
0.434480 -0.107851 0.506417 127 0 127
-0.250726 0.082778 -0.143802 153 0 76
0.064819 -0.228148 -0.070405 204 51 127
-0.232033 -0.137132 -0.140898 153 0 76
0.230333 -0.239452 0.125378 204 51 127
-0.405803 -0.286738 -0.149569 204 51 127
0.336774 -0.282377 -0.062654 127 127 0
0.087119 -0.177709 0.032440 204 51 127
-0.307479 -0.278814 -0.098594 204 51 127
0.152044 -0.238901 0.151058 204 51 127
-0.059257 -0.135376 0.631379 204 51 127
0.001123 -0.286209 -0.146968 204 51 127
-0.130600 -0.095695 -0.114115 153 0 76
-0.093003 0.061831 -0.255927 153 0 76
-0.409980 -0.170305 0.375869 204 51 127
-0.176213 -0.285163 -0.141822 204 51 127
0.275779 0.551622 -0.355535 153 0 76
0.298842 0.092266 -0.304428 76 0 153
0.270392 0.325102 -0.234903 153 0 76
-0.073966 0.463090 -0.262965 153 0 76
0.318225 -0.164798 0.538675 127 0 127
0.405260 -0.406917 -0.332253 153 76 0
-0.305315 0.033171 -0.131138 153 0 76
-0.468444 0.179852 0.367970 0 255 0
0.402338 0.417804 -0.260587 153 0 76
0.060078 0.306506 -0.231121 153 0 76
-0.412902 -0.293522 0.044153 153 0 76
-0.117278 0.562708 -0.283224 153 0 76
-0.442122 -0.155195 -0.327898 255 0 0
0.405260 0.108248 0.448049 127 0 127
-0.362764 -0.228259 0.140909 204 51 127
0.378541 -0.106134 0.536607 204 51 127
0.327797 0.716369 -0.389040 153 0 76
-0.302637 0.017066 -0.246823 153 0 76
-0.100854 -0.244301 0.135211 204 51 127
-0.282446 0.303325 -0.305039 153 0 76
0.262705 0.541132 -0.278836 153 0 76
0.303118 -0.189691 0.343353 204 51 127
-0.002452 -0.148145 0.621022 204 51 127
0.066338 -0.239054 -0.194736 153 0 76
-0.123839 -0.197205 0.083486 204 51 127
0.012570 -0.174639 -0.133270 153 0 76
0.434480 0.156068 0.485491 76 153 0
0.278511 0.412480 -0.327238 153 0 76
-0.291477 -0.211076 0.509455 127 0 127
-0.186736 -0.126386 -0.217649 153 0 76
0.260829 -0.096873 -0.114045 153 0 76
-0.000969 -0.138406 -0.215205 153 0 76
-0.369775 0.544452 -0.354077 153 0 76
0.434480 -0.218845 0.300127 76 153 0
-0.258605 0.335941 -0.237107 153 0 76
0.434480 -0.359501 0.547963 76 0 153
-0.337981 0.724304 -0.390654 153 0 76
0.374091 0.183664 -0.418794 76 153 0
0.080294 0.595464 -0.289886 153 0 76
0.405260 -0.188391 -0.275154 0 127 127
-0.337308 0.074865 -0.258577 153 0 76
-0.205005 -0.239732 0.134633 204 51 127
0.221083 -0.191294 -0.204449 153 0 76
-0.392711 -0.147109 0.544670 0 0 255
0.225459 -0.021565 -0.120974 153 0 76
0.298961 -0.202922 0.279404 204 51 127
0.177260 0.084577 -0.185987 153 0 76
0.086890 -0.055108 -0.232145 153 0 76
-0.409980 0.699770 -0.340378 153 0 76
-0.485546 0.188870 0.029478 0 255 0
-0.412902 -0.291056 0.226752 153 0 76
-0.382599 -0.073561 -0.228392 153 0 76
-0.091859 0.061076 -0.137637 153 0 76
-0.380091 0.138020 -0.271421 153 0 76
0.216238 0.744262 -0.394712 153 0 76
0.145905 -0.276815 -0.036320 204 51 127
-0.053491 0.647183 -0.300404 153 0 76
0.258063 0.164600 -0.202261 153 0 76
-0.123544 -0.204070 -0.127285 153 0 76
-0.160230 -0.243428 -0.193846 153 0 76
0.405260 -0.608642 -0.386042 0 0 255
0.405260 -0.546335 -0.403814 0 0 255
0.340496 -0.026393 -0.237985 153 0 76
-0.171165 0.101118 -0.149180 153 0 76
0.078124 0.531251 -0.351393 153 0 76
-0.139066 0.376674 -0.245391 153 0 76
-0.230042 0.177890 -0.418794 127 127 0
0.434480 -0.271801 -0.008136 76 153 0
0.119863 -0.173603 0.200915 204 51 127
0.216155 -0.176401 0.186995 204 51 127
-0.206864 -0.134686 0.179016 204 51 127
0.228764 0.362189 -0.242445 153 0 76
-0.262675 -0.148055 0.328032 204 51 127
-0.110417 0.261517 -0.221971 153 0 76
0.408802 -0.619520 -0.051984 0 0 255
-0.282200 0.578868 -0.286511 153 0 76
0.159117 0.311164 -0.232068 153 0 76
-0.467600 0.186206 -0.262181 0 255 0
0.018523 0.037248 -0.250927 153 0 76
0.279554 -0.165192 0.242766 204 51 127
0.006074 0.208977 -0.211286 153 0 76
0.303908 -0.179234 -0.206902 153 0 76
-0.153220 -0.157265 0.558569 204 51 127
0.402338 0.793130 -0.362846 153 0 76
0.275873 -0.116748 0.483801 204 51 127
0.405260 0.167921 0.252060 76 153 0
0.363231 -0.170195 0.217874 204 51 127
0.297706 -0.148884 0.124802 204 51 127
-0.346641 -0.016853 -0.121764 153 0 76
-0.233971 0.071807 -0.307695 76 0 153
-0.346252 -0.093687 0.623000 204 51 127
0.405260 0.161309 -0.135868 76 153 0
-0.442122 0.149752 0.158571 0 255 0
0.401780 -0.171687 0.049853 204 51 127
-0.399043 -0.213038 0.538675 0 0 255
-0.412902 -0.245491 0.170699 153 0 76
0.129291 0.336027 -0.311690 153 0 76
-0.409980 -0.262689 -0.059369 204 51 127
0.193279 0.843840 -0.370863 153 0 76
0.385097 -0.232599 0.119313 204 51 127
-0.196714 -0.069792 -0.154593 153 0 76
0.405266 -0.662451 0.032105 0 0 255
0.394451 -0.197967 -0.203092 153 0 76
-0.325240 -0.217856 -0.019265 204 51 127
-0.409980 0.265854 -0.271134 153 0 76
0.090485 -0.265077 -0.034866 127 127 0
0.402338 -0.141445 0.365668 204 51 127
-0.439011 -0.612333 0.247257 255 0 0
-0.241840 -0.023958 -0.163914 153 0 76
-0.004285 0.104201 -0.295291 76 0 153
0.303011 -0.202350 0.057884 204 51 127
-0.304804 -0.114471 -0.220072 153 0 76
-0.459624 0.174325 0.243834 0 255 0
0.172159 -0.105111 0.334447 204 51 127
-0.442122 0.141139 -0.023059 0 255 0
0.379578 -0.278329 -0.108216 204 51 127
0.081358 -0.261383 0.051681 204 51 127
-0.442122 -0.150336 0.521220 0 0 255
-0.220093 -0.291047 -0.041878 127 127 0
0.281434 0.229344 -0.215428 153 0 76
-0.311744 -0.193110 0.325895 204 51 127
-0.344140 0.407964 -0.326320 153 0 76
0.109095 0.804787 -0.332456 153 0 76
-0.380936 -0.098820 0.573001 204 51 127
0.323348 -0.100720 -0.148304 153 0 76
-0.066943 -0.135462 0.176054 204 51 127
-0.409980 0.798202 -0.319163 153 0 76
0.397297 -0.199502 -0.027443 204 51 127
0.092019 0.147467 -0.198777 153 0 76
0.434480 -0.187146 -0.348803 0 127 127
0.434480 0.037580 -0.250388 0 127 127
0.345115 -0.107060 0.320707 204 51 127
-0.352231 -0.118182 -0.144752 153 0 76
-0.409980 -0.231774 0.086077 153 0 76
0.449288 0.190250 0.414846 76 153 0
0.298971 0.275458 -0.299372 153 0 76
-0.139024 -0.185867 0.419180 204 51 127
-0.006359 0.389770 -0.248054 153 0 76
-0.357293 -0.133973 0.182048 204 51 127
0.330848 -0.208069 -0.126472 153 0 76
0.434480 -0.014945 0.516527 127 0 127
0.292192 -0.025668 -0.163567 153 0 76
0.239113 0.024293 -0.173727 153 0 76
-0.219054 -0.120667 0.464299 204 51 127
0.314312 -0.279896 -0.115927 204 51 127
0.111864 0.698076 -0.302027 153 0 76
-0.118713 0.187314 -0.437063 127 127 0
-0.442122 -0.240044 0.273067 153 0 76
-0.193501 0.005364 -0.244443 153 0 76
0.231119 -0.157469 0.281194 204 51 127
0.274928 -0.183517 -0.114951 153 0 76
-0.409404 0.232179 -0.204411 153 0 76
0.143166 -0.088610 0.540387 204 51 127
0.337350 -0.217341 0.538047 127 0 127
0.011980 -0.173022 0.203809 204 51 127
0.180177 -0.221518 0.230210 204 51 127
-0.224540 0.741390 -0.319563 153 0 76
0.230619 0.807804 -0.315568 153 0 76
-0.150137 0.059588 -0.255471 153 0 76
-0.356139 -0.119504 0.248603 204 51 127
-0.412902 -0.444435 0.542677 153 0 76
-0.300968 0.656316 -0.376827 153 0 76
-0.038900 -0.159423 0.089198 204 51 127
0.056620 0.018682 -0.172586 153 0 76
-0.409980 0.330684 -0.296487 153 0 76
0.402338 -0.273136 -0.156727 76 153 0
0.394335 -0.244747 0.058870 204 51 127
-0.172399 -0.134492 0.395512 204 51 127
0.349846 -0.126031 0.437613 204 51 127
-0.188515 0.503978 -0.345846 153 0 76
0.203853 0.026806 -0.129656 153 0 76
-0.359956 -0.279192 -0.112464 204 51 127
0.434480 -0.512486 -0.345086 153 76 0
-0.214905 0.160225 -0.170718 153 0 76
-0.397916 -0.125086 0.442312 204 51 127
0.003460 0.155697 -0.275016 153 0 76
0.405260 -0.174828 0.564745 127 0 127
-0.328076 -0.116035 0.487349 204 51 127
0.151706 0.217119 -0.287508 153 0 76
-0.256315 -0.178430 0.422192 204 51 127
-0.035370 -0.040368 -0.160577 153 0 76
0.199190 -0.209013 0.286951 204 51 127
0.176883 -0.119310 -0.144523 153 0 76
0.431759 -0.217341 0.146228 76 153 0
0.154767 0.141722 -0.272174 153 0 76
0.087966 -0.194358 0.097652 204 51 127
0.408827 0.073428 0.544703 127 0 127
-0.112653 -0.206594 0.321364 204 51 127
-0.442122 0.106731 0.192593 0 255 0
-0.412902 -0.485168 -0.382107 204 51 127
-0.100766 0.753711 -0.322069 153 0 76
0.072810 -0.250852 0.105133 204 51 127
0.405260 -0.091707 -0.265634 0 127 127
-0.333146 0.755416 -0.300593 153 0 76
-0.342475 0.072840 -0.183600 153 0 76
0.434480 -0.326678 -0.326962 153 76 0
-0.409980 0.648999 -0.356514 153 0 76
0.143928 0.040947 -0.251680 153 0 76
-0.440225 -0.661687 0.211958 255 0 0
-0.027671 -0.166416 0.529187 127 0 127
0.408858 -0.642418 -0.209620 0 0 255
-0.438578 -0.615381 -0.111110 255 0 0
0.405260 -0.217857 0.509872 127 0 127
-0.185332 -0.217341 0.520132 127 0 127
-0.074259 0.080102 -0.185077 153 0 76
0.361118 0.055298 -0.180033 153 0 76
0.151824 -0.236983 -0.113852 204 51 127
0.434480 -0.033891 -0.273789 0 127 127
-0.170680 0.648729 -0.300718 153 0 76
0.367437 0.467208 -0.338368 153 0 76
0.164030 0.127768 -0.158338 153 0 76
-0.442122 0.112838 0.265945 0 255 0
0.411588 -0.120870 -0.221503 0 127 127
0.071031 0.381018 -0.320840 153 0 76
-0.093989 -0.095784 0.412471 204 51 127
-0.442122 -0.097089 0.449450 0 0 255
0.434480 -0.241944 -0.184850 76 153 0
0.010723 -0.250921 -0.192322 153 0 76
-0.211497 0.060896 -0.181171 153 0 76
-0.412902 -0.398625 -0.358325 204 51 127
0.400180 -0.132058 0.190705 204 51 127
-0.005900 0.602783 -0.365940 153 0 76
0.402338 -0.029615 -0.170163 153 0 76
-0.267145 0.546736 -0.354542 153 0 76
-0.392745 0.034020 -0.175705 153 0 76
0.313176 -0.269522 -0.188540 204 51 127
0.047090 -0.292418 -0.048699 127 127 0
0.213171 -0.123673 0.228605 204 51 127
0.405260 -0.179552 0.473149 127 0 127
0.135801 -0.165593 0.519141 127 0 127
0.434480 0.143585 0.151123 76 153 0
0.255833 0.274233 -0.224557 153 0 76
-0.387418 -0.183090 0.153712 204 51 127
-0.013411 -0.112857 0.285278 204 51 127
0.297276 -0.252959 0.031213 204 51 127
0.268839 0.597544 -0.290309 153 0 76
0.313929 -0.128390 -0.217242 153 0 76
0.290030 -0.011829 -0.240946 153 0 76
-0.409980 -0.181926 -0.203047 153 0 76
0.434480 0.143138 0.297177 76 153 0
0.405260 0.142167 0.048852 76 153 0
-0.267833 0.129958 -0.159116 153 0 76
-0.275675 -0.135165 0.392165 204 51 127
0.434480 -0.276830 -0.061970 76 153 0
-0.434694 -0.662293 0.023712 255 0 0
0.434480 -0.218065 0.204719 76 153 0
-0.241442 -0.223311 0.204404 204 51 127
-0.181683 -0.260237 0.039335 204 51 127
-0.103022 0.582876 -0.361891 153 0 76
-0.076238 -0.108531 0.310338 204 51 127
-0.232456 0.600641 -0.365504 153 0 76
-0.238077 -0.232067 -0.089678 204 51 127
0.260656 0.835912 -0.409845 153 0 76
0.334159 -0.005007 -0.123827 153 0 76
0.434480 -0.663669 0.099678 0 0 255
-0.110279 -0.170370 -0.208704 153 0 76
0.309002 -0.222478 -0.042259 204 51 127
0.387321 0.110454 -0.152182 153 0 76
0.043723 -0.133515 0.184118 204 51 127
0.026501 -0.061106 -0.230925 153 0 76
0.345145 0.681997 -0.305651 153 0 76
-0.298813 -0.143611 0.144937 204 51 127
-0.442122 0.131935 0.351445 0 255 0
-0.269607 -0.200102 0.069069 204 51 127
-0.275693 -0.210711 0.016288 204 51 127
0.146645 -0.065493 -0.155467 153 0 76
-0.149463 -0.239059 0.152372 204 51 127
0.259873 -0.224030 0.191155 204 51 127
0.249309 -0.048856 -0.233416 153 0 76
-0.412902 -0.249658 -0.194943 153 0 76
0.178261 -0.290093 -0.166065 204 51 127
0.432868 -0.650220 -0.145047 0 0 255
-0.249984 -0.102948 0.349703 204 51 127
-0.023820 -0.212648 0.006648 204 51 127
-0.028077 -0.231830 -0.088512 204 51 127
0.402338 0.185443 -0.237730 76 153 0
-0.414927 -0.620040 0.140968 255 0 0
-0.220062 -0.164906 -0.209815 153 0 76
0.087907 -0.035619 -0.161543 153 0 76
-0.059510 -0.168866 -0.134445 153 0 76
-0.351992 -0.203072 0.266228 204 51 127
0.405260 -0.247756 0.427652 76 153 0
0.018011 0.098019 -0.148271 153 0 76
-0.412902 0.145039 0.091055 0 255 0
-0.412902 -0.287967 0.521377 0 0 255
-0.412902 -0.600090 -0.257165 255 0 0
0.434480 -0.240363 -0.120338 76 153 0
0.035940 -0.177532 0.473226 204 51 127
-0.442122 0.078528 0.440505 0 0 255
-0.165230 0.216599 -0.287402 153 0 76
0.316792 0.104990 -0.190138 153 0 76
0.165724 0.774785 -0.326355 153 0 76
-0.442122 -0.451188 -0.338379 204 51 127
0.409475 -0.073505 0.434874 127 0 127
-0.324041 -0.237654 -0.195021 153 0 76
0.289463 -0.142911 0.582298 204 51 127
-0.015730 0.059538 -0.180895 153 0 76
0.434480 -0.432308 0.558894 76 0 153
0.109967 -0.175730 -0.133049 153 0 76
0.021747 -0.099747 0.373933 204 51 127
-0.377793 -0.035115 -0.161645 153 0 76
-0.409980 0.034656 -0.240340 255 0 0
-0.025364 -0.079811 -0.115064 153 0 76
0.209125 0.624006 -0.295691 153 0 76
0.135992 0.068467 -0.308228 76 0 153
0.459672 0.174325 0.207372 76 153 0
-0.412902 -0.647458 0.386383 255 0 0
-0.412902 0.078493 0.536269 0 0 255
0.413068 -0.620839 0.123371 0 0 255
-0.228036 -0.138378 0.631959 204 51 127
-0.328813 -0.228440 -0.071841 204 51 127
-0.222575 -0.068478 -0.229426 153 0 76
-0.095164 -0.176358 0.187207 204 51 127
0.405260 0.061376 0.476444 127 0 127
-0.442122 -0.375065 0.546755 153 0 76
0.044680 -0.197419 0.373915 204 51 127
-0.250352 0.009211 -0.126304 153 0 76
-0.108734 0.509574 -0.272419 153 0 76
0.052407 -0.089466 0.506996 204 51 127
0.081431 -0.282656 -0.129495 204 51 127
-0.412902 0.164120 0.409317 0 255 0
0.204561 0.562810 -0.357810 153 0 76
-0.412902 -0.576205 0.613718 255 0 0
0.250821 -0.279559 -0.114269 204 51 127
0.132909 0.625522 -0.295999 153 0 76
-0.362783 0.325134 -0.234909 153 0 76
0.245015 -0.190275 0.117968 204 51 127
0.264555 0.462316 -0.337373 153 0 76
-0.285664 0.786145 -0.328665 153 0 76
-0.301542 0.113410 -0.301051 76 0 153
-0.205945 0.494313 -0.269315 153 0 76
-0.077022 -0.096577 -0.223711 153 0 76
0.107626 0.838830 -0.395494 153 0 76
0.385461 0.052947 -0.254120 153 0 76
-0.302957 0.202003 -0.189272 153 0 76
0.353678 0.841828 -0.380756 153 0 76
-0.030024 0.428499 -0.330496 153 0 76
-0.290130 -0.008555 -0.167047 153 0 76
0.025246 -0.248242 0.121846 204 51 127
0.162332 -0.127595 0.210876 204 51 127
-0.294376 -0.143959 0.578326 204 51 127
0.396834 0.242663 -0.210286 153 0 76
-0.442122 -0.009481 0.442159 0 0 255
0.291779 0.435261 -0.257306 153 0 76
-0.442122 -0.613458 -0.380068 255 0 0
0.044981 0.493418 -0.343698 153 0 76
-0.297023 -0.095479 0.415435 204 51 127
-0.438906 0.092688 -0.159974 0 255 0
-0.409980 0.806976 -0.369665 153 0 76
-0.442122 0.094771 -0.299584 0 255 0
-0.222350 -0.159107 0.530786 204 51 127
0.405260 -0.381174 0.510867 76 0 153
0.058665 0.484232 -0.267265 153 0 76
0.239170 -0.201936 0.059945 204 51 127
-0.373989 -0.111140 0.294752 204 51 127
0.008875 0.319408 -0.233745 153 0 76
-0.412902 -0.570630 -0.400739 255 0 0
-0.383251 -0.020500 -0.239183 153 0 76
-0.103956 0.117704 -0.154760 153 0 76
-0.196093 0.791302 -0.404279 153 0 76
0.323555 -0.116149 0.267114 204 51 127
-0.400429 -0.190423 0.329163 204 51 127
-0.020176 -0.258596 0.070856 204 51 127
0.338214 0.394486 -0.249013 153 0 76
0.405260 -0.270859 -0.237491 76 153 0
0.402338 0.618374 -0.322402 153 0 76
0.405260 0.138754 -0.297475 76 153 0
-0.223357 0.236705 -0.216925 153 0 76
-0.169364 -0.193146 0.103679 204 51 127
-0.096024 -0.255423 0.080470 204 51 127
0.273764 -0.157370 0.517480 204 51 127
-0.223113 0.570498 -0.284809 153 0 76
0.029424 -0.023464 -0.164015 153 0 76
-0.177690 0.796353 -0.330741 153 0 76
-0.389023 -0.187929 -0.115186 153 0 76
0.051654 0.279666 -0.300228 153 0 76
0.277240 -0.149005 0.323303 204 51 127
-0.220176 -0.156732 0.284859 204 51 127
-0.442122 -0.261849 0.433180 0 0 255
-0.416540 -0.659255 -0.033342 255 0 0
0.402338 0.681835 -0.349673 153 0 76
-0.167741 0.410809 -0.326898 153 0 76
-0.096499 -0.067302 -0.155100 153 0 76
-0.291136 0.635141 -0.297955 153 0 76
-0.195339 0.370016 -0.318602 153 0 76
0.434480 0.094336 -0.242223 76 153 0
0.089507 -0.147559 0.330498 204 51 127
0.402338 -0.053197 -0.119916 153 0 76
-0.278594 0.073820 -0.183800 153 0 76
-0.362260 -0.209785 0.020892 204 51 127
-0.409980 -0.095642 -0.116580 153 0 76
-0.252770 -0.128119 0.208511 204 51 127
-0.258303 0.056039 -0.254749 153 0 76
-0.114485 -0.217302 -0.016507 204 51 127
-0.065403 -0.185192 0.010803 204 51 127
-0.038299 -0.227901 0.222830 204 51 127
0.206373 0.642079 -0.373931 153 0 76
0.173712 0.545158 -0.279655 153 0 76
0.187609 0.034868 -0.175878 153 0 76
0.401630 -0.180829 -0.114809 153 0 76
0.405260 -0.320162 0.530442 76 0 153
-0.342259 -0.163281 0.538675 127 0 127
0.423701 -0.591002 -0.296004 0 0 255
-0.442122 -0.266180 0.136642 153 0 76
0.161396 -0.153434 0.108941 204 51 127
-0.245074 -0.144695 0.140800 204 51 127
0.131023 -0.176762 0.464557 204 51 127
-0.412902 -0.195440 0.468346 0 0 255
-0.004238 0.517445 -0.348585 153 0 76
-0.148513 0.030277 -0.174944 153 0 76
0.172568 -0.246721 0.107011 204 51 127
-0.327471 -0.145453 0.340979 204 51 127
-0.412902 0.168442 -0.303276 0 255 0
0.168259 -0.284444 -0.079443 204 51 127
-0.195149 -0.181307 0.162586 204 51 127
-0.409980 -0.134154 0.601063 204 51 127
0.065385 0.258473 -0.221352 153 0 76
0.148102 -0.095990 0.410468 204 51 127
0.248365 0.182224 -0.280411 153 0 76
-0.442122 -0.287424 -0.248541 255 0 0
0.313453 -0.098863 0.382522 204 51 127
0.074379 -0.059491 -0.116553 153 0 76
-0.122192 -0.104786 0.336744 204 51 127
-0.414416 0.190250 0.070685 0 255 0
0.328716 -0.163365 0.251858 204 51 127
0.329931 0.077299 -0.259072 153 0 76
0.165818 -0.201027 0.064470 204 51 127
-0.409980 0.467413 -0.312262 153 0 76
-0.388157 0.541177 -0.278846 153 0 76
0.104176 -0.100898 0.364150 204 51 127
0.375537 -0.150193 0.317395 204 51 127
0.182186 0.265713 -0.222825 153 0 76
0.296762 0.844407 -0.368071 153 0 76
-0.217732 0.692863 -0.384259 153 0 76
0.266567 0.740451 -0.299241 153 0 76
-0.015825 -0.218253 0.271760 204 51 127
-0.229061 -0.111276 0.511025 204 51 127
0.140719 0.778894 -0.401755 153 0 76
0.113142 0.403430 -0.250832 153 0 76
0.402338 -0.133592 0.608765 204 51 127
-0.442122 -0.289188 -0.313769 255 0 0
-0.412902 -0.242394 0.311787 153 0 76
0.097362 -0.006080 -0.242116 153 0 76
0.135672 -0.202819 0.333954 204 51 127
0.024544 -0.155042 0.293265 204 51 127
-0.166674 -0.063352 -0.116103 153 0 76
-0.142118 -0.097003 0.400610 204 51 127
-0.328611 0.317734 -0.307970 153 0 76
0.049563 -0.113825 0.279938 204 51 127
-0.250598 0.387496 -0.247592 153 0 76
0.427412 -0.602123 -0.228920 0 0 255
0.405260 -0.258298 0.562862 127 0 127
0.434480 -0.239060 -0.356422 0 127 127
-0.315936 -0.285939 -0.145637 204 51 127
-0.011236 -0.128364 0.207401 204 51 127
0.432789 -0.294724 0.343072 76 153 0
0.166229 0.418420 -0.328446 153 0 76
-0.269028 -0.155411 -0.211746 153 0 76
-0.297240 -0.185111 -0.115036 153 0 76
0.225992 -0.291485 -0.172909 204 51 127
0.350000 0.039747 -0.132670 153 0 76
0.029337 0.844015 -0.370002 153 0 76
-0.412902 -0.066179 0.523701 0 0 255
0.352593 -0.186258 0.349884 204 51 127
0.402338 -0.100440 -0.173449 153 0 76
0.357799 -0.090524 -0.114424 153 0 76
-0.347593 -0.168468 0.059384 204 51 127
0.105276 0.130710 -0.269935 153 0 76
-0.413848 -0.618904 -0.066612 255 0 0
-0.459661 0.174325 -0.069086 0 255 0
0.069554 0.088216 -0.261293 76 0 153
-0.412902 0.010241 0.519090 0 0 255
-0.416663 -0.643857 -0.198761 255 0 0
-0.036100 0.738931 -0.319063 153 0 76
0.215443 0.104675 -0.264640 76 0 153
-0.161091 -0.000793 -0.124561 153 0 76
-0.363859 -0.097390 0.396854 204 51 127
-0.409980 0.378692 -0.295751 153 0 76
-0.161272 -0.204753 -0.040926 204 51 127
-0.273546 -0.186323 0.137629 204 51 127
-0.412902 -0.319643 -0.338378 204 51 127
-0.442122 -0.476554 0.563096 153 0 76
0.405260 -0.264432 0.258297 76 153 0
0.232768 -0.167312 0.232217 204 51 127
-0.138041 -0.151479 0.115383 204 51 127
0.067735 -0.210502 0.306524 204 51 127
0.101294 -0.273303 -0.187771 204 51 127
-0.157776 -0.139878 0.159190 204 51 127
-0.338877 0.580449 -0.361398 153 0 76
0.434480 -0.266768 -0.316127 0 127 127
-0.264488 -0.256596 0.007334 127 127 0
-0.036252 -0.091743 0.464154 204 51 127
0.454801 0.190250 0.307026 76 153 0
0.181527 0.689050 -0.383484 153 0 76
0.378512 -0.197375 0.082640 204 51 127
-0.086165 0.351615 -0.240295 153 0 76
-0.362352 0.654250 -0.301841 153 0 76
0.434480 0.150054 0.103886 76 153 0
-0.383394 -0.161084 0.263205 204 51 127
-0.412902 0.030650 -0.309572 255 0 0
-0.412902 -0.301894 0.575144 153 0 76
0.199581 -0.062181 -0.156141 153 0 76
0.434480 0.019316 0.418792 127 0 127
-0.286704 -0.080302 -0.115034 153 0 76
-0.332903 -0.248342 0.041486 204 51 127
-0.068653 -0.143960 0.348405 204 51 127
-0.271753 -0.062472 -0.230647 153 0 76
-0.277853 -0.236202 -0.115495 204 51 127
-0.093167 -0.257173 0.004463 127 127 0
0.292463 0.056537 -0.136580 153 0 76
0.155648 -0.090336 0.486085 204 51 127
-0.107390 0.744096 -0.394679 153 0 76
0.106568 -0.152520 0.111953 204 51 127
-0.199342 -0.206011 0.304045 204 51 127
-0.320291 -0.233666 0.120230 204 51 127
0.070807 -0.124471 0.224999 204 51 127
-0.158915 -0.133150 -0.141708 153 0 76
-0.151934 -0.161847 0.259411 204 51 127
0.240405 -0.108304 0.311939 204 51 127
-0.412902 -0.124541 -0.306126 255 0 0
-0.081490 0.660696 -0.377718 153 0 76
-0.223677 -0.188626 0.383530 204 51 127
-0.409980 -0.045042 -0.118369 153 0 76
0.405260 -0.508108 0.567639 76 0 153
0.308988 0.504871 -0.346028 153 0 76
0.214321 -0.101820 0.558071 204 51 127
0.004685 -0.118924 -0.144601 153 0 76
-0.442122 0.149592 -0.374207 0 255 0
0.196536 -0.129601 0.419847 204 51 127
-0.442122 0.154769 0.306989 0 255 0
-0.069310 0.020742 -0.247571 153 0 76
-0.302772 -0.108168 0.526491 204 51 127
0.093543 0.634723 -0.372435 153 0 76
-0.344461 -0.261667 -0.025312 127 127 0
-0.369038 0.024894 -0.129210 153 0 76
0.219400 -0.159375 0.089357 204 51 127
0.246480 -0.095011 -0.224030 153 0 76
-0.059489 -0.184649 0.437113 204 51 127
-0.269386 -0.125551 0.439998 204 51 127
-0.233236 -0.167906 0.061239 204 51 127
-0.412902 -0.635489 0.473288 255 0 0
0.060060 -0.129914 0.418294 204 51 127
-0.054616 0.829261 -0.411999 153 0 76
-0.318303 -0.212204 0.227913 204 51 127
0.144245 -0.189058 -0.204904 153 0 76
0.434480 0.141583 0.011927 76 153 0
0.256776 0.643005 -0.374120 153 0 76
0.406576 -0.613624 -0.131527 0 0 255
0.141623 0.845391 -0.363233 153 0 76
0.434480 0.074812 -0.174196 76 153 0
0.029908 0.447805 -0.259857 153 0 76
0.402338 0.472125 -0.307291 153 0 76
0.373001 -0.209669 0.021472 204 51 127
0.285121 -0.138235 0.376889 204 51 127
0.216535 0.526381 -0.275837 153 0 76
0.069522 -0.230994 0.204345 204 51 127
-0.240051 0.280423 -0.300382 153 0 76
0.405260 -0.647023 0.351788 0 0 255
-0.465361 0.190250 0.150419 0 255 0
-0.035709 -0.107922 0.527714 204 51 127
-0.294777 -0.155248 0.292243 204 51 127
-0.252932 0.651192 -0.375785 153 0 76
0.012773 -0.199538 0.071876 204 51 127
-0.257465 -0.088557 0.590381 204 51 127
0.434480 0.171420 -0.185942 76 153 0
-0.086223 0.184966 -0.181120 153 0 76
0.225521 -0.160477 0.520108 127 0 127
0.128496 0.020546 -0.128278 153 0 76
-0.200536 -0.098997 0.381226 204 51 127
-0.064225 -0.156579 0.285618 204 51 127
0.130048 -0.135677 0.175231 204 51 127
0.299034 -0.192322 0.107781 204 51 127
0.402338 -0.244980 -0.036551 204 51 127
0.190236 -0.024579 -0.238354 153 0 76
0.405260 0.127984 -0.220716 76 153 0
0.340305 -0.030926 -0.162497 153 0 76
0.459471 0.189071 -0.266880 76 153 0
-0.094085 -0.091806 0.463169 204 51 127
0.359597 -0.088364 0.575298 204 51 127
0.434480 0.027680 -0.298817 0 127 127
-0.446824 0.178423 0.522270 0 255 0
-0.041580 -0.264777 -0.033372 127 127 0
-0.126253 -0.292545 -0.049331 127 127 0
-0.251190 -0.286044 -0.146154 204 51 127
-0.140074 0.472332 -0.264845 153 0 76
0.434480 0.150519 -0.101347 76 153 0
0.124308 -0.073724 -0.115427 153 0 76
-0.346828 0.155483 -0.200407 153 0 76
-0.348322 0.492094 -0.268864 153 0 76
0.053545 0.748457 -0.299868 153 0 76
0.402338 0.539297 -0.306230 153 0 76
-0.308858 0.196788 -0.283373 153 0 76
0.121631 -0.197444 -0.022158 204 51 127
-0.015616 -0.105373 0.332598 204 51 127
-0.442122 0.148245 -0.165300 0 255 0
0.405260 -0.015668 0.471849 127 0 127
0.434480 0.137964 0.223885 76 153 0
0.250470 -0.177517 0.426070 204 51 127
0.257770 0.238365 -0.291829 153 0 76
0.099241 -0.135301 0.631364 204 51 127
0.045981 -0.148463 -0.213159 153 0 76
-0.245118 -0.217554 -0.017763 204 51 127
-0.383134 -0.287386 -0.023661 153 0 76
-0.226890 -0.068071 -0.115765 153 0 76
0.405260 -0.660659 0.196419 0 0 255
-0.442122 -0.188874 -0.241984 255 0 0
-0.052469 0.132016 -0.159848 153 0 76
0.311416 0.166862 -0.277287 153 0 76
0.031236 0.658849 -0.302776 153 0 76
0.132741 0.059379 -0.180863 153 0 76
0.171837 -0.194112 0.538675 127 0 127
0.252850 -0.192720 0.538675 127 0 127
0.166659 -0.175423 0.191862 204 51 127
-0.442122 -0.258764 -0.133021 153 0 76
0.434480 -0.026327 -0.210178 0 127 127
0.087326 -0.130432 -0.142261 153 0 76
0.131224 -0.163986 0.248766 204 51 127
0.402338 0.745337 -0.353868 153 0 76
-0.455498 0.179532 0.469259 0 255 0
-0.094519 0.143139 -0.272462 153 0 76
-0.412902 -0.657002 0.168389 255 0 0
-0.288808 -0.174659 0.195661 204 51 127
0.241694 -0.232530 -0.091953 204 51 127
-0.442122 0.057060 0.497368 0 0 255
0.402338 -0.143220 0.507780 204 51 127
0.426772 -0.622178 0.020851 0 0 255
-0.137344 0.067740 -0.139393 153 0 76
-0.209332 0.110713 -0.265868 153 0 76
0.177400 0.145843 -0.198447 153 0 76
-0.442122 -0.099352 -0.250337 255 0 0
-0.400684 0.078923 -0.184837 0 255 0
-0.376881 -0.138443 0.375855 204 51 127
-0.442122 -0.596985 0.424808 255 0 0
-0.005514 0.783628 -0.328153 153 0 76
-0.130780 0.845258 -0.363890 153 0 76
-0.396379 0.069896 -0.278410 76 0 153
0.179586 -0.021443 -0.120988 153 0 76
-0.415994 -0.363915 0.496961 153 0 76
0.405260 -0.125139 -0.298848 0 127 127
0.358845 -0.162394 0.468619 204 51 127
0.230438 -0.114754 0.493722 204 51 127
0.432533 -0.181674 -0.239022 0 127 127
0.132624 -0.096440 0.584841 204 51 127
-0.138505 -0.135749 0.631454 204 51 127
0.384173 0.016580 -0.172159 153 0 76
-0.177859 -0.221717 0.232094 204 51 127
0.267059 -0.040397 -0.118779 153 0 76
-0.186501 0.125374 -0.194284 153 0 76
0.434480 -0.628380 0.483213 0 0 255
-0.050497 0.030554 -0.175001 153 0 76
-0.092121 -0.104897 0.542762 204 51 127
0.328255 -0.088924 0.619121 204 51 127
0.212976 -0.104644 -0.113580 153 0 76
0.056037 -0.213237 -0.125421 153 0 76
-0.151765 -0.144954 0.343458 204 51 127
-0.442122 -0.606879 0.352378 255 0 0
0.294979 -0.107520 0.317460 204 51 127
-0.248849 0.158028 -0.200925 153 0 76
0.405260 -0.574905 0.611198 0 0 255
0.097111 -0.192475 0.392590 204 51 127
0.434480 -0.437138 -0.349601 153 76 0
0.434480 -0.656226 -0.059709 0 0 255
-0.269684 -0.199961 0.310110 204 51 127
-0.254915 0.436128 -0.332047 153 0 76
-0.442122 -0.213650 -0.315823 255 0 0
-0.442122 -0.049332 -0.301221 255 0 0
-0.134086 0.316443 -0.307707 153 0 76
-0.024315 -0.194204 -0.115520 153 0 76
0.042023 0.129796 -0.195183 153 0 76
-0.131019 -0.284384 -0.137995 204 51 127
0.192290 -0.140355 0.366344 204 51 127
-0.097769 -0.265616 -0.189334 204 51 127
-0.204524 -0.202625 0.056518 204 51 127
0.405260 -0.480819 -0.364779 153 76 0
-0.404713 -0.173932 0.509455 0 0 255
0.144194 -0.114718 0.275010 204 51 127
0.394739 -0.049189 -0.233349 153 0 76
-0.312392 -0.290634 -0.039820 127 127 0
-0.172130 0.673541 -0.380330 153 0 76
-0.442122 -0.275286 0.362948 153 0 76
-0.179955 0.730511 -0.317350 153 0 76
0.367304 0.534661 -0.277521 153 0 76
0.405260 0.190196 0.481679 76 153 0
0.218551 0.467845 -0.263932 153 0 76
-0.132146 -0.166766 0.515634 204 51 127
-0.086850 0.509341 -0.346937 153 0 76
-0.181932 -0.113357 0.282518 204 51 127
-0.322007 -0.193587 -0.203983 153 0 76
-0.374875 -0.195572 0.091611 204 51 127
-0.000454 -0.002700 -0.242803 153 0 76
-0.185420 0.403640 -0.250875 153 0 76
0.111588 0.094067 -0.147112 153 0 76
0.402338 0.759150 -0.396626 153 0 76
-0.414339 -0.589949 -0.302017 255 0 0
0.402056 -0.131691 0.409448 204 51 127
0.432537 0.190250 -0.044673 76 153 0
0.212429 -0.093619 0.622986 204 51 127
0.122610 -0.133611 -0.216180 153 0 76
-0.442122 -0.524806 -0.357664 204 51 127
-0.143817 -0.205111 0.044148 204 51 127
0.390853 -0.248404 -0.192835 153 0 76
-0.323548 -0.112419 0.287694 204 51 127
-0.412902 -0.538295 0.549621 153 0 76
0.028333 0.577927 -0.286319 153 0 76
0.434480 -0.583237 0.523985 0 0 255
-0.371239 -0.130726 0.626184 204 51 127
0.377485 -0.113023 0.284361 204 51 127
0.352358 -0.128335 0.629964 204 51 127
-0.083985 -0.225092 0.232864 204 51 127
-0.183736 0.326328 -0.309717 153 0 76
-0.412902 0.122786 0.051807 0 255 0
-0.018088 0.366030 -0.317792 153 0 76
0.133518 -0.260234 0.048725 204 51 127
0.108648 0.436599 -0.332143 153 0 76
0.064950 0.396525 -0.249428 153 0 76
-0.112219 -0.216422 0.272521 204 51 127
0.434480 -0.576085 0.574618 0 0 255
-0.442122 0.115620 -0.096157 0 255 0
0.215238 -0.211193 0.013887 204 51 127
-0.442122 -0.635838 -0.248541 255 0 0
-0.165960 -0.119469 0.470259 204 51 127
-0.382033 0.785496 -0.403098 153 0 76
0.176062 -0.110096 -0.220962 153 0 76
0.110149 -0.243514 0.136726 204 51 127
-0.099357 0.368517 -0.318297 153 0 76
0.216120 0.459947 -0.336892 153 0 76
0.338110 0.127541 -0.158257 153 0 76
0.385463 -0.215039 0.206684 204 51 127
-0.109075 -0.142812 0.147989 204 51 127
-0.442122 -0.218109 -0.208502 153 0 76
0.025644 0.094904 -0.262653 153 0 76
0.025993 -0.144204 0.347190 204 51 127
-0.384818 0.706160 -0.300666 153 0 76
0.287612 0.317619 -0.307946 153 0 76
0.376671 -0.143808 0.144183 204 51 127
-0.442122 0.123362 0.496049 0 255 0
-0.042024 0.816957 -0.334931 153 0 76
-0.374384 -0.230252 -0.080755 204 51 127
0.283647 0.019267 -0.172705 153 0 76
-0.327987 -0.034249 -0.161822 153 0 76
0.434480 -0.618436 -0.091076 0 0 255
0.445004 0.190250 0.459285 76 153 0
-0.326018 0.479288 -0.340825 153 0 76
-0.442122 0.008522 -0.220185 255 0 0
0.120420 0.222007 -0.199043 153 0 76
-0.297006 0.427097 -0.255645 153 0 76
-0.027382 0.044337 -0.133739 153 0 76
-0.244265 -0.231803 0.161107 204 51 127
0.349216 0.170309 -0.203423 153 0 76
-0.178513 -0.229683 -0.077953 204 51 127
-0.179740 -0.174981 0.464087 204 51 127
-0.412902 -0.251192 0.385734 153 0 76
0.125768 0.533332 -0.277250 153 0 76
-0.442122 -0.597904 0.544811 255 0 0
0.405447 -0.048488 -0.326907 0 127 127
0.390156 0.460190 -0.262376 153 0 76
-0.162597 -0.127802 0.209941 204 51 127
0.114230 -0.121246 0.461419 204 51 127
0.434480 -0.167349 -0.300593 0 127 127
-0.373309 0.180687 -0.280098 153 0 76
0.434480 -0.605115 0.445801 0 0 255
0.272526 -0.097197 0.398731 204 51 127
0.402338 0.333012 -0.273571 153 0 76
0.434480 -0.576297 -0.377002 0 0 255
0.246084 0.143971 -0.164099 153 0 76
0.405260 -0.281897 0.087723 76 153 0
-0.345092 0.823563 -0.410840 153 0 76
0.305139 0.789101 -0.403831 153 0 76
0.405260 -0.463126 0.547458 76 0 153
0.117091 0.139835 -0.162628 153 0 76
-0.386128 -0.208532 0.239057 204 51 127
-0.079281 -0.217155 -0.071647 204 51 127
-0.207830 -0.165231 0.242571 204 51 127
-0.307217 -0.099849 0.372936 204 51 127
-0.412902 -0.392889 0.578839 153 0 76
-0.280813 0.843708 -0.371508 153 0 76
0.136281 -0.020788 -0.164559 153 0 76
-0.442122 -0.612956 -0.163407 255 0 0
0.039180 -0.164046 0.248467 204 51 127
