-0.355709 0.067620 -0.217554 0.300000 0.000000 0.600000
-0.319751 -0.069582 -0.282256 0.300000 0.600000 0.000000
0.159330 -0.228160 -0.456783 0.300000 0.600000 0.000000
-0.114982 -0.218771 -0.011820 0.000000 0.500000 0.500000
-0.284549 0.159639 -0.255963 0.300000 0.000000 0.600000
-0.094696 -0.046220 0.529775 0.300000 0.000000 0.600000
0.009554 -0.021253 0.459538 0.300000 0.000000 0.600000
-0.216502 -0.228725 -0.054145 0.000000 0.500000 0.500000
0.229152 0.012333 0.265676 0.300000 0.000000 0.600000
0.019631 -0.090654 0.698160 0.300000 0.000000 0.600000
0.096096 -0.194339 -0.524850 0.300000 0.600000 0.000000
0.066433 0.012261 0.266794 0.300000 0.000000 0.600000
0.043358 0.072431 -0.234670 0.300000 0.000000 0.600000
0.145530 0.013208 0.227660 0.300000 0.000000 0.600000
-0.034448 -0.123874 -0.245286 0.300000 0.600000 0.000000
0.043983 -0.037663 0.507445 0.300000 0.000000 0.600000
0.071995 0.011626 0.174825 0.300000 0.000000 0.600000
0.028156 0.004899 0.515223 0.300000 0.000000 0.600000
0.278073 0.350181 -0.601488 0.300000 0.000000 0.600000
-0.094025 -0.130415 0.684636 0.300000 0.000000 0.600000
0.154670 0.111228 -0.272710 0.300000 0.000000 0.600000
-0.252514 -0.226403 0.804321 0.300000 0.000000 0.600000
-0.017693 0.190090 -0.360245 0.300000 0.000000 0.600000
-0.080805 -0.025302 -0.016503 0.300000 0.000000 0.600000
0.220906 0.002171 0.092813 0.300000 0.000000 0.600000
0.184537 0.009961 -0.066293 0.300000 0.000000 0.600000
-0.033829 0.314518 -0.452627 0.300000 0.000000 0.600000
-0.009534 0.399756 -0.695035 0.300000 0.000000 0.600000
-0.254338 0.229598 -0.336005 0.300000 0.000000 0.600000
-0.151848 0.413933 -0.631008 0.300000 0.000000 0.600000
0.111666 0.352542 -0.605988 0.300000 0.000000 0.600000
0.236127 0.037488 -0.141123 0.300000 0.000000 0.600000
0.332558 -0.145740 -0.296425 0.300000 0.600000 0.000000
0.353046 0.035996 0.379552 0.300000 0.000000 0.600000
0.311921 0.057751 0.250192 0.300000 0.000000 0.600000
-0.358123 -0.093378 -0.080679 0.300000 0.000000 0.600000
-0.355400 -0.218297 -0.467764 0.300000 0.600000 0.000000
-0.004764 0.395469 -0.592654 0.300000 0.000000 0.600000
-0.293339 0.017507 -0.119772 0.300000 0.000000 0.600000
0.213582 0.057807 0.248525 0.300000 0.000000 0.600000
-0.035304 0.142459 -0.238069 0.300000 0.000000 0.600000
-0.132553 0.332813 -0.569375 0.300000 0.000000 0.600000
-0.144141 -0.046351 0.530113 0.300000 0.000000 0.600000
0.179165 0.167426 -0.333614 0.300000 0.000000 0.600000
-0.207413 -0.150181 0.809321 0.300000 0.000000 0.600000
0.007880 0.019322 -0.122063 0.300000 0.000000 0.600000
0.333483 0.321720 -0.463547 0.300000 0.000000 0.600000
0.050299 0.236489 -0.344929 0.300000 0.000000 0.600000
-0.000444 -0.060993 0.563751 0.300000 0.000000 0.600000
0.083049 -0.123331 -0.243927 0.300000 0.600000 0.000000
-0.295307 -0.095277 -0.341351 0.300000 0.600000 0.000000
0.191260 0.406433 -0.615517 0.300000 0.000000 0.600000
0.286359 0.255503 -0.446015 0.300000 0.000000 0.600000
0.030306 -0.107056 -0.367230 0.300000 0.600000 0.000000
0.114866 0.144786 -0.240901 0.300000 0.000000 0.600000
0.353919 0.039265 -0.158608 0.300000 0.000000 0.600000
0.137118 -0.178954 0.896045 0.300000 0.000000 0.600000
-0.298088 -0.229026 0.870102 0.300000 0.000000 0.600000
-0.042096 -0.091490 -0.148030 0.300000 0.600000 0.000000
0.062723 0.276338 -0.397470 0.300000 0.000000 0.600000
0.015427 -0.081641 0.605016 0.300000 0.000000 0.600000
-0.051864 0.000265 0.370006 0.300000 0.000000 0.600000
-0.074428 0.353460 -0.607804 0.300000 0.000000 0.600000
0.356212 0.402709 -0.646845 0.300000 0.000000 0.600000
0.211332 0.057644 0.186074 0.300000 0.000000 0.600000
0.159828 -0.199738 -0.398946 0.300000 0.600000 0.000000
-0.015852 0.376362 -0.556840 0.300000 0.000000 0.600000
0.308348 0.047581 -0.211863 0.300000 0.000000 0.600000
0.298874 0.016811 -0.118480 0.300000 0.000000 0.600000
-0.101003 0.395657 -0.593115 0.300000 0.000000 0.600000
-0.027568 0.202761 -0.375865 0.300000 0.000000 0.600000
0.011000 0.322009 -0.550133 0.300000 0.000000 0.600000
0.022215 0.052303 0.126534 0.300000 0.000000 0.600000
0.305243 0.049563 0.340695 0.300000 0.000000 0.600000
0.193864 -0.115752 -0.044152 0.000000 0.500000 0.500000
-0.256283 0.052076 0.319602 0.300000 0.000000 0.600000
-0.013048 -0.045418 0.623960 0.300000 0.000000 0.600000
-0.040271 0.041781 0.056564 0.300000 0.000000 0.600000
0.207362 -0.229026 0.870634 0.300000 0.000000 0.600000
0.344997 -0.020967 -0.005015 0.300000 0.000000 0.600000
0.080656 -0.046492 0.626786 0.300000 0.000000 0.600000
0.228477 -0.199749 0.769759 0.300000 0.000000 0.600000
-0.067257 -0.166520 0.732020 0.300000 0.000000 0.600000
0.036508 -0.144286 0.703228 0.300000 0.000000 0.600000
-0.218287 -0.147397 0.836282 0.300000 0.000000 0.600000
-0.355911 0.128426 -0.246251 0.300000 0.000000 0.600000
0.194209 -0.069380 0.666749 0.300000 0.000000 0.600000
0.081671 -0.146419 0.776157 0.300000 0.000000 0.600000
0.176486 -0.211021 -0.417613 0.300000 0.600000 0.000000
0.276971 -0.105551 -0.111022 0.000000 0.500000 0.500000
0.220335 -0.092015 0.700529 0.300000 0.000000 0.600000
0.277977 -0.049019 -0.231694 0.300000 0.600000 0.000000
0.356489 0.012332 0.035721 0.300000 0.000000 0.600000
0.140054 0.194906 -0.366070 0.300000 0.000000 0.600000
-0.200573 -0.093787 -0.130312 0.300000 0.600000 0.000000
-0.191352 -0.228139 0.912833 0.300000 0.000000 0.600000
0.150472 0.003821 0.103428 0.300000 0.000000 0.600000
-0.163317 0.365573 -0.631886 0.300000 0.000000 0.600000
-0.225236 0.003526 0.351382 0.300000 0.000000 0.600000
0.231647 -0.050034 -0.051588 0.300000 0.000000 0.600000
0.201286 -0.229026 0.846547 0.300000 0.000000 0.600000
-0.074501 -0.050869 -0.236497 0.300000 0.600000 0.000000
0.326952 -0.032954 0.601311 0.300000 0.000000 0.600000
0.091768 0.317782 -0.542847 0.300000 0.000000 0.600000
0.000355 0.027155 0.445735 0.300000 0.000000 0.600000
0.245185 0.127165 -0.289279 0.300000 0.000000 0.600000
0.160280 -0.148243 0.845831 0.300000 0.000000 0.600000
0.332241 0.390203 -0.684154 0.300000 0.000000 0.600000
0.130368 0.209854 -0.312123 0.300000 0.000000 0.600000
-0.279212 -0.168503 0.734551 0.300000 0.000000 0.600000
0.110235 -0.103184 -0.359110 0.300000 0.600000 0.000000
0.302351 -0.078456 0.598706 0.300000 0.000000 0.600000
-0.082898 -0.033876 -0.193736 0.300000 0.600000 0.000000
-0.210560 0.011930 0.180239 0.300000 0.000000 0.600000
-0.077417 0.418970 -0.698461 0.300000 0.000000 0.600000
0.118666 -0.021883 0.461753 0.300000 0.000000 0.600000
0.201071 -0.139508 -0.430378 0.300000 0.600000 0.000000
-0.019324 -0.088819 -0.328025 0.300000 0.600000 0.000000
-0.287029 -0.127683 -0.093538 0.000000 0.500000 0.500000
-0.101868 -0.184863 -0.373102 0.300000 0.600000 0.000000
-0.285674 -0.094266 0.703871 0.300000 0.000000 0.600000
0.220953 -0.115426 0.733583 0.300000 0.000000 0.600000
-0.057363 0.113505 -0.275046 0.300000 0.000000 0.600000
-0.358155 -0.036632 -0.097532 0.300000 0.000000 0.600000
-0.174771 0.139106 -0.302064 0.300000 0.000000 0.600000
-0.280523 -0.077274 0.678703 0.300000 0.000000 0.600000
-0.150884 -0.161874 -0.329667 0.300000 0.600000 0.000000
0.285838 0.022106 0.463076 0.300000 0.000000 0.600000
-0.112291 0.387786 -0.577730 0.300000 0.000000 0.600000
0.011174 -0.150190 0.792289 0.300000 0.000000 0.600000
-0.205191 0.354012 -0.608898 0.300000 0.000000 0.600000
0.109524 -0.175269 -0.021370 0.000000 0.500000 0.500000
0.043429 0.262805 -0.456495 0.300000 0.000000 0.600000
-0.220379 -0.227043 0.807535 0.300000 0.000000 0.600000
0.049810 -0.003377 0.065509 0.300000 0.000000 0.600000
-0.120721 -0.227369 0.919132 0.300000 0.000000 0.600000
0.174311 0.006524 0.511250 0.300000 0.000000 0.600000
-0.151441 -0.094817 -0.126978 0.300000 0.600000 0.000000
0.090745 0.003921 0.104155 0.300000 0.000000 0.600000
0.234800 -0.007668 0.409179 0.300000 0.000000 0.600000
-0.222611 0.050038 0.101941 0.300000 0.000000 0.600000
0.010728 -0.177556 -0.359765 0.300000 0.600000 0.000000
0.356248 -0.141252 -0.068645 0.000000 0.500000 0.500000
0.345819 -0.088386 -0.141916 0.300000 0.600000 0.000000
-0.209900 -0.103144 -0.358252 0.300000 0.600000 0.000000
0.318536 0.292182 -0.500939 0.300000 0.000000 0.600000
0.340390 0.040988 -0.204530 0.300000 0.000000 0.600000
0.186794 -0.131356 -0.263423 0.300000 0.600000 0.000000
-0.291341 -0.091656 0.623317 0.300000 0.000000 0.600000
0.352285 -0.023126 0.492033 0.300000 0.000000 0.600000
0.127040 0.125994 -0.221636 0.300000 0.000000 0.600000
0.021706 -0.091591 -0.143727 0.300000 0.600000 0.000000
0.215042 0.348021 -0.505984 0.300000 0.000000 0.600000
-0.339741 0.374223 -0.649152 0.300000 0.000000 0.600000
0.308357 0.308894 -0.528010 0.300000 0.000000 0.600000
-0.148493 -0.117756 -0.388974 0.300000 0.600000 0.000000
0.176333 -0.040177 0.513930 0.300000 0.000000 0.600000
0.333898 0.020567 -0.028580 0.300000 0.000000 0.600000
0.187689 -0.000606 0.374954 0.300000 0.000000 0.600000
0.246566 -0.100662 -0.181717 0.300000 0.600000 0.000000
0.207298 -0.185258 0.901759 0.300000 0.000000 0.600000
0.338088 0.324889 -0.554605 0.300000 0.000000 0.600000
-0.328724 0.052755 0.128194 0.300000 0.000000 0.600000
0.318479 -0.063872 -0.268367 0.300000 0.600000 0.000000
0.240566 0.095150 -0.191972 0.300000 0.000000 0.600000
-0.074329 -0.229026 0.893179 0.300000 0.000000 0.600000
0.172123 -0.143453 -0.291098 0.300000 0.600000 0.000000
0.174256 0.354023 -0.516149 0.300000 0.000000 0.600000
-0.017662 0.313067 -0.534863 0.300000 0.000000 0.600000
-0.358040 -0.095512 -0.218094 0.300000 0.600000 0.000000
0.194572 -0.174881 -0.021496 0.000000 0.500000 0.500000
0.063943 0.371794 -0.548149 0.300000 0.000000 0.600000
0.181149 0.056176 0.160083 0.300000 0.000000 0.600000
-0.091317 -0.224271 0.929616 0.300000 0.000000 0.600000
-0.302669 0.154929 -0.250967 0.300000 0.000000 0.600000
-0.241412 -0.094391 -0.339432 0.300000 0.600000 0.000000
0.191785 -0.147504 -0.445620 0.300000 0.600000 0.000000
-0.138038 -0.187997 -0.378655 0.300000 0.600000 0.000000
0.355616 0.349260 -0.563115 0.300000 0.000000 0.600000
0.107332 0.008373 -0.089814 0.300000 0.000000 0.600000
-0.357548 -0.109025 0.686230 0.300000 0.000000 0.600000
-0.263856 -0.093283 -0.157271 0.300000 0.600000 0.000000
-0.260472 0.005046 0.341454 0.300000 0.000000 0.600000
0.128309 0.005499 0.115619 0.300000 0.000000 0.600000
-0.067012 -0.096271 -0.167632 0.300000 0.600000 0.000000
0.297716 0.153237 -0.317435 0.300000 0.000000 0.600000
-0.259011 -0.068414 -0.054929 0.300000 0.000000 0.600000
-0.134936 -0.000394 0.079340 0.300000 0.000000 0.600000
-0.024544 -0.111351 0.655207 0.300000 0.000000 0.600000
-0.011152 0.005923 0.335722 0.300000 0.000000 0.600000
-0.037109 0.074643 -0.173277 0.300000 0.000000 0.600000
-0.046660 0.034155 0.019393 0.300000 0.000000 0.600000
-0.013077 0.001886 0.091079 0.300000 0.000000 0.600000
-0.177899 0.262230 -0.455665 0.300000 0.000000 0.600000
-0.203305 0.209688 -0.384615 0.300000 0.000000 0.600000
-0.295784 0.301002 -0.515061 0.300000 0.000000 0.600000
0.353758 -0.062798 -0.240570 0.300000 0.600000 0.000000
0.082732 0.361363 -0.623479 0.300000 0.000000 0.600000
-0.184645 -0.001311 0.378952 0.300000 0.000000 0.600000
-0.231429 -0.157855 0.720878 0.300000 0.000000 0.600000
0.172442 -0.116933 -0.227535 0.300000 0.600000 0.000000
0.225189 0.142290 -0.237878 0.300000 0.000000 0.600000
0.063994 0.013149 0.491430 0.300000 0.000000 0.600000
0.356613 -0.055941 -0.169224 0.300000 0.600000 0.000000
0.040708 -0.143392 -0.290966 0.300000 0.600000 0.000000
0.356531 -0.193773 0.802032 0.300000 0.000000 0.600000
-0.165768 -0.229026 -0.504388 0.300000 0.600000 0.000000
0.185595 -0.071848 0.585526 0.300000 0.000000 0.600000
-0.025389 -0.178610 -0.020292 0.000000 0.500000 0.500000
0.227051 0.025790 0.450949 0.300000 0.000000 0.600000
0.291906 -0.025423 -0.187476 0.300000 0.600000 0.000000
-0.199872 -0.007997 0.044099 0.300000 0.000000 0.600000
-0.340868 0.265135 -0.458811 0.300000 0.000000 0.600000
-0.073480 -0.013883 0.019872 0.300000 0.000000 0.600000
0.204160 0.007069 0.128897 0.300000 0.000000 0.600000
-0.333722 0.148348 -0.311893 0.300000 0.000000 0.600000
-0.191889 -0.163668 -0.333226 0.300000 0.600000 0.000000
-0.240138 0.169127 -0.335591 0.300000 0.000000 0.600000
-0.053249 0.260127 -0.452626 0.300000 0.000000 0.600000
-0.025293 -0.177351 0.894516 0.300000 0.000000 0.600000
-0.296483 -0.006887 0.049275 0.300000 0.000000 0.600000
-0.024401 0.035139 -0.139081 0.300000 0.000000 0.600000
0.356159 -0.036439 0.570692 0.300000 0.000000 0.600000
-0.083980 0.053239 0.134221 0.300000 0.000000 0.600000
0.349462 -0.145586 0.707193 0.300000 0.000000 0.600000
0.170165 -0.229026 0.860675 0.300000 0.000000 0.600000
-0.251033 -0.211947 -0.068005 0.000000 0.500000 0.500000
-0.053808 0.329601 -0.476280 0.300000 0.000000 0.600000
-0.285133 -0.055916 0.644169 0.300000 0.000000 0.600000
-0.285443 0.337252 -0.487951 0.300000 0.000000 0.600000
-0.022483 0.057643 0.225122 0.300000 0.000000 0.600000
0.075898 -0.229026 -0.473106 0.300000 0.600000 0.000000
0.098202 0.396452 -0.692436 0.300000 0.000000 0.600000
-0.243677 0.057926 0.214750 0.300000 0.000000 0.600000
-0.266805 -0.058677 0.559085 0.300000 0.000000 0.600000
0.060472 -0.183121 -0.369946 0.300000 0.600000 0.000000
0.009096 0.416470 -0.698524 0.300000 0.000000 0.600000
-0.084221 -0.150409 0.806124 0.300000 0.000000 0.600000
-0.215759 0.409662 -0.697908 0.300000 0.000000 0.600000
0.028459 -0.209657 0.780352 0.300000 0.000000 0.600000
-0.122419 -0.183998 -0.018565 0.000000 0.500000 0.500000
-0.020255 -0.039910 0.513243 0.300000 0.000000 0.600000
0.235501 0.051827 0.322025 0.300000 0.000000 0.600000
0.356443 -0.169319 -0.373474 0.300000 0.600000 0.000000
0.139600 -0.200904 -0.070087 0.000000 0.500000 0.500000
0.259259 0.127527 -0.223419 0.300000 0.000000 0.600000
0.184431 -0.025708 -0.017428 0.300000 0.000000 0.600000
-0.239745 0.037546 0.036761 0.300000 0.000000 0.600000
-0.072296 -0.202203 -0.403070 0.300000 0.600000 0.000000
-0.257429 -0.161665 -0.026337 0.000000 0.500000 0.500000
-0.246063 0.347422 -0.504974 0.300000 0.000000 0.600000
0.158652 -0.124100 -0.245839 0.300000 0.600000 0.000000
-0.355577 0.126530 -0.274530 0.300000 0.000000 0.600000
-0.346167 0.262116 -0.383203 0.300000 0.000000 0.600000
0.171165 0.140746 -0.303823 0.300000 0.000000 0.600000
0.351340 0.007547 -0.109623 0.300000 0.000000 0.600000
-0.121200 -0.105056 0.645131 0.300000 0.000000 0.600000
-0.331054 -0.219736 -0.563852 0.300000 0.600000 0.000000
-0.181211 0.011699 0.176124 0.300000 0.000000 0.600000
0.315495 -0.217565 -0.428110 0.300000 0.600000 0.000000
-0.176186 -0.054783 0.550554 0.300000 0.000000 0.600000
0.036238 0.032586 -0.136862 0.300000 0.000000 0.600000
0.356381 -0.065941 -0.067423 0.300000 0.000000 0.600000
-0.173554 -0.011854 0.556247 0.300000 0.000000 0.600000
-0.128485 -0.018228 0.004723 0.300000 0.000000 0.600000
-0.214354 -0.099202 0.711173 0.300000 0.000000 0.600000
0.106650 0.054543 0.294068 0.300000 0.000000 0.600000
0.087147 -0.145370 -0.441746 0.300000 0.600000 0.000000
0.356612 -0.160453 -0.412530 0.300000 0.600000 0.000000
-0.211886 0.033640 0.423173 0.300000 0.000000 0.600000
0.332851 -0.021455 0.578083 0.300000 0.000000 0.600000
-0.193533 0.037364 0.406345 0.300000 0.000000 0.600000
-0.012404 -0.009145 0.039206 0.300000 0.000000 0.600000
0.049948 0.276658 -0.477096 0.300000 0.000000 0.600000
-0.035823 -0.144607 -0.439689 0.300000 0.600000 0.000000
-0.346228 0.041732 0.063290 0.300000 0.000000 0.600000
-0.056895 -0.150888 0.857272 0.300000 0.000000 0.600000
0.087009 -0.080797 0.603343 0.300000 0.000000 0.600000
-0.338721 -0.228740 0.870642 0.300000 0.000000 0.600000
0.271654 -0.060831 -0.053515 0.300000 0.000000 0.600000
-0.185068 0.357719 -0.616232 0.300000 0.000000 0.600000
-0.217197 -0.229026 0.854445 0.300000 0.000000 0.600000
0.196643 0.051386 0.114474 0.300000 0.000000 0.600000
0.001125 -0.189709 -0.072458 0.000000 0.500000 0.500000
-0.035206 -0.099496 -0.351222 0.300000 0.600000 0.000000
0.068528 -0.228982 0.817773 0.300000 0.000000 0.600000
-0.071196 -0.228968 -0.549904 0.300000 0.600000 0.000000
-0.357996 0.027342 0.201420 0.300000 0.000000 0.600000
0.042221 0.329674 -0.563731 0.300000 0.000000 0.600000
0.076450 -0.006561 0.404457 0.300000 0.000000 0.600000
-0.186712 -0.112833 0.657575 0.300000 0.000000 0.600000
0.116825 -0.018322 0.570159 0.300000 0.000000 0.600000
0.236767 0.298967 -0.511786 0.300000 0.000000 0.600000
-0.284918 -0.012444 0.427954 0.300000 0.000000 0.600000
-0.317549 -0.182878 0.899719 0.300000 0.000000 0.600000
0.035466 -0.160751 -0.080303 0.000000 0.500000 0.500000
0.298306 -0.074623 -0.293957 0.300000 0.600000 0.000000
0.296079 -0.223131 -0.439038 0.300000 0.600000 0.000000
0.325527 0.051507 0.116404 0.300000 0.000000 0.600000
0.272456 0.032682 0.425624 0.300000 0.000000 0.600000
-0.245204 0.162593 -0.259135 0.300000 0.000000 0.600000
-0.320318 0.035387 -0.140183 0.300000 0.000000 0.600000
0.011662 0.268298 -0.464585 0.300000 0.000000 0.600000
-0.357328 0.108201 -0.233782 0.300000 0.000000 0.600000
0.356270 0.083397 -0.212952 0.300000 0.000000 0.600000
-0.268716 -0.179498 -0.499970 0.300000 0.600000 0.000000
0.129094 -0.134680 -0.090503 0.000000 0.500000 0.500000
-0.153067 0.268026 -0.385692 0.300000 0.000000 0.600000
-0.189824 -0.173437 0.740545 0.300000 0.000000 0.600000
0.355937 -0.145347 -0.045632 0.000000 0.500000 0.500000
-0.062524 0.001255 0.522971 0.300000 0.000000 0.600000
-0.004467 -0.043606 -0.216186 0.300000 0.600000 0.000000
-0.051756 0.004426 -0.183408 0.300000 0.000000 0.600000
-0.084592 0.056566 0.266390 0.300000 0.000000 0.600000
-0.044181 -0.229026 -0.529307 0.300000 0.600000 0.000000
0.124296 -0.039842 -0.206722 0.300000 0.600000 0.000000
0.113477 -0.146819 -0.298382 0.300000 0.600000 0.000000
0.316810 -0.207888 -0.546112 0.300000 0.600000 0.000000
0.242462 -0.109441 0.652154 0.300000 0.000000 0.600000
0.054620 -0.095656 0.705319 0.300000 0.000000 0.600000
0.356267 0.330918 -0.528555 0.300000 0.000000 0.600000
0.062987 0.009257 0.306362 0.300000 0.000000 0.600000
0.028167 -0.227224 -0.569233 0.300000 0.600000 0.000000
0.197209 0.322075 -0.463847 0.300000 0.000000 0.600000
0.202390 0.010028 0.297769 0.300000 0.000000 0.600000
0.356521 -0.110304 -0.257274 0.300000 0.600000 0.000000
-0.199889 0.084028 -0.245738 0.300000 0.000000 0.600000
-0.026404 0.032313 0.011721 0.300000 0.000000 0.600000
0.010861 0.378515 -0.658931 0.300000 0.000000 0.600000
-0.295011 0.010190 0.156996 0.300000 0.000000 0.600000
-0.207806 -0.189527 -0.517086 0.300000 0.600000 0.000000
0.127140 0.035654 0.026777 0.300000 0.000000 0.600000
-0.239148 -0.167337 -0.340436 0.300000 0.600000 0.000000
-0.339359 0.089893 -0.189151 0.300000 0.000000 0.600000
0.077348 0.152043 -0.248391 0.300000 0.000000 0.600000
-0.157520 -0.159771 -0.466215 0.300000 0.600000 0.000000
0.294824 0.350983 -0.510989 0.300000 0.000000 0.600000
-0.358124 -0.003008 -0.012779 0.300000 0.000000 0.600000
-0.291318 -0.116026 0.662674 0.300000 0.000000 0.600000
-0.143519 0.304777 -0.437404 0.300000 0.000000 0.600000
-0.188234 -0.030150 0.487422 0.300000 0.000000 0.600000
0.121020 -0.125919 -0.250382 0.300000 0.600000 0.000000
0.138128 -0.218558 -0.429697 0.300000 0.600000 0.000000
-0.092456 0.018878 -0.186855 0.300000 0.000000 0.600000
-0.186923 0.298324 -0.427925 0.300000 0.000000 0.600000
0.204524 0.291101 -0.499241 0.300000 0.000000 0.600000
-0.351755 -0.002337 0.399685 0.300000 0.000000 0.600000
0.356033 -0.020616 0.539340 0.300000 0.000000 0.600000
-0.188569 -0.158875 -0.080939 0.000000 0.500000 0.500000
-0.138442 -0.006745 0.543642 0.300000 0.000000 0.600000
0.128043 0.005313 0.339707 0.300000 0.000000 0.600000
0.302080 0.049547 0.098325 0.300000 0.000000 0.600000
-0.306784 -0.118181 -0.043199 0.000000 0.500000 0.500000
-0.114186 -0.227952 -0.567113 0.300000 0.600000 0.000000
-0.222182 -0.099515 -0.178086 0.300000 0.600000 0.000000
-0.234681 0.025901 0.450569 0.300000 0.000000 0.600000
0.224862 -0.229026 0.877679 0.300000 0.000000 0.600000
-0.267334 0.017589 -0.119890 0.300000 0.000000 0.600000
0.207698 0.015058 0.486075 0.300000 0.000000 0.600000
-0.137021 -0.163944 0.880174 0.300000 0.000000 0.600000
-0.055474 -0.066801 -0.054614 0.300000 0.000000 0.600000
-0.063069 -0.027313 0.479110 0.300000 0.000000 0.600000
-0.127035 0.422624 -0.650031 0.300000 0.000000 0.600000
-0.054318 0.279856 -0.481903 0.300000 0.000000 0.600000
0.206628 -0.068880 -0.280845 0.300000 0.600000 0.000000
-0.045516 -0.101886 0.715138 0.300000 0.000000 0.600000
0.000691 0.047949 0.087899 0.300000 0.000000 0.600000
-0.199575 0.057917 0.212954 0.300000 0.000000 0.600000
0.097990 0.007811 0.135327 0.300000 0.000000 0.600000
0.282770 0.067639 -0.166985 0.300000 0.000000 0.600000
-0.134971 -0.075333 -0.054546 0.000000 0.500000 0.500000
0.210985 -0.223067 -0.064693 0.000000 0.500000 0.500000
0.027891 0.317471 -0.542317 0.300000 0.000000 0.600000
0.279929 0.046323 0.360555 0.300000 0.000000 0.600000
-0.100840 0.336501 -0.486863 0.300000 0.000000 0.600000
0.306000 -0.109418 0.725729 0.300000 0.000000 0.600000
-0.097279 0.115095 -0.211257 0.300000 0.000000 0.600000
0.264742 0.298016 -0.427476 0.300000 0.000000 0.600000
0.270999 -0.229026 -0.494293 0.300000 0.600000 0.000000
0.318589 0.326316 -0.557712 0.300000 0.000000 0.600000
0.183323 -0.059525 0.560795 0.300000 0.000000 0.600000
0.207802 -0.010355 0.552388 0.300000 0.000000 0.600000
-0.007517 0.037213 0.033619 0.300000 0.000000 0.600000
-0.192503 0.012777 0.255840 0.300000 0.000000 0.600000
-0.341729 0.384755 -0.575439 0.300000 0.000000 0.600000
-0.235424 -0.014383 0.017876 0.300000 0.000000 0.600000
-0.004176 -0.120900 0.670418 0.300000 0.000000 0.600000
-0.358153 -0.106638 -0.306652 0.300000 0.600000 0.000000
0.107315 -0.130056 -0.412359 0.300000 0.600000 0.000000
-0.022561 -0.040856 -0.209309 0.300000 0.600000 0.000000
0.271812 -0.229025 -0.534978 0.300000 0.600000 0.000000
-0.172973 -0.228594 0.909104 0.300000 0.000000 0.600000
-0.284140 0.192600 -0.363281 0.300000 0.000000 0.600000
-0.339012 -0.022575 0.580138 0.300000 0.000000 0.600000
0.290771 0.328176 -0.561040 0.300000 0.000000 0.600000
0.321576 -0.056793 -0.052846 0.300000 0.000000 0.600000
0.077091 -0.120213 -0.098310 0.000000 0.500000 0.500000
-0.315202 -0.201394 0.771518 0.300000 0.000000 0.600000
0.244247 -0.122398 -0.397453 0.300000 0.600000 0.000000
-0.228404 0.386390 -0.574940 0.300000 0.000000 0.600000
-0.156943 0.398906 -0.600384 0.300000 0.000000 0.600000
0.152150 0.369478 -0.543325 0.300000 0.000000 0.600000
0.282557 -0.124012 -0.095794 0.000000 0.500000 0.500000
-0.162811 0.343444 -0.588759 0.300000 0.000000 0.600000
0.226049 0.013194 0.235709 0.300000 0.000000 0.600000
0.341794 0.056726 0.176528 0.300000 0.000000 0.600000
0.040396 0.276773 -0.398206 0.300000 0.000000 0.600000
-0.086333 -0.163333 0.879592 0.300000 0.000000 0.600000
-0.025621 -0.150186 0.793025 0.300000 0.000000 0.600000
-0.046842 0.009574 0.150615 0.300000 0.000000 0.600000
-0.040967 -0.094477 0.628174 0.300000 0.000000 0.600000
0.058314 -0.000568 0.374742 0.300000 0.000000 0.600000
0.001439 0.131864 -0.294297 0.300000 0.000000 0.600000
0.300258 -0.228626 -0.465199 0.300000 0.600000 0.000000
-0.357932 -0.169322 0.855614 0.300000 0.000000 0.600000
-0.188196 0.083806 -0.182070 0.300000 0.000000 0.600000
0.219144 0.375167 -0.553914 0.300000 0.000000 0.600000
0.346935 -0.153556 0.804651 0.300000 0.000000 0.600000
-0.131211 -0.173495 -0.076449 0.000000 0.500000 0.500000
0.228225 -0.148186 0.845186 0.300000 0.000000 0.600000
0.051913 0.320315 -0.547160 0.300000 0.000000 0.600000
-0.064168 -0.210056 -0.011434 0.000000 0.500000 0.500000
0.340071 -0.065948 -0.273217 0.300000 0.600000 0.000000
-0.229087 0.209490 -0.311695 0.300000 0.000000 0.600000
-0.150690 -0.011567 0.424781 0.300000 0.000000 0.600000
0.309268 0.010495 -0.062885 0.300000 0.000000 0.600000
-0.004803 0.057742 0.235030 0.300000 0.000000 0.600000
0.036766 -0.133085 0.688306 0.300000 0.000000 0.600000
-0.099367 -0.228964 -0.471317 0.300000 0.600000 0.000000
-0.132149 0.146980 -0.310550 0.300000 0.000000 0.600000
-0.098481 -0.229026 0.862532 0.300000 0.000000 0.600000
-0.064501 -0.012573 0.557858 0.300000 0.000000 0.600000
0.062402 -0.034498 0.604298 0.300000 0.000000 0.600000
-0.159854 0.008555 -0.092784 0.300000 0.000000 0.600000
-0.357710 0.041877 0.266440 0.300000 0.000000 0.600000
-0.152393 0.040002 -0.205080 0.300000 0.000000 0.600000
0.339072 0.212687 -0.315966 0.300000 0.000000 0.600000
0.316523 -0.065654 0.660870 0.300000 0.000000 0.600000
0.332273 -0.212846 0.928224 0.300000 0.000000 0.600000
0.309389 -0.138764 -0.429026 0.300000 0.600000 0.000000
0.110602 -0.114240 0.731240 0.300000 0.000000 0.600000
0.149047 -0.229026 -0.528577 0.300000 0.600000 0.000000
-0.337216 -0.031101 0.490916 0.300000 0.000000 0.600000
0.019363 0.055515 0.159720 0.300000 0.000000 0.600000
-0.021426 -0.005327 0.398940 0.300000 0.000000 0.600000
-0.256839 0.428010 -0.662379 0.300000 0.000000 0.600000
-0.307076 -0.200931 -0.013633 0.000000 0.500000 0.500000
-0.122231 -0.109578 -0.372437 0.300000 0.600000 0.000000
0.227156 0.018437 -0.186485 0.300000 0.000000 0.600000
-0.318504 -0.108050 -0.203641 0.300000 0.600000 0.000000
-0.256142 -0.001057 0.530261 0.300000 0.000000 0.600000
-0.252502 -0.018129 0.005048 0.300000 0.000000 0.600000
0.277007 -0.140214 -0.283837 0.300000 0.600000 0.000000
-0.316334 0.170916 -0.268130 0.300000 0.000000 0.600000
0.063138 -0.157403 0.872206 0.300000 0.000000 0.600000
-0.060959 -0.184432 0.901463 0.300000 0.000000 0.600000
0.259774 -0.132041 -0.037260 0.000000 0.500000 0.500000
0.143312 0.055349 0.156718 0.300000 0.000000 0.600000
-0.358128 -0.120372 -0.286571 0.300000 0.600000 0.000000
0.146099 -0.143731 -0.086695 0.000000 0.500000 0.500000
-0.102755 -0.132093 0.753888 0.300000 0.000000 0.600000
-0.256204 0.335679 -0.574531 0.300000 0.000000 0.600000
0.197949 -0.132157 0.687031 0.300000 0.000000 0.600000
-0.188332 0.320207 -0.460962 0.300000 0.000000 0.600000
-0.026063 -0.221718 -0.436094 0.300000 0.600000 0.000000
-0.269645 0.082521 -0.244257 0.300000 0.000000 0.600000
0.217455 0.007156 0.509584 0.300000 0.000000 0.600000
0.232719 0.260486 -0.453144 0.300000 0.000000 0.600000
-0.178146 -0.156330 0.718895 0.300000 0.000000 0.600000
0.299701 -0.004671 0.396012 0.300000 0.000000 0.600000
-0.182715 0.130054 -0.226327 0.300000 0.000000 0.600000
-0.082838 -0.229026 -0.521665 0.300000 0.600000 0.000000
0.281923 -0.106904 -0.200453 0.300000 0.600000 0.000000
-0.052792 -0.229026 0.862451 0.300000 0.000000 0.600000
0.288613 -0.228224 0.813467 0.300000 0.000000 0.600000
-0.222095 0.317035 -0.456063 0.300000 0.000000 0.600000
0.070919 0.057714 0.246317 0.300000 0.000000 0.600000
-0.206076 -0.114016 0.659466 0.300000 0.000000 0.600000
0.130986 0.232584 -0.414385 0.300000 0.000000 0.600000
0.338066 -0.058192 -0.253664 0.300000 0.600000 0.000000
0.302359 0.175247 -0.272809 0.300000 0.000000 0.600000
-0.358133 -0.195207 -0.423966 0.300000 0.600000 0.000000
0.286977 -0.114390 0.660064 0.300000 0.000000 0.600000
-0.296186 -0.053218 0.547057 0.300000 0.000000 0.600000
-0.207919 -0.157516 -0.462266 0.300000 0.600000 0.000000
-0.046943 -0.201214 -0.070028 0.000000 0.500000 0.500000
-0.310414 -0.228971 -0.038117 0.000000 0.500000 0.500000
-0.159013 0.057715 0.187890 0.300000 0.000000 0.600000
-0.076068 0.025174 0.451885 0.300000 0.000000 0.600000
-0.332035 0.010949 0.163861 0.300000 0.000000 0.600000
-0.139928 0.009768 0.501524 0.300000 0.000000 0.600000
0.021645 0.334922 -0.484192 0.300000 0.000000 0.600000
0.113896 -0.228378 -0.460714 0.300000 0.600000 0.000000
0.333950 0.075692 -0.174517 0.300000 0.000000 0.600000
0.269256 -0.041811 -0.044973 0.300000 0.000000 0.600000
0.281913 0.012180 0.268055 0.300000 0.000000 0.600000
0.263857 0.007171 -0.180945 0.300000 0.000000 0.600000
-0.187568 0.066872 -0.166587 0.300000 0.000000 0.600000
0.067453 -0.012244 0.556513 0.300000 0.000000 0.600000
-0.267985 0.019045 0.473078 0.300000 0.000000 0.600000
-0.016240 0.186041 -0.284624 0.300000 0.000000 0.600000
0.189266 0.008939 -0.097983 0.300000 0.000000 0.600000
-0.357965 -0.201068 0.805132 0.300000 0.000000 0.600000
-0.354244 0.022276 -0.000067 0.300000 0.000000 0.600000
-0.134397 0.249365 -0.361348 0.300000 0.000000 0.600000
-0.252555 -0.229014 0.829640 0.300000 0.000000 0.600000
0.230803 -0.070387 0.668301 0.300000 0.000000 0.600000
0.007255 -0.010225 0.551031 0.300000 0.000000 0.600000
-0.300861 -0.165581 -0.337019 0.300000 0.600000 0.000000
0.181468 0.016551 -0.041573 0.300000 0.000000 0.600000
0.089537 -0.046750 0.531168 0.300000 0.000000 0.600000
0.113104 0.221109 -0.399211 0.300000 0.000000 0.600000
0.331978 -0.098470 -0.348076 0.300000 0.600000 0.000000
0.328239 -0.165990 -0.338005 0.300000 0.600000 0.000000
-0.186849 -0.077190 -0.300734 0.300000 0.600000 0.000000
0.074667 -0.014047 0.433746 0.300000 0.000000 0.600000
-0.347012 -0.100471 0.639442 0.300000 0.000000 0.600000
0.102459 -0.193475 0.910362 0.300000 0.000000 0.600000
0.352458 -0.220549 0.817380 0.300000 0.000000 0.600000
0.003899 -0.182527 -0.019027 0.000000 0.500000 0.500000
0.252872 -0.014110 0.018924 0.300000 0.000000 0.600000
0.324792 0.373936 -0.551677 0.300000 0.000000 0.600000
-0.274511 -0.170501 -0.484777 0.300000 0.600000 0.000000
-0.070060 -0.228998 0.823737 0.300000 0.000000 0.600000
0.261168 -0.229026 -0.478219 0.300000 0.600000 0.000000
0.275006 0.102838 -0.264304 0.300000 0.000000 0.600000
-0.142946 0.212271 -0.315485 0.300000 0.000000 0.600000
0.244175 0.087882 -0.249528 0.300000 0.000000 0.600000
0.025003 0.186477 -0.355897 0.300000 0.000000 0.600000
0.065913 -0.005255 -0.179923 0.300000 0.000000 0.600000
-0.338671 -0.145617 0.705547 0.300000 0.000000 0.600000
0.263350 -0.225287 -0.445083 0.300000 0.600000 0.000000
-0.150327 -0.029336 -0.190191 0.300000 0.600000 0.000000
0.285566 -0.038315 -0.203811 0.300000 0.600000 0.000000
0.354651 0.017451 0.136648 0.300000 0.000000 0.600000
0.154517 -0.051140 0.542120 0.300000 0.000000 0.600000
0.214819 -0.139998 0.763382 0.300000 0.000000 0.600000
-0.080758 -0.148047 0.843613 0.300000 0.000000 0.600000
-0.276034 0.004781 0.110402 0.300000 0.000000 0.600000
0.349263 0.005692 -0.075400 0.300000 0.000000 0.600000
0.269346 0.146682 -0.310222 0.300000 0.000000 0.600000
0.356217 0.315822 -0.500923 0.300000 0.000000 0.600000
0.237177 -0.103388 -0.049028 0.000000 0.500000 0.500000
-0.143938 -0.197988 -0.530734 0.300000 0.600000 0.000000
0.120645 -0.228614 -0.024657 0.000000 0.500000 0.500000
-0.356230 -0.084353 -0.291436 0.300000 0.600000 0.000000
-0.011235 -0.207395 0.777934 0.300000 0.000000 0.600000
-0.093950 0.352608 -0.514404 0.300000 0.000000 0.600000
-0.090306 -0.141909 0.700126 0.300000 0.000000 0.600000
0.079860 -0.093116 -0.337456 0.300000 0.600000 0.000000
0.259030 0.421026 -0.698461 0.300000 0.000000 0.600000
-0.135615 -0.141711 -0.287205 0.300000 0.600000 0.000000
0.257863 -0.120874 0.740353 0.300000 0.000000 0.600000
-0.282543 -0.220624 -0.433816 0.300000 0.600000 0.000000
-0.194528 -0.006499 0.543248 0.300000 0.000000 0.600000
0.200218 -0.228814 -0.560023 0.300000 0.600000 0.000000
0.084707 0.013184 0.241397 0.300000 0.000000 0.600000
-0.338203 0.011545 0.279435 0.300000 0.000000 0.600000
-0.079612 -0.183132 -0.073970 0.000000 0.500000 0.500000
0.345700 0.309557 -0.522197 0.300000 0.000000 0.600000
0.216100 0.301549 -0.515959 0.300000 0.000000 0.600000
0.133397 -0.222687 0.930307 0.300000 0.000000 0.600000
-0.298779 0.008647 -0.093852 0.300000 0.000000 0.600000
-0.152351 0.005911 0.335801 0.300000 0.000000 0.600000
-0.079440 0.304146 -0.520219 0.300000 0.000000 0.600000
0.267496 -0.149834 0.814172 0.300000 0.000000 0.600000
0.065103 0.015226 -0.045783 0.300000 0.000000 0.600000
-0.050933 -0.037552 0.608697 0.300000 0.000000 0.600000
0.347798 -0.126376 0.741610 0.300000 0.000000 0.600000
-0.248533 -0.025763 -0.017571 0.300000 0.000000 0.600000
-0.358113 -0.199631 0.875037 0.300000 0.000000 0.600000
-0.043652 -0.228904 -0.556552 0.300000 0.600000 0.000000
-0.071641 -0.126156 0.678378 0.300000 0.000000 0.600000
0.356588 -0.004827 -0.039036 0.300000 0.000000 0.600000
-0.119334 0.037366 0.406333 0.300000 0.000000 0.600000
-0.233611 0.043627 0.067111 0.300000 0.000000 0.600000
0.058602 -0.089766 -0.330137 0.300000 0.600000 0.000000
0.121809 0.041371 0.386056 0.300000 0.000000 0.600000
-0.137605 0.015159 -0.115968 0.300000 0.000000 0.600000
-0.178865 0.008263 -0.083073 0.300000 0.000000 0.600000
0.188269 0.056110 0.278912 0.300000 0.000000 0.600000
0.286552 -0.204259 -0.406539 0.300000 0.600000 0.000000
-0.148489 0.057947 0.219075 0.300000 0.000000 0.600000
0.200365 0.254130 -0.444075 0.300000 0.000000 0.600000
-0.309284 -0.069174 0.580171 0.300000 0.000000 0.600000
0.206868 -0.109222 -0.206893 0.300000 0.600000 0.000000
0.281242 -0.128350 -0.409083 0.300000 0.600000 0.000000
0.121146 0.075295 -0.173871 0.300000 0.000000 0.600000
-0.056336 0.384757 -0.572565 0.300000 0.000000 0.600000
0.269608 -0.189441 -0.016950 0.000000 0.500000 0.500000
0.345378 -0.180742 -0.501988 0.300000 0.600000 0.000000
0.189547 -0.091623 -0.334224 0.300000 0.600000 0.000000
0.263084 0.341886 -0.585851 0.300000 0.000000 0.600000
0.130780 0.240072 -0.349505 0.300000 0.000000 0.600000
-0.342505 0.433235 -0.696136 0.300000 0.000000 0.600000
0.244084 -0.116890 -0.100201 0.000000 0.500000 0.500000
-0.028651 0.004356 0.107314 0.300000 0.000000 0.600000
0.018148 0.003589 0.101744 0.300000 0.000000 0.600000
0.349440 0.056016 0.251308 0.300000 0.000000 0.600000
-0.009191 0.039841 0.392265 0.300000 0.000000 0.600000
0.147002 0.057178 0.184148 0.300000 0.000000 0.600000
0.247771 -0.211862 -0.418984 0.300000 0.600000 0.000000
-0.095317 -0.138793 -0.034596 0.000000 0.500000 0.500000
-0.011572 0.097854 -0.194443 0.300000 0.000000 0.600000
-0.358155 -0.038643 -0.145412 0.300000 0.000000 0.600000
-0.177716 -0.036647 -0.200659 0.300000 0.600000 0.000000
-0.167485 0.242755 -0.428281 0.300000 0.000000 0.600000
-0.358134 -0.057987 -0.128485 0.300000 0.000000 0.600000
0.113423 -0.155365 0.717641 0.300000 0.000000 0.600000
-0.112008 0.010613 0.161827 0.300000 0.000000 0.600000
0.225082 0.035904 0.028806 0.300000 0.000000 0.600000
0.168655 0.046785 0.080601 0.300000 0.000000 0.600000
-0.048861 -0.112399 -0.104095 0.000000 0.500000 0.500000
-0.057118 -0.119565 -0.392600 0.300000 0.600000 0.000000
-0.033999 0.344472 -0.500684 0.300000 0.000000 0.600000
-0.019445 -0.112737 -0.216486 0.300000 0.600000 0.000000
-0.298259 0.039333 -0.143612 0.300000 0.000000 0.600000
0.032169 -0.134311 0.756521 0.300000 0.000000 0.600000
-0.085228 -0.131668 -0.415547 0.300000 0.600000 0.000000
-0.315043 0.162258 -0.327617 0.300000 0.000000 0.600000
-0.305236 0.363304 -0.627342 0.300000 0.000000 0.600000
0.169837 -0.163675 -0.079312 0.000000 0.500000 0.500000
-0.292925 -0.002952 0.387649 0.300000 0.000000 0.600000
0.313844 0.039030 0.398103 0.300000 0.000000 0.600000
-0.269979 0.053093 -0.216890 0.300000 0.000000 0.600000
-0.183476 -0.172161 -0.022374 0.000000 0.500000 0.500000
-0.316059 -0.037459 -0.040699 0.300000 0.000000 0.600000
0.262981 0.013201 0.231450 0.300000 0.000000 0.600000
-0.327121 0.395444 -0.691635 0.300000 0.000000 0.600000
0.323882 0.437249 -0.693438 0.300000 0.000000 0.600000
-0.197136 -0.117749 -0.043317 0.000000 0.500000 0.500000
0.339146 -0.067961 0.582176 0.300000 0.000000 0.600000
0.018169 -0.029863 -0.027911 0.300000 0.000000 0.600000
0.202208 0.412791 -0.628644 0.300000 0.000000 0.600000
-0.102278 0.012646 0.259822 0.300000 0.000000 0.600000
-0.333723 -0.133402 -0.268631 0.300000 0.600000 0.000000
-0.006481 0.419693 -0.643524 0.300000 0.000000 0.600000
0.199357 -0.209485 -0.548497 0.300000 0.600000 0.000000
0.341729 -0.170802 -0.484782 0.300000 0.600000 0.000000
-0.110583 0.037639 0.037131 0.300000 0.000000 0.600000
0.191186 0.325564 -0.556404 0.300000 0.000000 0.600000
-0.348005 -0.224419 -0.018068 0.000000 0.500000 0.500000
-0.315103 0.032128 -0.198158 0.300000 0.000000 0.600000
-0.100944 0.120715 -0.282479 0.300000 0.000000 0.600000
-0.084703 -0.228904 -0.031939 0.000000 0.500000 0.500000
0.337399 -0.150480 -0.449921 0.300000 0.600000 0.000000
0.282998 0.313015 -0.534779 0.300000 0.000000 0.600000
0.092098 0.337532 -0.488403 0.300000 0.000000 0.600000
0.313507 0.359713 -0.620190 0.300000 0.000000 0.600000
-0.067155 0.050934 0.330707 0.300000 0.000000 0.600000
-0.129543 -0.085843 0.691382 0.300000 0.000000 0.600000
-0.353465 -0.221622 -0.045757 0.000000 0.500000 0.500000
0.081103 0.053199 0.306988 0.300000 0.000000 0.600000
0.279772 -0.097455 -0.346052 0.300000 0.600000 0.000000
-0.157505 -0.119408 0.738572 0.300000 0.000000 0.600000
0.263682 0.036757 -0.202193 0.300000 0.000000 0.600000
0.270119 0.046918 -0.149150 0.300000 0.000000 0.600000
-0.017566 0.124949 -0.286943 0.300000 0.000000 0.600000
0.319062 0.367659 -0.636098 0.300000 0.000000 0.600000
0.032597 0.043941 0.373214 0.300000 0.000000 0.600000
-0.300664 -0.030403 -0.028820 0.300000 0.000000 0.600000
-0.344555 0.236663 -0.419240 0.300000 0.000000 0.600000
0.255472 0.054320 0.296406 0.300000 0.000000 0.600000
0.013831 0.035236 0.023941 0.300000 0.000000 0.600000
0.229098 -0.025506 -0.187273 0.300000 0.600000 0.000000
-0.102247 0.423322 -0.651602 0.300000 0.000000 0.600000
0.203636 -0.091449 -0.147492 0.300000 0.600000 0.000000
0.219830 0.289464 -0.415227 0.300000 0.000000 0.600000
0.232772 -0.007115 0.544772 0.300000 0.000000 0.600000
-0.259399 -0.217909 -0.011491 0.000000 0.500000 0.500000
0.189750 -0.157101 0.719898 0.300000 0.000000 0.600000
-0.073948 -0.057460 0.556535 0.300000 0.000000 0.600000
0.121873 0.387245 -0.678206 0.300000 0.000000 0.600000
-0.232547 -0.202008 -0.402742 0.300000 0.600000 0.000000
0.214156 0.086020 -0.247697 0.300000 0.000000 0.600000
-0.071978 0.202355 -0.375357 0.300000 0.000000 0.600000
-0.217449 0.019997 0.469944 0.300000 0.000000 0.600000
0.023538 -0.014976 0.015601 0.300000 0.000000 0.600000
0.121024 -0.227674 0.916631 0.300000 0.000000 0.600000
-0.283558 0.304108 -0.436397 0.300000 0.000000 0.600000
0.201349 0.001971 0.360269 0.300000 0.000000 0.600000
-0.228681 -0.043525 0.621291 0.300000 0.000000 0.600000
-0.276107 -0.154484 0.866338 0.300000 0.000000 0.600000
-0.188135 0.040727 -0.144602 0.300000 0.000000 0.600000
-0.354221 -0.185614 -0.384158 0.300000 0.600000 0.000000
0.316142 -0.060857 0.563478 0.300000 0.000000 0.600000
0.219122 -0.199128 -0.397943 0.300000 0.600000 0.000000
0.174434 0.111710 -0.207755 0.300000 0.000000 0.600000
-0.184890 -0.223843 -0.440521 0.300000 0.600000 0.000000
-0.354518 -0.152681 -0.437352 0.300000 0.600000 0.000000
-0.052254 -0.119422 -0.234019 0.300000 0.600000 0.000000
-0.356748 0.347384 -0.566353 0.300000 0.000000 0.600000
-0.157924 0.272704 -0.471169 0.300000 0.000000 0.600000
0.217043 0.057967 0.223398 0.300000 0.000000 0.600000
0.083634 -0.148393 0.847517 0.300000 0.000000 0.600000
0.152630 0.245901 -0.356703 0.300000 0.000000 0.600000
0.090055 0.057982 0.231535 0.300000 0.000000 0.600000
-0.255042 0.013686 -0.050788 0.300000 0.000000 0.600000
-0.166009 0.000302 0.369799 0.300000 0.000000 0.600000
0.240464 0.392766 -0.587269 0.300000 0.000000 0.600000
-0.280504 0.008284 -0.083335 0.300000 0.000000 0.600000
0.262579 -0.153594 -0.028948 0.000000 0.500000 0.500000
0.173432 0.080264 -0.242121 0.300000 0.000000 0.600000
0.206818 -0.031128 0.490276 0.300000 0.000000 0.600000
0.083328 0.050930 0.327483 0.300000 0.000000 0.600000
-0.269538 -0.136412 -0.035785 0.000000 0.500000 0.500000
-0.280979 -0.163029 -0.331958 0.300000 0.600000 0.000000
0.185589 -0.229026 0.886565 0.300000 0.000000 0.600000
0.353462 -0.104874 -0.212980 0.300000 0.600000 0.000000
0.137661 0.437550 -0.692674 0.300000 0.000000 0.600000
-0.172670 0.424468 -0.698322 0.300000 0.000000 0.600000
-0.193532 -0.229025 -0.541997 0.300000 0.600000 0.000000
-0.330480 -0.011727 0.027456 0.300000 0.000000 0.600000
-0.024082 -0.103717 0.717764 0.300000 0.000000 0.600000
0.086981 -0.155550 -0.316783 0.300000 0.600000 0.000000
0.033623 -0.221560 0.794170 0.300000 0.000000 0.600000
-0.135268 0.435233 -0.679403 0.300000 0.000000 0.600000
-0.265526 0.052915 0.128952 0.300000 0.000000 0.600000
0.181817 -0.200655 0.770728 0.300000 0.000000 0.600000
0.239273 -0.109414 -0.371338 0.300000 0.600000 0.000000
0.112684 -0.150259 -0.450618 0.300000 0.600000 0.000000
-0.249437 -0.147544 0.837936 0.300000 0.000000 0.600000
0.061722 0.048105 0.348461 0.300000 0.000000 0.600000
-0.020832 -0.005218 0.057056 0.300000 0.000000 0.600000
0.241555 -0.064594 -0.269881 0.300000 0.600000 0.000000
-0.148660 -0.160111 -0.026522 0.000000 0.500000 0.500000
0.334849 -0.228906 0.875665 0.300000 0.000000 0.600000
-0.030319 -0.015067 0.563903 0.300000 0.000000 0.600000
-0.025633 -0.181298 -0.504252 0.300000 0.600000 0.000000
0.147417 0.008552 -0.091093 0.300000 0.000000 0.600000
0.238737 -0.094375 -0.128155 0.300000 0.600000 0.000000
0.153872 0.064417 -0.164142 0.300000 0.000000 0.600000
0.027698 -0.226116 0.923769 0.300000 0.000000 0.600000
-0.068270 0.149513 -0.313337 0.300000 0.000000 0.600000
0.340533 -0.047507 0.536741 0.300000 0.000000 0.600000
-0.077881 -0.040768 -0.043799 0.300000 0.000000 0.600000
0.191895 0.029729 0.437309 0.300000 0.000000 0.600000
0.071799 -0.046407 -0.048948 0.300000 0.000000 0.600000
-0.035175 -0.204068 -0.406192 0.300000 0.600000 0.000000
-0.325111 -0.210358 -0.549640 0.300000 0.600000 0.000000
0.112474 0.053250 0.135160 0.300000 0.000000 0.600000
-0.148126 0.183946 -0.282322 0.300000 0.000000 0.600000
-0.312355 0.258949 -0.373199 0.300000 0.000000 0.600000
0.031664 -0.123055 -0.243242 0.300000 0.600000 0.000000
0.179326 -0.107260 0.722710 0.300000 0.000000 0.600000
0.014420 0.009222 0.503213 0.300000 0.000000 0.600000
0.022398 -0.107731 0.649417 0.300000 0.000000 0.600000
0.237780 -0.095162 -0.341103 0.300000 0.600000 0.000000
-0.228358 -0.122083 -0.397151 0.300000 0.600000 0.000000
-0.087958 -0.200194 -0.013811 0.000000 0.500000 0.500000
0.258740 0.226380 -0.331761 0.300000 0.000000 0.600000
0.046631 0.257006 -0.371138 0.300000 0.000000 0.600000
-0.238057 -0.027477 0.479620 0.300000 0.000000 0.600000
0.278535 0.319863 -0.460430 0.300000 0.000000 0.600000
-0.353630 -0.218254 0.924931 0.300000 0.000000 0.600000
0.113547 0.344389 -0.499860 0.300000 0.000000 0.600000
-0.131672 0.018884 -0.186861 0.300000 0.000000 0.600000
-0.149379 -0.071250 -0.286726 0.300000 0.600000 0.000000
0.136734 -0.001339 0.074745 0.300000 0.000000 0.600000
-0.043987 -0.222414 -0.437544 0.300000 0.600000 0.000000
0.020373 -0.007798 0.045027 0.300000 0.000000 0.600000
-0.180955 0.381213 -0.664861 0.300000 0.000000 0.600000
-0.265157 0.353185 -0.607261 0.300000 0.000000 0.600000
0.254295 0.003603 0.350876 0.300000 0.000000 0.600000
0.140571 0.363674 -0.628078 0.300000 0.000000 0.600000
0.299116 0.006592 0.330738 0.300000 0.000000 0.600000
-0.235998 -0.134618 -0.270970 0.300000 0.600000 0.000000
0.055803 -0.227827 0.915385 0.300000 0.000000 0.600000
-0.090735 -0.143031 0.768226 0.300000 0.000000 0.600000
-0.025521 -0.070264 0.582353 0.300000 0.000000 0.600000
0.150367 -0.229026 0.851056 0.300000 0.000000 0.600000
0.045332 -0.093679 0.626800 0.300000 0.000000 0.600000
-0.113524 -0.016225 -0.182486 0.300000 0.000000 0.600000
-0.055968 0.012971 0.212240 0.300000 0.000000 0.600000
0.117175 0.318020 -0.543252 0.300000 0.000000 0.600000
0.264019 0.157226 -0.253403 0.300000 0.000000 0.600000
-0.019512 0.404680 -0.611913 0.300000 0.000000 0.600000
-0.049594 0.055097 0.149007 0.300000 0.000000 0.600000
-0.088133 -0.213812 -0.422104 0.300000 0.600000 0.000000
0.028948 0.304386 -0.520613 0.300000 0.000000 0.600000
0.220871 -0.109268 -0.371039 0.300000 0.600000 0.000000
-0.258085 0.012143 0.268634 0.300000 0.000000 0.600000
0.355511 -0.040930 -0.190521 0.300000 0.600000 0.000000
-0.174503 -0.150790 0.798271 0.300000 0.000000 0.600000
-0.002972 -0.101635 -0.184815 0.300000 0.600000 0.000000
0.333978 0.003634 0.100353 0.300000 0.000000 0.600000
-0.163625 -0.108048 0.649924 0.300000 0.000000 0.600000
-0.000012 -0.137536 -0.426902 0.300000 0.600000 0.000000
0.277065 -0.228900 -0.031609 0.000000 0.500000 0.500000
0.004648 0.295957 -0.425084 0.300000 0.000000 0.600000
0.300831 0.134172 -0.296773 0.300000 0.000000 0.600000
0.186488 0.360590 -0.527497 0.300000 0.000000 0.600000
-0.273938 0.034009 -0.199791 0.300000 0.000000 0.600000
-0.258090 0.177167 -0.344950 0.300000 0.000000 0.600000
0.263846 0.007950 0.319598 0.300000 0.000000 0.600000
-0.261748 -0.151995 -0.309371 0.300000 0.600000 0.000000
0.041037 -0.143920 -0.439097 0.300000 0.600000 0.000000
-0.318528 -0.118520 -0.231679 0.300000 0.600000 0.000000
0.290593 0.111295 -0.207174 0.300000 0.000000 0.600000
0.061050 -0.194393 -0.389811 0.300000 0.600000 0.000000
0.140244 -0.019495 0.572842 0.300000 0.000000 0.600000
-0.213479 0.266610 -0.462062 0.300000 0.000000 0.600000
-0.097832 -0.089323 -0.328919 0.300000 0.600000 0.000000
0.140975 -0.150555 0.711387 0.300000 0.000000 0.600000
-0.271652 0.012475 0.191053 0.300000 0.000000 0.600000
0.165603 -0.145532 -0.442041 0.300000 0.600000 0.000000
-0.085519 0.267341 -0.463154 0.300000 0.000000 0.600000
0.339605 -0.227821 -0.460640 0.300000 0.600000 0.000000
-0.025935 -0.220335 -0.065521 0.000000 0.500000 0.500000
0.304774 0.268097 -0.385565 0.300000 0.000000 0.600000
-0.334713 0.058231 -0.221397 0.300000 0.000000 0.600000
-0.043484 0.137930 -0.300803 0.300000 0.000000 0.600000
0.040052 -0.025421 0.473189 0.300000 0.000000 0.600000
-0.132209 0.329451 -0.475895 0.300000 0.000000 0.600000
0.033868 0.009221 -0.181645 0.300000 0.000000 0.600000
-0.021078 0.221358 -0.326500 0.300000 0.000000 0.600000
0.221786 -0.194941 -0.525539 0.300000 0.600000 0.000000
0.231722 -0.227713 0.916314 0.300000 0.000000 0.600000
-0.162354 -0.102416 -0.115012 0.300000 0.600000 0.000000
-0.270627 0.007181 0.325908 0.300000 0.000000 0.600000
-0.050176 0.072433 -0.234672 0.300000 0.000000 0.600000
-0.313508 -0.106521 0.647478 0.300000 0.000000 0.600000
0.019595 -0.154387 -0.458027 0.300000 0.600000 0.000000
-0.332588 0.049298 0.341563 0.300000 0.000000 0.600000
0.126692 0.301896 -0.433129 0.300000 0.000000 0.600000
0.305881 -0.209273 0.925412 0.300000 0.000000 0.600000
0.156950 0.189994 -0.360129 0.300000 0.000000 0.600000
0.016925 0.174642 -0.272156 0.300000 0.000000 0.600000
0.356444 0.028291 0.092250 0.300000 0.000000 0.600000
-0.357854 -0.090948 0.665264 0.300000 0.000000 0.600000
0.304183 0.021552 -0.189112 0.300000 0.000000 0.600000
-0.137891 -0.228706 0.908193 0.300000 0.000000 0.600000
0.304942 -0.150099 -0.084118 0.000000 0.500000 0.500000
-0.060588 -0.192966 0.762506 0.300000 0.000000 0.600000
0.305014 -0.021439 -0.005389 0.300000 0.000000 0.600000
0.014642 -0.094583 -0.127393 0.300000 0.600000 0.000000
0.329106 0.192805 -0.363355 0.300000 0.000000 0.600000
-0.064360 -0.213459 0.784458 0.300000 0.000000 0.600000
-0.332191 0.013648 0.490172 0.300000 0.000000 0.600000
0.337424 0.049175 0.341234 0.300000 0.000000 0.600000
-0.134572 0.053364 0.306415 0.300000 0.000000 0.600000
0.356456 0.175376 -0.305353 0.300000 0.000000 0.600000
-0.158059 0.010836 0.164369 0.300000 0.000000 0.600000
0.208813 -0.031401 -0.030489 0.300000 0.000000 0.600000
-0.100307 -0.007804 0.545612 0.300000 0.000000 0.600000
0.281384 -0.227843 -0.568169 0.300000 0.600000 0.000000
-0.131730 -0.091862 -0.138796 0.300000 0.600000 0.000000
-0.179391 0.057972 0.243381 0.300000 0.000000 0.600000
-0.002605 0.032466 0.426966 0.300000 0.000000 0.600000
0.239000 -0.172951 -0.489236 0.300000 0.600000 0.000000
0.254987 0.008370 -0.085807 0.300000 0.000000 0.600000
0.314979 -0.229026 0.903829 0.300000 0.000000 0.600000
-0.041457 -0.202041 -0.013366 0.000000 0.500000 0.500000
-0.090745 0.375060 -0.554077 0.300000 0.000000 0.600000
0.164539 0.257223 -0.448445 0.300000 0.000000 0.600000
-0.054623 -0.058606 0.648951 0.300000 0.000000 0.600000
-0.234189 -0.228891 -0.047860 0.000000 0.500000 0.500000
-0.328133 0.013768 -0.114024 0.300000 0.000000 0.600000
0.320429 -0.031509 0.491552 0.300000 0.000000 0.600000
-0.290245 0.427384 -0.660932 0.300000 0.000000 0.600000
-0.116027 0.043301 0.375118 0.300000 0.000000 0.600000
-0.341524 0.024048 0.455403 0.300000 0.000000 0.600000
