ply
format ascii 1.0
element vertex 1268
property float x
property float y
property float z
property uchar red
property uchar green
property uchar blue
end_header
-0.142058 0.030985 -0.194011 76 0 153
-0.056606 -0.069214 -0.276875 76 153 0
0.050153 0.012352 0.154726 76 0 153
-0.196414 0.282014 -0.408633 76 0 153
-0.314451 -0.128388 -0.262398 76 153 0
-0.131595 -0.028326 -0.033381 76 0 153
0.292560 0.329690 -0.559085 76 0 153
-0.343864 0.049633 0.322879 76 0 153
0.264431 -0.008484 0.030927 76 0 153
0.065575 -0.217585 0.930847 76 0 153
0.258184 -0.063403 0.653387 76 0 153
-0.065593 -0.132406 -0.412797 76 153 0
0.191270 -0.224701 -0.063853 0 127 127
0.177073 -0.080815 0.608540 76 0 153
-0.087991 -0.133144 -0.088396 0 127 127
-0.283432 0.055639 0.215134 76 0 153
-0.167405 -0.032770 0.596577 76 0 153
0.345592 -0.023696 0.477060 76 0 153
-0.000921 -0.226737 -0.048420 0 127 127
-0.220527 -0.174172 -0.023974 0 127 127
-0.120015 -0.162595 -0.468003 76 153 0
0.209898 0.152065 -0.251130 76 0 153
-0.118811 -0.226737 -0.462838 76 153 0
-0.131415 -0.077703 -0.297170 76 153 0
-0.037281 0.423525 -0.696430 76 0 153
0.210644 -0.111728 0.660060 76 0 153
0.300528 0.219062 -0.392818 76 0 153
0.039850 -0.048966 -0.225330 76 153 0
0.315477 0.014663 0.179996 76 0 153
0.214681 0.071720 -0.173702 76 0 153
0.294443 0.295808 -0.502191 76 0 153
-0.101278 0.397376 -0.601637 76 0 153
-0.041481 -0.110849 0.658656 76 0 153
-0.137188 0.415823 -0.639958 76 0 153
0.075622 -0.150747 -0.032201 0 127 127
-0.018430 -0.226737 -0.546152 76 153 0
0.235427 0.009571 -0.056453 76 0 153
-0.009055 -0.030872 0.496030 76 0 153
0.016682 -0.105622 -0.102205 0 127 127
0.046361 0.226112 -0.334801 76 0 153
-0.187036 -0.042465 0.614558 76 0 153
0.100493 0.130838 -0.289841 76 0 153
0.094817 -0.144062 0.706644 76 0 153
0.187895 -0.054084 0.636106 76 0 153
0.112217 0.391666 -0.589777 76 0 153
-0.049014 -0.226737 -0.521817 76 153 0
-0.202198 0.008303 0.337344 76 0 153
0.354324 0.019807 -0.175248 76 0 153
-0.155167 0.055805 0.249878 76 0 153
-0.230321 0.285010 -0.412839 76 0 153
-0.172914 0.055732 0.234584 76 0 153
-0.306873 0.016114 -0.181528 76 0 153
-0.147270 0.050949 0.130678 76 0 153
-0.355866 0.013863 -0.014557 76 0 153
0.126935 0.323225 -0.547423 76 0 153
0.291650 0.406668 -0.696430 76 0 153
0.301215 -0.056999 0.560835 76 0 153
0.319691 -0.067045 0.659537 76 0 153
0.056883 -0.004203 0.532010 76 0 153
0.116202 0.055601 0.207087 76 0 153
-0.003280 -0.133042 0.692317 76 0 153
0.079133 0.008194 0.118682 76 0 153
-0.177190 0.047409 0.096973 76 0 153
-0.120439 0.158727 -0.258329 76 0 153
0.195712 -0.139671 -0.085547 0 127 127
0.321586 0.022020 -0.186485 76 0 153
0.291603 -0.117678 -0.236008 76 153 0
0.152894 -0.020684 0.466194 76 0 153
-0.343299 0.424735 -0.660525 76 0 153
-0.355866 -0.169171 0.765786 76 0 153
-0.143541 0.055600 -0.159389 76 0 153
0.354324 -0.184871 -0.436489 76 153 0
0.354324 0.423389 -0.694067 76 0 153
0.065456 -0.196248 0.769367 76 0 153
-0.138024 0.013554 0.281979 76 0 153
-0.228868 -0.020439 0.465311 76 0 153
0.060527 -0.103974 -0.198852 76 153 0
0.040783 -0.101659 0.710749 76 0 153
0.354324 -0.048356 0.576616 76 0 153
0.239785 0.119745 -0.277942 76 0 153
0.169972 0.062627 -0.165417 76 0 153
-0.008326 0.210986 -0.382603 76 0 153
0.331709 0.047387 -0.208595 76 0 153
-0.151070 0.170893 -0.271475 76 0 153
0.235165 0.032883 0.023287 76 0 153
-0.017983 0.258368 -0.376117 76 0 153
-0.081029 -0.000831 0.389280 76 0 153
-0.067819 -0.049252 -0.226077 76 153 0
0.111007 0.054195 -0.214800 76 0 153
-0.054052 0.003411 -0.092471 76 0 153
0.354324 -0.210825 0.921681 76 0 153
-0.135023 0.387624 -0.673585 76 0 153
-0.268403 -0.211433 -0.012900 0 127 127
-0.286165 -0.187000 -0.019886 0 127 127
0.216612 0.015025 0.263108 76 0 153
-0.084560 -0.025172 0.481190 76 0 153
0.015590 0.329556 -0.558844 76 0 153
-0.255809 0.013164 0.161767 76 0 153
0.282141 -0.101943 -0.193010 76 153 0
0.010393 -0.185377 -0.506762 76 153 0
0.170487 0.239962 -0.352476 76 0 153
-0.217203 0.316694 -0.459716 76 0 153
0.337293 0.296703 -0.429254 76 0 153
-0.338641 -0.020002 0.463735 76 0 153
-0.355866 0.004532 -0.137223 76 0 153
-0.005416 0.285881 -0.486841 76 0 153
0.338500 0.032882 0.417444 76 0 153
0.185742 -0.087704 -0.059758 0 127 127
-0.295660 -0.077337 -0.296323 76 153 0
0.229124 -0.062678 0.572210 76 0 153
0.106419 -0.086826 0.688802 76 0 153
0.285018 -0.142363 -0.084488 0 127 127
-0.027401 -0.126628 -0.041761 0 127 127
0.033637 0.055722 0.232512 76 0 153
0.262513 -0.094209 -0.169703 76 153 0
-0.158953 0.344645 -0.504723 76 0 153
-0.126611 0.043436 0.363989 76 0 153
0.125355 -0.016547 -0.169753 76 0 153
-0.180733 -0.109724 -0.367542 76 153 0
-0.047671 -0.007953 0.541013 76 0 153
-0.195064 0.043673 0.362790 76 0 153
0.253653 0.304238 -0.440554 76 0 153
-0.155777 0.349790 -0.595423 76 0 153
-0.298177 0.024267 -0.133008 76 0 153
-0.294781 0.081014 -0.239492 76 0 153
0.059137 0.064872 -0.224530 76 0 153
-0.187713 -0.220413 -0.010647 0 127 127
0.195203 -0.013848 0.441533 76 0 153
0.340057 0.384840 -0.667430 76 0 153
-0.026020 -0.076999 0.600896 76 0 153
-0.156995 -0.012984 0.013762 76 0 153
0.325012 0.045934 0.351341 76 0 153
0.270571 -0.226737 -0.551716 76 153 0
-0.046042 -0.068849 -0.062268 0 127 127
-0.342197 0.052955 0.149780 76 0 153
-0.265023 -0.164357 -0.076533 0 127 127
0.246911 0.368758 -0.546697 76 0 153
0.172567 0.404322 -0.616067 76 0 153
-0.108595 -0.226737 -0.024208 0 127 127
-0.011714 0.015226 -0.122919 76 0 153
0.102220 -0.195752 0.768836 76 0 153
0.260649 -0.137126 0.756410 76 0 153
-0.355866 0.034581 0.170205 76 0 153
-0.237265 -0.089247 -0.150317 76 153 0
-0.013947 -0.124179 0.740858 76 0 153
0.346222 0.015497 0.224998 76 0 153
-0.355866 -0.067624 -0.115587 76 0 153
-0.194103 0.055377 0.262650 76 0 153
0.290725 -0.170595 0.741140 76 0 153
-0.290631 -0.226737 -0.512581 76 153 0
0.338529 0.053434 0.283014 76 0 153
0.147870 0.051906 0.139793 76 0 153
0.244124 0.352064 -0.517275 76 0 153
0.152397 -0.226737 0.873133 76 0 153
0.101784 0.095841 -0.254152 76 0 153
-0.355866 -0.014794 0.449560 76 0 153
-0.281566 -0.083996 -0.311710 76 153 0
0.039266 -0.048995 0.543214 76 0 153
-0.208274 0.250946 -0.435690 76 0 153
-0.037799 0.171642 -0.272284 76 0 153
-0.035035 -0.226737 -0.546466 76 153 0
-0.318482 0.385359 -0.668578 76 0 153
-0.190984 0.035929 0.402009 76 0 153
0.132054 0.008697 -0.111700 76 0 153
0.314544 0.010498 0.321189 76 0 153
-0.152827 0.154458 -0.253715 76 0 153
-0.355866 -0.100357 0.690217 76 0 153
-0.325419 -0.193633 -0.068839 0 127 127
0.201283 -0.211189 -0.422312 76 153 0
-0.110489 0.322284 -0.545726 76 0 153
0.325553 -0.130711 -0.267806 76 153 0
-0.109445 0.197089 -0.300629 76 0 153
-0.181671 0.009172 0.127160 76 0 153
0.312310 0.053822 0.278948 76 0 153
-0.065536 -0.120655 -0.243417 76 153 0
-0.179786 0.332249 -0.483749 76 0 153
-0.044497 -0.208264 0.921686 76 0 153
0.112105 -0.066601 0.658880 76 0 153
0.003926 -0.226737 0.832966 76 0 153
0.118222 -0.226737 -0.454065 76 153 0
-0.035635 0.030858 -0.193904 76 0 153
0.003235 0.246294 -0.429285 76 0 153
-0.164915 0.207616 -0.313024 76 0 153
0.326788 0.009397 0.129111 76 0 153
0.130121 -0.203786 -0.410187 76 153 0
-0.352574 0.010744 -0.177020 76 0 153
0.354324 0.012317 0.141623 76 0 153
-0.226134 0.205813 -0.376060 76 0 153
0.114145 0.014000 0.276253 76 0 153
0.218061 -0.224737 -0.568452 76 153 0
-0.336607 0.319125 -0.463456 76 0 153
-0.355866 -0.183927 -0.403147 76 153 0
0.203740 -0.137757 -0.037211 0 127 127
-0.122845 -0.148324 -0.082142 0 127 127
-0.040910 0.342727 -0.582601 76 0 153
-0.267948 0.052109 0.141720 76 0 153
-0.111624 0.353850 -0.603505 76 0 153
0.254639 -0.059350 -0.252490 76 153 0
0.082528 -0.123015 0.678090 76 0 153
0.040563 0.048067 -0.153091 76 0 153
0.277987 0.002444 0.516052 76 0 153
0.181534 -0.035652 0.508475 76 0 153
0.063566 -0.226737 0.857856 76 0 153
0.010374 0.003708 -0.094322 76 0 153
0.073481 -0.049536 -0.226820 76 153 0
0.300392 -0.026329 0.484202 76 0 153
-0.289984 0.005561 -0.067432 76 0 153
0.003438 -0.049404 0.627425 76 0 153
-0.134980 0.160647 -0.322205 76 0 153
-0.280663 0.004812 0.357193 76 0 153
0.278130 -0.209953 -0.545966 76 153 0
-0.218138 -0.156870 0.780127 76 0 153
-0.328449 0.172863 -0.336426 76 0 153
0.018740 -0.024069 0.579707 76 0 153
-0.094521 -0.007257 0.539342 76 0 153
-0.222381 0.038214 0.390436 76 0 153
0.090332 0.054107 -0.158141 76 0 153
0.353396 0.433175 -0.680155 76 0 153
-0.334892 -0.140668 -0.428362 76 153 0
0.010099 0.048230 0.104786 76 0 153
-0.051510 -0.038107 -0.047637 76 0 153
0.354324 -0.150046 -0.390255 76 153 0
-0.049861 0.131260 -0.230087 76 0 153
-0.355866 -0.084349 -0.292354 76 153 0
0.048579 -0.082939 0.683052 76 0 153
-0.317507 0.015447 0.222290 76 0 153
-0.120941 0.191285 -0.357873 76 0 153
0.110013 -0.222684 -0.064100 0 127 127
0.226343 0.177600 -0.341941 76 0 153
-0.195946 -0.008468 0.542251 76 0 153
0.183328 -0.169571 -0.480282 76 153 0
0.252208 0.024534 0.447375 76 0 153
0.148330 -0.043517 0.616509 76 0 153
-0.353995 0.011685 0.148945 76 0 153
-0.288730 -0.167256 -0.345229 76 153 0
-0.088699 -0.226737 -0.022990 0 127 127
0.097475 0.004262 -0.072753 76 0 153
0.354324 -0.093133 -0.290312 76 153 0
0.337979 0.012709 -0.119233 76 0 153
-0.271638 -0.037279 0.604940 76 0 153
0.354324 -0.166574 -0.378591 76 153 0
0.196893 -0.148634 -0.443117 76 153 0
0.213507 0.006073 0.100294 76 0 153
-0.140194 0.389651 -0.585753 76 0 153
0.308268 -0.069002 -0.062281 76 0 153
0.245384 -0.007228 0.417650 76 0 153
-0.346360 0.231741 -0.341917 76 0 153
-0.355866 -0.092989 0.665517 76 0 153
0.273529 0.334453 -0.487479 76 0 153
0.040676 0.367691 -0.631060 76 0 153
0.238774 -0.150879 0.854779 76 0 153
0.239115 -0.115131 0.729989 76 0 153
-0.321333 -0.126524 0.683695 76 0 153
-0.171939 0.116980 -0.215917 76 0 153
0.332895 0.176243 -0.340362 76 0 153
0.143606 -0.149281 0.848391 76 0 153
0.348361 -0.041761 0.524381 76 0 153
-0.209830 0.021444 -0.130371 76 0 153
-0.070356 -0.226737 -0.564999 76 153 0
0.118395 -0.194355 -0.017674 0 127 127
0.312398 -0.155441 0.721439 76 0 153
0.337178 -0.141235 -0.291727 76 153 0
-0.121932 -0.015649 0.559491 76 0 153
0.014538 0.256864 -0.374185 76 0 153
0.099039 0.055382 0.172888 76 0 153
0.354324 -0.018345 -0.051458 76 0 153
0.218066 0.201324 -0.370382 76 0 153
-0.007478 -0.042367 0.525957 76 0 153
0.340279 0.395388 -0.597508 76 0 153
0.163740 -0.226737 -0.057695 0 127 127
0.020020 0.014272 0.272765 76 0 153
-0.301048 0.066326 -0.168787 76 0 153
-0.226632 -0.149809 0.821541 76 0 153
-0.249503 -0.226737 0.817789 76 0 153
-0.122964 -0.164868 0.733694 76 0 153
0.248689 -0.088976 -0.147510 76 153 0
-0.342871 -0.218240 -0.558570 76 153 0
0.354324 0.258950 -0.422740 76 0 153
0.052484 0.136778 -0.235563 76 0 153
0.032460 -0.136056 0.755125 76 0 153
0.215131 0.390117 -0.679096 76 0 153
-0.355866 -0.070283 -0.147480 76 153 0
-0.192353 -0.109391 0.722187 76 0 153
-0.168135 -0.010674 0.547545 76 0 153
0.140086 -0.024686 0.479925 76 0 153
-0.355866 0.102977 -0.221466 76 0 153
-0.275345 -0.199512 -0.403187 76 153 0
-0.253675 -0.014875 0.445236 76 0 153
0.053801 0.055696 0.226963 76 0 153
-0.211334 -0.206783 -0.014179 0 127 127
0.354324 -0.219107 -0.026001 0 127 127
-0.117135 0.053835 0.158155 76 0 153
-0.278623 0.380513 -0.657865 76 0 153
-0.261978 -0.127174 -0.402584 76 153 0
-0.258523 -0.146397 -0.302997 76 153 0
0.218866 0.014803 0.187502 76 0 153
-0.299211 0.316596 -0.459566 76 0 153
0.157383 0.032629 0.022062 76 0 153
0.059295 0.015442 0.221995 76 0 153
-0.296739 -0.188865 0.902622 76 0 153
0.350055 0.406712 -0.621032 76 0 153
-0.046870 -0.198628 -0.401739 76 153 0
0.256278 -0.102890 -0.353437 76 153 0
0.081192 0.319564 -0.541210 76 0 153
-0.139079 -0.085126 0.617176 76 0 153
-0.301622 0.400544 -0.696430 76 0 153
-0.125215 -0.179169 -0.496366 76 153 0
-0.335951 -0.132149 -0.412296 76 153 0
-0.293395 -0.226737 0.921203 76 0 153
0.293013 -0.173243 -0.024278 0 127 127
-0.101706 0.110075 -0.268226 76 0 153
0.323948 0.014166 -0.041825 76 0 153
-0.166429 0.049939 -0.154655 76 0 153
0.107471 -0.226737 0.820953 76 0 153
0.095970 0.258504 -0.376292 76 0 153
0.244957 0.353408 -0.602624 76 0 153
-0.151596 -0.046212 0.621507 76 0 153
0.040470 -0.006905 0.416486 76 0 153
-0.232800 -0.226737 -0.470688 76 153 0
0.217381 -0.139305 -0.085691 0 127 127
0.068751 -0.182221 0.896092 76 0 153
0.082032 0.055754 0.258692 76 0 153
-0.088269 -0.105783 0.716849 76 0 153
-0.155664 0.007953 0.116596 76 0 153
0.056578 -0.214003 -0.552126 76 153 0
0.209807 0.221956 -0.396478 76 0 153
0.061733 0.371098 -0.551072 76 0 153
-0.266035 -0.189731 0.903473 76 0 153
0.354324 0.041158 -0.184133 76 0 153
-0.139101 0.032384 0.020878 76 0 153
0.146042 0.150995 -0.311462 76 0 153
-0.279096 0.350532 -0.596899 76 0 153
-0.270682 -0.157996 -0.327068 76 153 0
0.107110 -0.115554 -0.230492 76 153 0
-0.326866 -0.188386 0.760960 76 0 153
0.326187 -0.024799 -0.023445 76 0 153
0.354324 -0.156770 0.858277 76 0 153
0.345810 -0.102231 -0.193839 76 153 0
0.167978 -0.201445 -0.532607 76 153 0
0.196820 -0.165005 0.733873 76 0 153
0.152192 -0.186434 -0.380680 76 153 0
0.268873 -0.226737 -0.043021 0 127 127
-0.047974 -0.138100 0.698893 76 0 153
0.069635 -0.079103 -0.300403 76 153 0
0.310854 -0.002121 0.527013 76 0 153
-0.129895 -0.049375 -0.226400 76 153 0
-0.010659 -0.185985 0.758393 76 0 153
0.291602 -0.111096 -0.099204 0 127 127
-0.055582 -0.014305 0.556264 76 0 153
-0.031443 0.394906 -0.689683 76 0 153
0.179244 0.034977 0.406830 76 0 153
0.181439 0.051535 0.136262 76 0 153
0.209070 -0.106358 -0.205709 76 153 0
0.070160 -0.166865 0.736291 76 0 153
-0.185445 -0.009443 0.425641 76 0 153
0.275143 0.276410 -0.472621 76 0 153
0.266149 -0.190118 -0.387047 76 153 0
0.298613 0.084976 -0.185781 76 0 153
0.287345 0.019579 0.463692 76 0 153
0.229164 0.019801 -0.128573 76 0 153
-0.095634 -0.019355 0.568388 76 0 153
-0.194342 0.139068 -0.237835 76 0 153
0.301276 0.022466 -0.015403 76 0 153
-0.297563 0.045466 0.083958 76 0 153
0.235263 -0.084843 -0.313666 76 153 0
-0.296444 -0.146556 -0.082838 0 127 127
-0.031528 0.424771 -0.660611 76 0 153
0.151624 -0.170624 -0.482057 76 153 0
-0.339636 -0.026397 0.584759 76 0 153
0.072958 0.092088 -0.192261 76 0 153
0.115546 -0.194537 -0.521588 76 153 0
0.227167 -0.091506 -0.057875 0 127 127
-0.336998 -0.091666 -0.057796 0 127 127
-0.005753 -0.016005 0.449315 76 0 153
0.263241 0.256859 -0.374178 76 0 153
-0.081978 -0.115585 -0.046565 0 127 127
-0.010478 0.049852 0.320578 76 0 153
-0.353157 0.060481 -0.163470 76 0 153
0.354324 -0.137164 -0.419260 76 153 0
0.290386 0.015262 0.260071 76 0 153
-0.095735 0.376993 -0.650083 76 0 153
0.139418 -0.154539 -0.079871 0 127 127
-0.022329 0.277902 -0.402861 76 0 153
0.337942 0.025847 -0.004639 76 0 153
0.143377 0.423888 -0.658556 76 0 153
0.321504 0.031190 0.015124 76 0 153
-0.034330 0.027811 0.001615 76 0 153
0.293657 -0.226737 -0.529845 76 153 0
-0.085215 0.102711 -0.260944 76 0 153
-0.221418 0.238336 -0.350387 76 0 153
0.149929 -0.226737 -0.503396 76 153 0
-0.300000 -0.130974 0.749020 76 0 153
0.126770 -0.021616 0.573817 76 0 153
-0.020187 -0.093983 -0.168999 76 153 0
-0.280473 -0.176113 -0.491248 76 153 0
-0.038270 0.214113 -0.386559 76 0 153
0.085209 -0.019219 -0.005873 76 0 153
-0.153123 0.011702 -0.177824 76 0 153
-0.333281 0.015180 0.207888 76 0 153
-0.161341 0.053602 0.281256 76 0 153
0.231661 0.085839 -0.186567 76 0 153
0.172637 -0.011154 0.548699 76 0 153
-0.343388 -0.046902 0.537766 76 0 153
0.248884 -0.226737 0.804782 76 0 153
0.169083 0.419380 -0.648071 76 0 153
-0.280139 0.015325 0.215673 76 0 153
-0.205647 0.128762 -0.287614 76 0 153
0.018995 0.002434 -0.171390 76 0 153
-0.112126 -0.006873 0.416369 76 0 153
0.276861 0.350461 -0.514563 76 0 153
0.107322 0.029299 0.006349 76 0 153
-0.096648 0.044354 -0.149986 76 0 153
-0.306756 -0.083751 -0.311143 76 153 0
-0.324888 -0.162492 0.876132 76 0 153
0.094012 0.142099 -0.301919 76 0 153
0.332870 -0.151482 0.716291 76 0 153
0.095086 0.010635 0.493148 76 0 153
0.227712 0.064949 -0.167532 76 0 153
-0.265187 -0.065495 0.657245 76 0 153
0.213748 -0.047265 -0.220814 76 153 0
-0.327399 -0.101319 -0.350012 76 153 0
0.038065 -0.063026 0.652689 76 0 153
-0.105403 -0.187353 -0.510073 76 153 0
-0.064603 0.019931 -0.023472 76 0 153
0.150720 -0.001534 0.525602 76 0 153
0.155404 0.252411 -0.368466 76 0 153
-0.036419 0.033166 0.416002 76 0 153
-0.070579 0.148251 -0.247008 76 0 153
0.087511 -0.009312 0.425169 76 0 153
0.146556 0.002155 0.372303 76 0 153
0.151775 0.106293 -0.264487 76 0 153
0.354324 0.382522 -0.617209 76 0 153
0.250809 -0.187832 -0.383096 76 153 0
-0.314980 -0.123998 -0.092599 0 127 127
0.242465 0.267736 -0.459598 76 0 153
0.032851 0.002247 0.080987 76 0 153
-0.102322 0.053185 0.151973 76 0 153
0.234861 0.157917 -0.257453 76 0 153
0.006083 -0.213934 -0.552021 76 153 0
0.273820 -0.058091 -0.249194 76 153 0
0.354324 -0.208130 -0.506601 76 153 0
0.029142 0.037199 0.044095 76 0 153
-0.293605 0.295170 -0.501144 76 0 153
0.122640 0.365083 -0.539827 76 0 153
-0.275474 -0.155715 0.778740 76 0 153
-0.229577 0.360804 -0.532063 76 0 153
-0.057102 -0.090125 -0.325610 76 153 0
-0.086925 0.423446 -0.657527 76 0 153
-0.281678 0.112472 -0.270596 76 0 153
-0.162911 -0.084795 -0.313555 76 153 0
0.262258 0.004522 0.358846 76 0 153
-0.117956 0.053802 0.279160 76 0 153
-0.138784 0.397761 -0.602438 76 0 153
0.309654 -0.017713 -0.170125 76 0 153
-0.196754 0.247640 -0.362337 76 0 153
0.104731 -0.002159 0.060434 76 0 153
-0.355866 0.004101 0.500839 76 0 153
0.077838 -0.148015 0.837201 76 0 153
0.354324 0.010378 0.428177 76 0 153
0.321396 -0.196661 -0.524976 76 153 0
-0.035053 -0.012790 0.014372 76 0 153
0.066298 -0.066235 0.579335 76 0 153
0.108251 0.024492 0.447514 76 0 153
-0.255557 0.015587 0.229818 76 0 153
0.246450 0.170056 -0.333159 76 0 153
0.247263 0.055708 0.229455 76 0 153
0.250407 0.015552 0.227938 76 0 153
0.340789 -0.182323 -0.021307 0 127 127
-0.168890 0.013827 0.167519 76 0 153
-0.325767 0.011796 0.304534 76 0 153
0.009449 -0.084632 -0.313178 76 153 0
0.209499 0.240234 -0.420945 76 0 153
0.168275 0.254490 -0.440568 76 0 153
-0.171514 0.215307 -0.388068 76 0 153
-0.249747 0.142842 -0.302716 76 0 153
-0.120106 0.425288 -0.696430 76 0 153
0.328337 -0.226737 -0.048887 0 127 127
0.248363 0.050946 0.309111 76 0 153
-0.152601 0.127721 -0.286498 76 0 153
-0.355866 0.027271 0.057122 76 0 153
-0.310100 0.009386 0.129017 76 0 153
0.106712 0.035660 -0.142717 76 0 153
-0.298045 -0.080455 0.607819 76 0 153
-0.355866 -0.003828 -0.037977 76 0 153
0.113806 -0.121347 -0.044047 0 127 127
0.141544 -0.091360 -0.125818 76 153 0
-0.203348 -0.038300 0.515369 76 0 153
-0.188594 0.400639 -0.608416 76 0 153
-0.265056 0.260389 -0.378712 76 0 153
-0.277565 -0.202164 -0.533754 76 153 0
0.290487 -0.208904 -0.418569 76 153 0
0.150961 0.219733 -0.327290 76 0 153
-0.342300 0.139206 -0.298816 76 0 153
0.108747 0.036355 0.040027 76 0 153
-0.124762 -0.009172 0.027717 76 0 153
0.097055 0.332222 -0.563652 76 0 153
0.193729 0.257376 -0.374842 76 0 153
0.316757 0.312491 -0.529593 76 0 153
0.212563 0.012271 -0.178302 76 0 153
-0.015502 0.302755 -0.513602 76 0 153
-0.033535 -0.062878 -0.261321 76 153 0
0.054252 0.360788 -0.617316 76 0 153
-0.026074 0.023903 -0.132668 76 0 153
-0.074516 0.327293 -0.554760 76 0 153
-0.054017 0.046803 0.091196 76 0 153
-0.355866 -0.160547 -0.349699 76 153 0
0.130846 -0.026781 -0.029391 76 0 153
0.293089 -0.184797 -0.377822 76 153 0
0.009632 -0.204288 0.777962 76 0 153
0.017333 0.063229 -0.165965 76 0 153
0.208955 0.099203 -0.198744 76 0 153
-0.180387 0.000508 0.381667 76 0 153
-0.089268 -0.185560 -0.020320 0 127 127
-0.326515 -0.149340 0.848682 76 0 153
-0.019296 -0.047926 0.624684 76 0 153
-0.092273 0.339433 -0.576659 76 0 153
0.190008 -0.122723 -0.248563 76 153 0
0.265277 -0.026042 -0.027361 76 0 153
0.302993 -0.226737 -0.047568 0 127 127
-0.146931 0.380735 -0.658355 76 0 153
0.172299 -0.205992 0.919453 76 0 153
-0.204683 -0.076990 0.674250 76 0 153
0.081530 -0.026056 0.483492 76 0 153
0.152664 0.365503 -0.626704 76 0 153
-0.239737 -0.144257 0.706897 76 0 153
0.114628 -0.008845 0.029242 76 0 153
-0.150715 0.289700 -0.419423 76 0 153
-0.134846 0.073902 -0.175690 76 0 153
-0.095056 -0.012246 0.016087 76 0 153
-0.330693 0.017274 -0.031931 76 0 153
0.175926 0.053742 0.157276 76 0 153
0.119461 0.164900 -0.264998 76 0 153
-0.316022 0.055762 0.240882 76 0 153
-0.103103 -0.097453 -0.341585 76 153 0
0.006488 0.055532 0.192717 76 0 153
0.062691 0.040576 0.378473 76 0 153
0.291127 -0.039734 0.609492 76 0 153
-0.106766 0.211561 -0.317669 76 0 153
0.354324 -0.014555 0.524264 76 0 153
-0.280533 -0.055510 0.557852 76 0 153
0.097236 0.001511 -0.170942 76 0 153
0.071511 0.006023 -0.104642 76 0 153
0.322341 -0.016073 0.560508 76 0 153
-0.050355 0.008968 -0.058112 76 0 153
0.095678 0.013920 0.168322 76 0 153
-0.255122 0.121946 -0.280303 76 0 153
-0.211097 0.000252 0.071681 76 0 153
-0.118377 -0.052712 0.552247 76 0 153
-0.238325 0.010517 0.320949 76 0 153
-0.069475 0.011728 0.305405 76 0 153
0.183515 0.047307 0.344384 76 0 153
-0.339609 0.365889 -0.627472 76 0 153
0.077425 -0.226737 -0.457949 76 153 0
0.248833 -0.015947 0.004433 76 0 153
-0.139905 -0.189443 -0.069715 0 127 127
0.081255 -0.082789 0.612495 76 0 153
-0.333737 0.365346 -0.540319 76 0 153
0.062861 0.068157 -0.170456 76 0 153
0.103302 -0.018235 0.565698 76 0 153
0.144683 -0.082149 0.681884 76 0 153
-0.077266 0.318698 -0.539788 76 0 153
-0.057698 0.013617 -0.120563 76 0 153
-0.223227 -0.024425 0.580559 76 0 153
-0.354517 0.041281 0.374905 76 0 153
-0.249732 -0.098550 -0.183213 76 153 0
0.077398 -0.226737 -0.526511 76 153 0
-0.267504 0.055112 0.265424 76 0 153
0.167444 0.085678 -0.244104 76 0 153
0.151168 0.003290 -0.091343 76 0 153
0.090666 0.347488 -0.591190 76 0 153
-0.039383 -0.055011 -0.241140 76 153 0
-0.141609 0.012026 0.488568 76 0 153
-0.224133 -0.202266 -0.533917 76 153 0
0.182209 -0.102720 0.645672 76 0 153
0.161363 0.408274 -0.696430 76 0 153
0.088635 0.027861 -0.136196 76 0 153
0.077803 0.348882 -0.511891 76 0 153
0.327066 0.222726 -0.330814 76 0 153
0.251560 0.006856 0.107085 76 0 153
-0.255545 -0.226737 -0.046399 0 127 127
0.194922 -0.226737 0.885956 76 0 153
-0.149792 0.328014 -0.556062 76 0 153
0.320526 0.055551 0.196688 76 0 153
0.350679 -0.083419 0.613756 76 0 153
-0.300436 -0.048246 -0.223448 76 153 0
-0.185453 -0.193869 0.766822 76 0 153
0.317558 -0.208984 -0.418700 76 153 0
-0.210289 -0.066577 0.580021 76 0 153
0.193582 0.171283 -0.271897 76 0 153
-0.307070 -0.223022 0.797993 76 0 153
-0.073729 -0.205002 0.778726 76 0 153
0.294395 -0.096779 0.636182 76 0 153
-0.146778 -0.224087 0.927955 76 0 153
0.001698 -0.225425 0.800562 76 0 153
0.084418 0.040829 0.377192 76 0 153
-0.244238 0.261869 -0.450789 76 0 153
0.283972 0.302318 -0.437600 76 0 153
-0.148643 -0.226737 -0.480718 76 153 0
-0.196834 0.051718 0.138000 76 0 153
0.316851 0.013561 0.281888 76 0 153
0.156554 -0.206187 -0.066443 0 127 127
0.354324 -0.134849 -0.380638 76 153 0
-0.154157 -0.215081 -0.428452 76 153 0
0.294966 0.305886 -0.518744 76 0 153
0.292234 -0.012441 0.436456 76 0 153
-0.348546 -0.226737 -0.045369 0 127 127
-0.340042 -0.088823 -0.322773 76 153 0
0.072357 0.026886 0.439628 76 0 153
0.049442 0.426901 -0.665562 76 0 153
0.045805 0.014624 0.480009 76 0 153
-0.147629 0.026237 0.441767 76 0 153
0.338834 0.003172 -0.088914 76 0 153
-0.292298 0.034249 0.029874 76 0 153
-0.302006 0.427708 -0.696430 76 0 153
-0.078768 -0.007696 0.540397 76 0 153
-0.112287 -0.180085 -0.072034 0 127 127
0.161925 0.346576 -0.507989 76 0 153
-0.237865 0.220925 -0.395174 76 0 153
0.173171 -0.099446 0.707474 76 0 153
-0.220403 0.014736 0.183892 76 0 153
-0.033421 -0.226737 -0.494828 76 153 0
0.003512 0.000948 -0.170668 76 0 153
-0.355776 -0.050801 0.547917 76 0 153
0.044604 0.176446 -0.340597 76 0 153
-0.188891 -0.113413 -0.224776 76 153 0
0.037540 0.228401 -0.404656 76 0 153
0.126789 -0.145646 -0.034146 0 127 127
0.012466 0.011247 0.145152 76 0 153
0.324683 -0.109125 0.655903 76 0 153
-0.247956 0.021339 -0.018989 76 0 153
0.035495 0.094970 -0.253291 76 0 153
0.188494 0.182890 -0.284439 76 0 153
0.181196 -0.017463 0.563845 76 0 153
-0.154414 -0.132607 -0.039317 0 127 127
0.147272 0.270756 -0.392829 76 0 153
-0.020660 -0.185450 -0.506885 76 153 0
0.036025 -0.162705 0.730882 76 0 153
0.354324 0.010665 0.049330 76 0 153
-0.178390 0.055619 0.210788 76 0 153
-0.211592 0.439995 -0.696016 76 0 153
-0.114016 0.093122 -0.251464 76 0 153
-0.294157 0.053657 0.156467 76 0 153
-0.247229 0.049535 0.117216 76 0 153
0.044626 0.439853 -0.695688 76 0 153
-0.278891 -0.226737 -0.054571 0 127 127
0.268402 -0.203215 -0.535430 76 153 0
-0.254999 -0.072913 -0.285955 76 153 0
-0.269530 -0.127543 0.744898 76 0 153
-0.115939 -0.184127 0.897966 76 0 153
-0.081772 -0.073265 0.593417 76 0 153
-0.044108 -0.212237 0.786461 76 0 153
0.031111 0.323934 -0.470856 76 0 153
0.209383 -0.112222 -0.098587 0 127 127
0.016175 -0.226271 -0.570786 76 153 0
0.309148 0.006290 -0.105612 76 0 153
-0.239382 0.072966 -0.174837 76 0 153
0.303886 -0.120094 -0.388762 76 153 0
0.089012 -0.183726 0.897572 76 0 153
0.029748 -0.145358 -0.300730 76 153 0
-0.146119 -0.164490 -0.076493 0 127 127
-0.228357 -0.093591 0.698812 76 0 153
-0.342657 -0.079543 0.678028 76 0 153
0.306429 -0.210854 0.924231 76 0 153
0.118764 0.036833 0.397430 76 0 153
0.063439 0.048583 0.108150 76 0 153
-0.041202 -0.181320 0.895207 76 0 153
-0.213875 -0.179023 -0.367271 76 153 0
-0.113474 -0.220761 0.931340 76 0 153
-0.242089 0.307090 -0.444941 76 0 153
-0.114395 -0.168335 0.882447 76 0 153
0.088628 -0.153627 -0.318097 76 153 0
-0.190583 -0.015347 0.006320 76 0 153
-0.355866 0.041157 -0.169226 76 0 153
-0.058658 0.247292 -0.430659 76 0 153
0.210337 -0.125453 0.742388 76 0 153
-0.055706 -0.159340 -0.329826 76 153 0
-0.119838 -0.154514 0.720233 76 0 153
-0.314130 -0.170465 0.740971 76 0 153
-0.106239 0.085666 -0.186410 76 0 153
-0.047692 0.366800 -0.629287 76 0 153
0.233071 0.365456 -0.540526 76 0 153
-0.285122 0.127037 -0.285763 76 0 153
0.344405 -0.057113 -0.246636 76 153 0
-0.107840 -0.116270 -0.046266 0 127 127
-0.022442 -0.146185 0.767292 76 0 153
-0.106949 -0.158661 0.801586 76 0 153
-0.250740 -0.109581 -0.214544 76 153 0
-0.117606 0.265697 -0.385726 76 0 153
0.250328 -0.028934 0.490984 76 0 153
0.012128 -0.003344 0.403568 76 0 153
-0.072149 0.015798 0.241231 76 0 153
-0.355866 0.009803 -0.054069 76 0 153
0.159242 -0.089453 -0.152122 76 153 0
0.279842 0.318660 -0.462741 76 0 153
-0.153119 0.234659 -0.413271 76 0 153
0.354324 -0.209811 -0.420189 76 153 0
0.094229 0.183343 -0.284928 76 0 153
-0.032647 -0.181249 -0.371339 76 153 0
-0.137837 0.208340 -0.313876 76 0 153
-0.198114 0.012623 0.293922 76 0 153
-0.098273 -0.077233 0.674610 76 0 153
0.052488 0.040719 -0.202519 76 0 153
-0.184155 -0.226737 0.852403 76 0 153
0.028483 -0.011492 0.433033 76 0 153
0.000048 0.188643 -0.354797 76 0 153
-0.313790 -0.046581 0.622190 76 0 153
-0.010581 0.105989 -0.264186 76 0 153
0.123747 -0.181762 -0.372276 76 153 0
0.210999 -0.059447 -0.252742 76 153 0
-0.178140 -0.077142 -0.062373 76 0 153
0.031726 -0.033136 0.501925 76 0 153
-0.087354 0.055305 0.172160 76 0 153
0.088766 0.015919 0.247757 76 0 153
0.091485 -0.169602 -0.480336 76 153 0
-0.077905 -0.192450 -0.518259 76 153 0
0.114973 -0.138903 0.758545 76 0 153
-0.218096 -0.150309 -0.311287 76 153 0
0.058310 -0.226737 -0.503063 76 153 0
0.348526 0.349182 -0.594245 76 0 153
-0.353911 0.015785 0.253362 76 0 153
-0.216869 -0.226737 0.810209 76 0 153
-0.142550 -0.226737 -0.552234 76 153 0
-0.355866 -0.214770 -0.017767 0 127 127
-0.186041 0.258174 -0.445639 76 0 153
0.337662 -0.219382 -0.435135 76 153 0
0.110955 -0.094908 -0.171878 76 153 0
-0.261307 -0.106445 -0.360785 76 153 0
0.279406 0.056313 -0.159985 76 0 153
-0.087863 0.291280 -0.421641 76 0 153
-0.051732 0.158192 -0.319347 76 0 153
-0.220545 -0.105137 -0.358090 76 153 0
-0.053011 -0.056103 0.639849 76 0 153
-0.263934 0.003402 -0.077766 76 0 153
0.291887 0.284826 -0.485256 76 0 153
-0.355866 0.003678 0.006896 76 0 153
-0.322088 0.068631 -0.170888 76 0 153
-0.341631 0.050575 -0.211501 76 0 153
-0.196665 -0.226737 -0.513780 76 153 0
-0.337889 -0.005093 0.046747 76 0 153
-0.355866 -0.190364 0.827793 76 0 153
-0.117396 0.050520 0.126596 76 0 153
-0.183371 -0.091065 -0.126963 76 153 0
-0.029606 -0.014398 -0.169309 76 0 153
-0.016074 -0.168696 -0.348014 76 153 0
-0.037030 0.045528 0.353395 76 0 153
0.003192 0.039318 0.384847 76 0 153
-0.245912 -0.212913 -0.012517 0 127 127
-0.330323 0.047261 0.095560 76 0 153
-0.055005 -0.195423 -0.523001 76 153 0
0.198278 0.061258 -0.164169 76 0 153
0.168055 0.159034 -0.320327 76 0 153
-0.058088 -0.226737 0.877280 76 0 153
-0.341736 -0.208437 0.782398 76 0 153
-0.074084 -0.019178 0.460762 76 0 153
0.240512 -0.195935 0.909570 76 0 153
0.011248 0.234822 -0.345874 76 0 153
0.016592 -0.119278 -0.239990 76 153 0
-0.119181 0.030265 0.428500 76 0 153
-0.154519 -0.101335 -0.191263 76 153 0
0.354324 -0.062259 0.609082 76 0 153
-0.319126 -0.116315 0.731411 76 0 153
-0.343783 -0.122256 0.676878 76 0 153
0.020216 0.032857 0.023160 76 0 153
-0.355672 -0.106429 -0.101763 76 0 153
-0.171981 -0.226737 -0.541515 76 153 0
-0.209117 -0.190004 -0.514357 76 153 0
-0.258282 -0.091473 0.695678 76 0 153
0.110310 0.174435 -0.338256 76 0 153
0.237786 -0.219560 -0.435411 76 153 0
0.180975 -0.185377 -0.070692 0 127 127
0.205441 -0.059142 0.565127 76 0 153
0.284777 0.038894 -0.145421 76 0 153
0.227386 -0.042467 -0.207403 76 153 0
-0.021606 -0.096099 -0.338634 76 153 0
-0.017032 -0.132755 -0.088568 0 127 127
-0.250919 0.029244 0.431863 76 0 153
0.137194 -0.065299 0.656905 76 0 153
0.354324 0.257153 -0.387765 76 0 153
0.110351 -0.065112 -0.061809 0 127 127
-0.139757 0.311641 -0.528197 76 0 153
0.160292 -0.074281 0.670243 76 0 153
-0.225695 0.084075 -0.184960 76 0 153
-0.294732 0.225801 -0.401342 76 0 153
-0.268248 0.006169 0.507109 76 0 153
0.069693 0.226372 -0.402064 76 0 153
0.212955 0.276003 -0.472010 76 0 153
0.112039 -0.127020 -0.259215 76 153 0
0.051133 -0.122925 0.677945 76 0 153
-0.342986 0.130890 -0.229720 76 0 153
0.296854 0.390265 -0.586900 76 0 153
-0.343160 -0.218722 -0.434108 76 153 0
-0.079713 0.398868 -0.604737 76 0 153
-0.344876 0.250918 -0.366548 76 0 153
0.076211 -0.157157 0.868747 76 0 153
0.228130 0.338972 -0.495124 76 0 153
0.209529 0.182634 -0.347801 76 0 153
-0.175165 0.414648 -0.696430 76 0 153
0.126883 -0.226737 0.833049 76 0 153
0.343139 0.420342 -0.650309 76 0 153
-0.355866 -0.066245 -0.175834 76 153 0
-0.042805 -0.079364 -0.301006 76 153 0
-0.000107 0.049708 0.118866 76 0 153
-0.309893 0.346539 -0.589478 76 0 153
-0.218233 -0.011916 0.434564 76 0 153
0.291799 -0.106044 0.717235 76 0 153
-0.226354 0.007259 0.343280 76 0 153
0.345233 -0.226737 -0.555716 76 153 0
-0.307413 -0.022903 0.474199 76 0 153
-0.244795 0.282010 -0.408627 76 0 153
-0.276608 0.145286 -0.305338 76 0 153
-0.308632 -0.142346 -0.431471 76 153 0
-0.205431 0.003561 0.364306 76 0 153
0.008795 -0.226737 -0.458493 76 153 0
-0.320351 0.049623 0.118056 76 0 153
0.010062 -0.190808 -0.388240 76 153 0
-0.098952 -0.198459 0.771730 76 0 153
-0.176156 0.047752 0.342130 76 0 153
-0.355866 -0.105399 -0.273204 76 153 0
0.354324 -0.138997 0.731055 76 0 153
0.047509 -0.226737 0.889540 76 0 153
-0.311609 0.220016 -0.327624 76 0 153
-0.222214 0.223644 -0.331894 76 0 153
0.243502 0.248461 -0.432268 76 0 153
-0.057834 0.101349 -0.259598 76 0 153
-0.057418 0.165605 -0.265760 76 0 153
0.203476 0.318853 -0.540042 76 0 153
-0.023897 0.033009 0.023894 76 0 153
-0.351158 0.010069 0.326695 76 0 153
0.091492 -0.226737 -0.041557 0 127 127
0.233043 0.010997 0.314791 76 0 153
0.153280 0.016806 0.472826 76 0 153
-0.002058 0.300336 -0.434551 76 0 153
0.122480 0.137245 -0.236026 76 0 153
0.119147 -0.156683 0.779902 76 0 153
-0.287319 -0.162632 -0.468068 76 153 0
-0.209174 0.109412 -0.267570 76 0 153
-0.057411 -0.226737 0.919317 76 0 153
-0.037754 0.002903 0.514948 76 0 153
0.005968 -0.038695 -0.196857 76 153 0
-0.185777 -0.030174 -0.178513 76 153 0
-0.197583 -0.052049 -0.233393 76 153 0
-0.063150 0.053873 0.278415 76 0 153
0.169909 0.297632 -0.505188 76 0 153
0.304402 0.273528 -0.396720 76 0 153
-0.355866 0.087397 -0.221505 76 0 153
-0.034885 -0.060210 0.647467 76 0 153
0.061528 -0.212021 -0.065480 0 127 127
0.175306 0.280711 -0.406804 76 0 153
0.010859 0.365094 -0.625889 76 0 153
-0.216388 -0.195533 0.768602 76 0 153
-0.067553 -0.040255 0.520460 76 0 153
0.328981 -0.226737 0.847193 76 0 153
-0.046841 -0.158713 -0.078429 0 127 127
-0.115946 0.014170 0.481504 76 0 153
-0.273245 0.381817 -0.571109 76 0 153
0.105227 0.012098 0.152525 76 0 153
0.126102 0.054401 -0.158387 76 0 153
-0.288706 0.024196 0.448489 76 0 153
0.311164 0.110144 -0.209134 76 0 153
-0.223647 0.036470 0.040583 76 0 153
-0.250899 -0.162161 0.730175 76 0 153
0.124629 -0.074985 0.671285 76 0 153
0.110403 0.109754 -0.267908 76 0 153
-0.164168 0.309355 -0.448426 76 0 153
-0.005705 0.349382 -0.594611 76 0 153
0.083089 0.184990 -0.350544 76 0 153
0.005335 0.054746 0.166831 76 0 153
-0.340903 0.103545 -0.261770 76 0 153
-0.336513 -0.226737 -0.525278 76 153 0
-0.032204 0.268806 -0.461204 76 0 153
-0.178431 -0.013192 0.439166 76 0 153
-0.336957 -0.226737 -0.477735 76 153 0
-0.123986 -0.132369 -0.412726 76 153 0
-0.153181 -0.202771 -0.408525 76 153 0
-0.297120 0.186003 -0.287802 76 0 153
-0.054163 0.035409 0.404645 76 0 153
0.163690 -0.133388 -0.038998 0 127 127
0.008954 -0.156072 0.866926 76 0 153
0.317009 0.025068 0.445615 76 0 153
0.317305 -0.123063 -0.043297 0 127 127
-0.076786 0.038653 0.051107 76 0 153
-0.348061 -0.151463 -0.448358 76 153 0
-0.231682 0.329650 -0.479649 76 0 153
0.168642 -0.134410 -0.087835 0 127 127
-0.138386 0.316479 -0.459386 76 0 153
0.026981 -0.032451 0.595986 76 0 153
-0.355866 0.058789 -0.200912 76 0 153
0.244709 0.284698 -0.412401 76 0 153
-0.208844 -0.162350 0.730421 76 0 153
0.289164 -0.003211 0.055526 76 0 153
0.336634 0.021162 0.458478 76 0 153
0.305432 -0.027804 0.587368 76 0 153
-0.309506 -0.226737 0.831830 76 0 153
0.007090 -0.065884 -0.061972 76 0 153
0.341964 0.003369 0.513830 76 0 153
0.270025 0.381509 -0.660068 76 0 153
0.354324 -0.216742 0.853716 76 0 153
-0.079950 0.171791 -0.335178 76 0 153
-0.246499 -0.118427 -0.095354 0 127 127
-0.286426 -0.058157 -0.249369 76 153 0
0.135697 0.015654 0.233439 76 0 153
-0.006019 -0.176673 -0.362976 76 153 0
-0.221939 -0.122423 0.738748 76 0 153
0.333039 0.046557 -0.151828 76 0 153
0.032197 -0.085116 0.617156 76 0 153
0.014357 -0.221658 0.930427 76 0 153
0.156452 -0.226737 0.912913 76 0 153
-0.173999 -0.191730 -0.389834 76 153 0
-0.121234 0.285626 -0.413703 76 0 153
-0.244392 -0.226737 -0.491169 76 153 0
-0.291679 0.197413 -0.301011 76 0 153
-0.334841 -0.138209 0.757711 76 0 153
-0.116255 -0.131326 -0.039840 0 127 127
0.035041 0.381358 -0.570251 76 0 153
-0.244105 -0.204441 0.778126 76 0 153
-0.237521 0.050852 0.310091 76 0 153
0.214265 -0.034653 -0.185852 76 153 0
0.037898 -0.089723 -0.324734 76 153 0
-0.093016 -0.211332 -0.422545 76 153 0
-0.201876 -0.217081 -0.556808 76 153 0
0.010445 0.035805 0.037374 76 0 153
0.262429 -0.120739 -0.094211 0 127 127
0.300283 0.059351 -0.219499 76 0 153
-0.336289 0.193549 -0.360548 76 0 153
-0.216738 0.338283 -0.574586 76 0 153
0.171433 0.103524 -0.261748 76 0 153
0.198765 0.208397 -0.379328 76 0 153
0.127137 -0.226737 0.853601 76 0 153
0.262879 0.030445 0.011529 76 0 153
0.036434 -0.157396 -0.325836 76 153 0
0.265930 0.200755 -0.369662 76 0 153
0.069967 0.341810 -0.580948 76 0 153
-0.174252 0.050832 0.310301 76 0 153
0.137367 -0.006040 0.042329 76 0 153
-0.081982 -0.151792 -0.448968 76 153 0
0.308579 -0.083376 -0.310275 76 153 0
0.300511 -0.113249 -0.224338 76 153 0
-0.061532 0.229403 -0.406036 76 0 153
-0.034361 0.049245 0.114457 76 0 153
0.021784 -0.224398 -0.063890 0 127 127
0.046023 0.012261 0.298576 76 0 153
-0.105302 -0.226737 0.859483 76 0 153
-0.171895 0.410758 -0.629436 76 0 153
-0.355866 -0.138944 -0.324020 76 153 0
-0.170361 -0.105148 -0.051323 0 127 127
-0.307367 0.052709 0.147436 76 0 153
0.239208 -0.208031 -0.066139 0 127 127
0.051180 -0.192928 -0.018103 0 127 127
-0.170476 -0.108578 0.655029 76 0 153
0.011082 -0.226737 -0.492523 76 153 0
-0.203144 0.402406 -0.696430 76 0 153
-0.283606 0.006165 0.101094 76 0 153
-0.066070 -0.158235 -0.460328 76 153 0
0.058677 -0.226737 -0.046116 0 127 127
0.099803 0.277904 -0.402862 76 0 153
0.007167 0.145947 -0.306047 76 0 153
0.152688 -0.133073 -0.273302 76 153 0
0.348121 0.262302 -0.451441 76 0 153
0.018018 0.013685 0.166283 76 0 153
0.043780 -0.177604 0.891555 76 0 153
-0.168424 -0.226737 -0.510599 76 153 0
0.186377 -0.004728 0.048448 76 0 153
0.314158 0.048985 0.329672 76 0 153
0.042707 -0.088831 -0.141595 76 153 0
0.209517 -0.186087 -0.507952 76 153 0
-0.158685 -0.226737 -0.455831 76 153 0
-0.254251 -0.125017 0.681287 76 0 153
0.349768 0.313630 -0.531464 76 0 153
-0.286778 0.015578 0.229369 76 0 153
0.297207 -0.088836 -0.142065 76 153 0
-0.045091 -0.207490 -0.066228 0 127 127
-0.268096 -0.095909 -0.174994 76 153 0
0.261071 0.059069 -0.219242 76 0 153
0.173161 -0.063083 0.573022 76 0 153
0.279757 -0.000679 0.388414 76 0 153
-0.152481 -0.022571 -0.016430 76 0 153
0.272408 -0.063855 0.574567 76 0 153
0.265130 -0.035847 -0.188895 76 153 0
-0.000554 -0.184918 -0.070809 0 127 127
-0.324025 -0.044400 -0.212804 76 153 0
-0.071097 0.125719 -0.224589 76 0 153
-0.338827 0.379856 -0.567444 76 0 153
0.224113 0.379163 -0.566147 76 0 153
-0.044444 -0.014254 0.442996 76 0 153
0.236461 0.286389 -0.487602 76 0 153
0.116787 0.225309 -0.333856 76 0 153
-0.347757 0.202505 -0.371876 76 0 153
0.242120 -0.116565 -0.381641 76 153 0
0.194368 -0.115480 -0.096812 0 127 127
-0.189682 0.122244 -0.221140 76 0 153
0.088119 -0.005270 0.534572 76 0 153
-0.178940 -0.157547 -0.326146 76 153 0
-0.343943 -0.105359 0.649887 76 0 153
-0.225294 -0.226737 0.857489 76 0 153
-0.076852 0.049472 -0.154265 76 0 153
-0.309183 -0.107720 0.719715 76 0 153
-0.123553 -0.100663 -0.348583 76 153 0
-0.318439 -0.217982 -0.558178 76 153 0
0.238731 0.184953 -0.350502 76 0 153
0.186430 -0.219455 -0.560419 76 153 0
-0.042042 -0.089107 -0.148865 76 153 0
-0.246961 -0.142833 -0.432373 76 153 0
-0.031212 -0.128559 -0.405287 76 153 0
0.354324 -0.147005 -0.337481 76 153 0
-0.081908 0.264906 -0.384616 76 0 153
0.007615 0.332292 -0.483822 76 0 153
-0.166113 0.129662 -0.228501 76 0 153
-0.104930 0.002363 0.081531 76 0 153
0.168737 0.389196 -0.584902 76 0 153
0.354324 0.094248 -0.202159 76 0 153
-0.041242 0.052290 0.295018 76 0 153
0.210505 -0.182821 0.755010 76 0 153
0.234072 -0.023660 -0.019860 76 0 153
0.085110 -0.201544 0.775028 76 0 153
0.323886 -0.226737 -0.465233 76 153 0
0.235381 0.390133 -0.679132 76 0 153
-0.098774 -0.108131 -0.364258 76 153 0
-0.319459 0.046267 -0.151585 76 0 153
0.079412 -0.092265 -0.163651 76 153 0
0.074512 -0.033284 0.502311 76 0 153
0.009467 -0.207390 -0.066245 0 127 127
0.065416 -0.164085 0.788793 76 0 153
0.208517 0.224712 -0.333152 76 0 153
0.354324 0.005240 0.468333 76 0 153
-0.081771 0.134103 -0.232909 76 0 153
0.003666 0.054674 0.270020 76 0 153
-0.261412 0.336015 -0.570493 76 0 153
-0.355866 0.259073 -0.417496 76 0 153
0.155242 0.053289 0.152963 76 0 153
0.309207 0.248487 -0.432304 76 0 153
0.120985 -0.203951 0.917448 76 0 153
-0.063585 0.294210 -0.499568 76 0 153
0.289586 0.049190 0.113928 76 0 153
-0.193051 -0.129258 0.687398 76 0 153
-0.037737 -0.152494 0.717607 76 0 153
0.207093 -0.125061 -0.254382 76 153 0
-0.062442 0.337505 -0.573182 76 0 153
-0.260045 0.348523 -0.593057 76 0 153
-0.099293 -0.226737 -0.490851 76 153 0
-0.064927 0.011655 0.489789 76 0 153
0.107924 0.154853 -0.254142 76 0 153
0.120912 0.003500 -0.093026 76 0 153
0.055701 -0.156913 0.723352 76 0 153
-0.295462 0.202144 -0.371420 76 0 153
-0.272516 -0.141627 0.703478 76 0 153
0.164671 0.039618 -0.146027 76 0 153
0.353911 0.014828 0.188896 76 0 153
0.028951 -0.226737 0.840898 76 0 153
0.043319 0.014970 0.263818 76 0 153
-0.161957 -0.226737 0.830789 76 0 153
0.354324 0.019355 0.016345 76 0 153
-0.171605 0.372282 -0.640199 76 0 153
-0.295245 -0.138925 -0.286685 76 153 0
0.217662 0.372554 -0.553793 76 0 153
-0.144021 0.059291 -0.219444 76 0 153
0.345623 -0.129886 -0.407878 76 153 0
-0.035284 -0.199705 0.913275 76 0 153
0.192471 -0.009888 0.024374 76 0 153
0.317251 0.167567 -0.267881 76 0 153
0.003975 -0.100647 0.709250 76 0 153
0.270900 -0.157111 -0.325251 76 153 0
0.103892 -0.066874 -0.271131 76 153 0
0.342651 -0.126836 0.684194 76 0 153
0.206456 -0.226737 0.814435 76 0 153
0.127823 0.015967 0.250361 76 0 153
-0.175917 -0.204988 -0.066641 0 127 127
-0.250413 -0.063957 0.654415 76 0 153
-0.296122 0.014185 0.273885 76 0 153
0.348554 0.017758 -0.030392 76 0 153
0.059644 -0.038382 -0.195982 76 153 0
-0.246144 -0.051252 -0.231308 76 153 0
-0.153006 -0.226737 0.818561 76 0 153
0.336135 -0.030342 -0.178709 76 0 153
-0.020009 0.370469 -0.549896 76 0 153
-0.058528 0.259993 -0.448142 76 0 153
-0.175671 -0.226737 -0.020161 0 127 127
0.342016 0.006461 -0.106083 76 0 153
-0.034669 -0.172333 -0.355047 76 153 0
-0.351166 -0.156300 0.867383 76 0 153
-0.347942 0.055691 0.225939 76 0 153
-0.351045 -0.166572 -0.475004 76 153 0
0.336710 -0.150635 0.818482 76 0 153
0.110373 -0.101440 -0.106194 76 153 0
-0.158543 -0.226737 0.850038 76 0 153
0.172557 -0.123627 -0.395660 76 153 0
-0.000018 -0.226737 -0.517929 76 153 0
-0.225294 -0.040062 0.610101 76 0 153
0.134325 -0.218424 0.931670 76 0 153
0.138059 0.316104 -0.458810 76 0 153
0.183349 0.013612 0.165658 76 0 153
0.353381 0.022222 -0.016178 76 0 153
-0.296126 -0.151228 0.715962 76 0 153
-0.347406 0.033008 -0.140500 76 0 153
-0.264151 -0.215328 -0.428836 76 153 0
0.125406 -0.221241 -0.438021 76 153 0
-0.319797 -0.161754 -0.466523 76 153 0
-0.122623 0.377224 -0.562524 76 0 153
-0.325093 -0.226737 -0.046483 0 127 127
-0.259936 -0.119935 -0.044664 0 127 127
0.036531 0.397898 -0.696298 76 0 153
-0.210162 -0.066120 -0.269281 76 153 0
0.191544 -0.112404 0.661140 76 0 153
-0.054630 0.422212 -0.654658 76 0 153
-0.282072 -0.030237 -0.037042 76 0 153
-0.134821 -0.011624 0.433510 76 0 153
0.349168 0.289094 -0.418572 76 0 153
-0.082114 0.039219 0.385348 76 0 153
0.119733 -0.043530 -0.052487 76 0 153
-0.166565 0.018331 -0.028567 76 0 153
-0.036058 -0.001526 0.063385 76 0 153
-0.144521 -0.013247 -0.169072 76 0 153
0.044507 -0.140775 0.702371 76 0 153
-0.262640 -0.125214 -0.254763 76 153 0
0.243272 0.002385 0.081635 76 0 153
-0.264383 -0.226737 -0.514878 76 153 0
0.033796 -0.113110 -0.223967 76 153 0
-0.305673 0.005953 0.099258 76 0 153
-0.355866 -0.125939 -0.371128 76 153 0
0.290042 0.155555 -0.316353 76 0 153
0.303426 -0.088200 0.690836 76 0 153
-0.126163 0.014278 0.272695 76 0 153
0.289129 0.046188 0.350055 76 0 153
-0.130613 -0.226737 0.873568 76 0 153
0.252261 0.009822 0.328710 76 0 153
0.109471 0.051925 0.298840 76 0 153
0.187366 -0.154612 -0.453953 76 153 0
0.056157 0.022303 -0.015921 76 0 153
0.354324 -0.223121 -0.451178 76 153 0
-0.264084 0.055518 0.189725 76 0 153
0.054127 0.345699 -0.587962 76 0 153
0.354324 0.055698 -0.167365 76 0 153
-0.147697 0.004336 -0.098248 76 0 153
-0.291773 -0.089462 -0.134633 76 153 0
0.354324 0.019410 0.401512 76 0 153
0.143053 0.354493 -0.521386 76 0 153
-0.355866 -0.124128 -0.073468 0 127 127
0.292970 -0.094363 -0.334849 76 153 0
0.048126 0.031803 -0.139492 76 0 153
-0.069574 -0.114615 0.729369 76 0 153
-0.214846 0.021703 0.456697 76 0 153
-0.201501 -0.226737 -0.062177 0 127 127
-0.162301 -0.064864 -0.266196 76 153 0
-0.071928 0.094768 -0.194703 76 0 153
0.347498 -0.012004 0.550738 76 0 153
0.354324 -0.088791 -0.134383 76 153 0
-0.029655 -0.019014 -0.005228 76 0 153
0.329517 0.346967 -0.508652 76 0 153
0.166996 -0.226737 -0.031803 0 127 127
-0.063149 -0.060231 0.567308 76 0 153
0.068102 -0.158997 -0.461670 76 153 0
0.237868 -0.127292 -0.259846 76 153 0
0.308136 0.144977 -0.243698 76 0 153
-0.147141 0.168526 -0.331377 76 0 153
0.108942 -0.092701 0.629667 76 0 153
-0.050651 -0.093222 0.630499 76 0 153
0.154594 -0.226737 0.849910 76 0 153
-0.156679 0.036273 0.039631 76 0 153
-0.323910 0.193482 -0.296383 76 0 153
-0.166640 0.277542 -0.474320 76 0 153
0.160526 -0.097114 -0.112634 76 153 0
0.100416 0.014865 0.265163 76 0 153
0.019376 0.260708 -0.449127 76 0 153
0.018990 -0.223208 -0.009950 0 127 127
-0.061565 -0.226737 -0.453115 76 153 0
-0.298171 -0.063093 0.652812 76 0 153
0.276600 0.349978 -0.595798 76 0 153
0.126156 0.172344 -0.335823 76 0 153
0.283623 0.097775 -0.197443 76 0 153
0.292326 -0.019734 0.462768 76 0 153
-0.002586 0.010636 0.319417 76 0 153
-0.314523 -0.007579 0.418917 76 0 153
0.202898 -0.070419 0.587716 76 0 153
0.152709 0.010119 0.326054 76 0 153
0.121938 -0.032363 0.499913 76 0 153
0.084716 0.209113 -0.380234 76 0 153
-0.023257 -0.067688 -0.062170 0 127 127
0.354324 0.401959 -0.643131 76 0 153
-0.134371 -0.080962 -0.061911 0 127 127
0.108479 0.430178 -0.673185 76 0 153
-0.096821 0.183448 -0.348749 76 0 153
0.338736 -0.202140 -0.407491 76 153 0
-0.342627 -0.226737 0.809560 76 0 153
0.297809 -0.159620 -0.028970 0 127 127
-0.279817 0.028513 0.434271 76 0 153
0.190515 -0.225071 -0.009485 0 127 127
0.117582 0.268281 -0.460417 76 0 153
-0.039926 0.086622 -0.187280 76 0 153
0.005745 0.319186 -0.540590 76 0 153
-0.070069 -0.226737 -0.481467 76 153 0
-0.239990 0.021958 -0.186434 76 0 153
0.301588 -0.226737 -0.457971 76 153 0
-0.110856 -0.089970 -0.154930 76 153 0
0.117448 0.046744 0.090642 76 0 153
-0.094194 0.063348 -0.223141 76 0 153
0.155101 -0.131281 -0.410602 76 153 0
0.058766 0.006413 0.348090 76 0 153
-0.169899 -0.149453 0.823308 76 0 153
0.039031 0.153816 -0.253022 76 0 153
-0.105680 0.015807 0.241700 76 0 153
0.005613 -0.091400 0.627589 76 0 153
0.048905 -0.226737 -0.025260 0 127 127
0.168815 -0.088748 0.623353 76 0 153
0.051055 0.414680 -0.637585 76 0 153
0.205766 0.048874 0.110920 76 0 153
0.159462 -0.017763 -0.001289 76 0 153
-0.004959 0.227067 -0.402943 76 0 153
0.079447 0.092228 -0.250580 76 0 153
-0.292748 0.400208 -0.607521 76 0 153
-0.331249 0.223729 -0.398721 76 0 153
0.228784 -0.173595 -0.487032 76 153 0
-0.004120 -0.214170 -0.065139 0 127 127
0.102475 0.404825 -0.617112 76 0 153
-0.036565 0.015178 -0.180743 76 0 153
-0.247309 0.237155 -0.348870 76 0 153
0.245951 0.346157 -0.588789 76 0 153
-0.292605 -0.158374 0.870542 76 0 153
-0.160861 -0.106242 -0.205377 76 153 0
-0.061251 -0.186009 -0.379945 76 153 0
0.354324 -0.170823 -0.472583 76 153 0
0.333750 -0.004434 0.532564 76 0 153
-0.246634 0.038538 0.050554 76 0 153
0.058594 0.317565 -0.461057 76 0 153
-0.014744 0.055601 0.207191 76 0 153
-0.257024 0.432966 -0.679669 76 0 153
-0.311337 -0.116946 -0.234185 76 153 0
0.234011 -0.185088 -0.070766 0 127 127
0.336100 -0.151741 -0.031822 0 127 127
0.354324 -0.013833 -0.159674 76 0 153
-0.015529 0.257179 -0.444269 76 0 153
0.015712 0.419596 -0.696430 76 0 153
-0.157433 -0.226737 -0.553914 76 153 0
-0.170008 0.054788 0.167229 76 0 153
-0.198842 0.429056 -0.670576 76 0 153
0.263106 -0.192235 -0.069131 0 127 127
-0.203099 0.263238 -0.382372 76 0 153
0.312086 -0.226737 0.840900 76 0 153
-0.138121 -0.226737 -0.016190 0 127 127
0.088971 -0.182559 0.754730 76 0 153
0.103117 0.012100 0.300642 76 0 153
-0.149434 0.350523 -0.514667 76 0 153
-0.355866 -0.060736 -0.085542 76 0 153
0.317156 0.070430 -0.172526 76 0 153
-0.355866 -0.141306 -0.035954 0 127 127
0.064258 0.013267 -0.179138 76 0 153
-0.029353 0.003888 -0.074912 76 0 153
-0.005627 -0.017426 -0.000225 76 0 153
-0.190032 -0.105573 0.650229 76 0 153
-0.087619 -0.099951 -0.108210 0 127 127
-0.036087 0.357114 -0.610003 76 0 153
-0.146868 -0.149027 0.825424 76 0 153
-0.103064 0.006830 -0.107012 76 0 153
-0.355866 0.232240 -0.370798 76 0 153
-0.004718 0.045020 0.081808 76 0 153
-0.310162 -0.013130 -0.169047 76 0 153
0.354324 0.009972 -0.049240 76 0 153
0.340216 0.114590 -0.213545 76 0 153
0.353089 0.007578 0.503214 76 0 153
0.237120 0.043258 0.073312 76 0 153
0.013676 0.382869 -0.573075 76 0 153
0.022631 0.222113 -0.330092 76 0 153
0.151516 -0.198693 0.771981 76 0 153
-0.045510 -0.117633 -0.095747 0 127 127
0.354324 0.027150 0.219696 76 0 153
-0.210144 0.410076 -0.628020 76 0 153
-0.093434 0.353734 -0.603275 76 0 153
0.259454 -0.174872 0.888870 76 0 153
0.127396 0.120964 -0.279250 76 0 153
0.149993 0.338304 -0.574622 76 0 153
