ply
format ascii 1.0
element vertex 1240
property float x
property float y
property float z
property uchar red
property uchar green
property uchar blue
end_header
-0.046416 -0.044517 0.090007 76 0 153
-0.372061 0.147953 -0.102207 204 51 127
0.292368 -0.044517 0.300235 76 0 153
-0.006767 -0.044517 0.239399 76 0 153
-0.134593 -0.044517 0.449062 76 0 153
-0.137933 -0.176811 0.538953 76 0 153
0.315771 -0.186775 -0.346639 76 153 0
-0.434512 0.303146 -0.200117 204 51 127
-0.103951 0.752273 -0.102207 204 51 127
-0.320566 -0.044517 0.103109 76 0 153
-0.434512 -0.045290 0.131103 76 0 153
0.293918 -0.176811 -0.170982 76 0 153
-0.226494 0.666027 -0.395507 204 51 127
-0.058436 0.556320 -0.395507 204 51 127
-0.057858 -0.044517 0.571964 76 0 153
0.445890 -0.184503 -0.326091 76 153 0
0.445890 -0.100111 0.100449 76 0 153
0.386108 -0.014757 -0.102207 76 0 153
0.445890 -0.579710 0.471753 153 0 76
-0.239970 -0.176811 -0.333919 76 0 153
-0.434512 -0.437807 -0.391645 0 127 127
-0.402157 -0.044517 0.028120 76 0 153
-0.367423 0.408346 -0.102207 204 51 127
-0.247277 -0.364965 0.567303 76 0 153
-0.194050 -0.176811 0.586045 76 0 153
0.022962 -0.176811 -0.112155 76 0 153
-0.324337 -0.228930 0.431762 76 0 153
-0.299334 -0.668333 -0.337432 0 127 127
-0.434512 -0.208677 0.553066 76 0 153
-0.074741 -0.044517 0.308112 76 0 153
-0.312542 -0.558719 0.611091 76 0 153
0.143857 0.163358 -0.395507 204 51 127
-0.022204 0.174354 -0.102207 204 51 127
-0.145245 0.439817 -0.102207 204 51 127
0.101627 0.822381 -0.147563 204 51 127
0.069547 -0.176811 0.589572 76 0 153
-0.434512 -0.146747 -0.350073 76 0 153
-0.369129 0.628505 -0.102207 204 51 127
0.296068 0.019047 -0.395507 204 51 127
0.445890 -0.371782 -0.388885 76 153 0
0.089793 0.389998 -0.395507 204 51 127
0.291006 -0.176811 0.314703 76 0 153
-0.366123 -0.557015 0.431762 76 0 153
0.071398 -0.044517 0.600956 76 0 153
0.445890 0.513613 -0.168157 204 51 127
-0.109093 0.038162 -0.395507 204 51 127
0.395877 -0.494850 -0.395507 76 153 0
-0.362486 0.668535 -0.395507 204 51 127
0.301421 0.276225 -0.395507 204 51 127
-0.434512 -0.163835 -0.125731 76 0 153
-0.249633 -0.720723 0.446608 76 0 153
-0.297078 0.399095 -0.395507 204 51 127
-0.434512 -0.430730 -0.234208 0 127 127
-0.434512 -0.528813 -0.222922 0 127 127
-0.000439 -0.116998 -0.395507 76 0 153
0.445890 -0.120151 -0.113722 76 0 153
0.445890 -0.424641 0.574860 153 0 76
-0.134113 0.506324 -0.102207 204 51 127
-0.304236 -0.720723 0.563818 76 0 153
0.148201 -0.113599 0.611091 76 0 153
0.130711 0.617405 -0.102207 204 51 127
0.276218 -0.044517 0.109439 76 0 153
0.047962 0.618710 -0.102207 204 51 127
0.086627 -0.001066 -0.395507 204 51 127
0.299917 -0.176811 -0.070586 76 0 153
0.259689 -0.044517 0.183059 76 0 153
0.207001 0.137829 -0.102207 204 51 127
-0.247277 -0.691232 0.545486 76 0 153
-0.299334 -0.466187 -0.301349 0 127 127
0.122374 -0.129377 -0.395507 76 0 153
-0.366598 -0.485782 -0.395507 0 127 127
-0.252516 0.213548 -0.395507 204 51 127
0.316944 -0.655054 -0.395507 76 153 0
0.412780 -0.044517 0.344655 76 0 153
-0.388256 -0.176811 0.431156 76 0 153
0.445890 -0.378923 -0.254034 76 153 0
0.090144 0.110581 -0.102207 204 51 127
0.154372 -0.044517 0.538207 76 0 153
0.445890 -0.488790 -0.243035 76 153 0
0.385978 -0.678929 0.431762 153 0 76
0.386642 0.199505 -0.395507 204 51 127
-0.145436 -0.115476 0.611091 76 0 153
-0.146152 -0.176811 -0.157581 76 0 153
0.170141 0.408543 -0.102207 204 51 127
-0.243607 0.012662 -0.102207 204 51 127
0.445890 0.267362 -0.308438 204 51 127
0.445890 0.387658 -0.342501 204 51 127
0.296636 -0.535087 0.481372 153 0 76
-0.434512 -0.582896 0.496707 76 0 153
0.445890 0.186282 -0.241180 204 51 127
0.265158 -0.044517 0.443137 76 0 153
0.380813 -0.720723 -0.380127 76 153 0
-0.433018 -0.305772 -0.210485 0 127 127
-0.434512 0.519037 -0.282016 204 51 127
-0.404248 -0.301499 0.611091 76 0 153
0.362961 0.108725 -0.102207 204 51 127
0.445890 -0.461784 0.472687 153 0 76
-0.299334 -0.265026 -0.346975 0 127 127
0.203064 -0.176811 0.588698 76 0 153
0.316318 -0.116538 -0.395507 76 0 153
0.296636 -0.309195 0.578703 153 0 76
-0.063534 0.171639 -0.395507 204 51 127
-0.152750 0.809628 -0.149836 204 51 127
-0.247277 -0.560835 0.541289 76 0 153
-0.275763 -0.044517 -0.073711 76 0 153
0.067202 0.382604 -0.102207 204 51 127
-0.299334 -0.546307 -0.370704 0 127 127
0.353923 0.196253 -0.102207 204 51 127
0.078740 -0.176811 0.137835 76 0 153
-0.133118 0.630455 -0.102207 204 51 127
0.358393 -0.550652 -0.210485 76 153 0
-0.165651 -0.044517 0.141762 76 0 153
0.396854 -0.220041 0.611091 153 0 76
0.264641 0.282029 -0.102207 204 51 127
-0.048395 -0.176509 0.611091 76 0 153
0.445890 -0.619634 -0.275463 76 153 0
0.315771 -0.698570 -0.332424 76 153 0
-0.315493 -0.326635 0.431762 76 0 153
0.180084 0.032917 -0.102207 204 51 127
0.025914 0.829418 -0.153123 204 51 127
-0.110047 0.818341 -0.248250 204 51 127
0.395147 -0.044517 0.454743 76 0 153
0.445890 -0.173221 0.467247 153 0 76
-0.295025 -0.044517 0.303965 76 0 153
-0.330076 -0.044517 0.568913 76 0 153
-0.434512 0.430730 -0.217885 204 51 127
0.006292 -0.176811 0.157384 76 0 153
-0.203806 0.792329 -0.366527 204 51 127
0.445245 -0.656458 -0.395507 76 153 0
0.374730 -0.405211 -0.210485 76 153 0
-0.101861 -0.145119 -0.395507 76 0 153
-0.421653 -0.088238 0.611091 76 0 153
-0.144007 0.166742 -0.395507 204 51 127
-0.235130 0.781155 -0.271780 204 51 127
-0.150671 0.113446 -0.102207 204 51 127
0.385941 -0.044517 0.141477 76 0 153
0.076346 -0.176811 0.257392 76 0 153
-0.346341 -0.428521 0.431762 76 0 153
0.071759 -0.176811 -0.215014 76 0 153
0.364124 -0.572767 0.611091 153 0 76
-0.056928 0.587792 -0.102207 204 51 127
0.199544 -0.044517 0.199333 76 0 153
0.354592 -0.342209 0.611091 153 0 76
0.283036 0.762615 -0.217199 204 51 127
-0.247277 -0.264790 0.478781 76 0 153
0.411434 0.674666 -0.352623 204 51 127
-0.416216 0.037070 -0.395507 204 51 127
0.078933 -0.044517 0.028550 76 0 153
0.145166 -0.176811 0.473145 76 0 153
0.009044 0.101605 -0.395507 204 51 127
0.196762 -0.044517 0.280564 76 0 153
0.212725 -0.156504 -0.395507 76 0 153
-0.434512 0.224029 -0.154956 204 51 127
0.382322 0.700485 -0.238867 204 51 127
-0.148219 -0.044517 0.511216 76 0 153
-0.434512 -0.118006 0.240145 76 0 153
0.445890 -0.059722 -0.342905 76 0 153
-0.348555 -0.206312 -0.210485 0 127 127
-0.020531 0.662325 -0.395507 204 51 127
0.298301 -0.176811 0.072094 76 0 153
-0.139032 -0.176811 0.045808 76 0 153
0.259623 0.208731 -0.395507 204 51 127
-0.434512 0.519260 -0.141775 204 51 127
0.380700 0.076734 -0.395507 204 51 127
0.303018 -0.108125 0.611091 76 0 153
-0.136257 -0.176811 0.304846 76 0 153
-0.387992 -0.044517 0.091904 76 0 153
-0.434512 0.184355 -0.248942 204 51 127
-0.434512 0.067627 -0.295969 204 51 127
0.337383 -0.044517 0.099814 76 0 153
-0.177888 -0.064108 0.611091 76 0 153
-0.434512 -0.264363 0.476992 76 0 153
-0.434512 -0.524630 -0.294031 0 127 127
-0.233866 -0.044517 0.184212 76 0 153
0.445890 -0.061307 -0.188009 76 0 153
0.363721 -0.410911 -0.395507 76 153 0
0.250440 0.479365 -0.395507 204 51 127
-0.124494 0.815393 -0.337785 204 51 127
-0.019144 -0.044517 0.386139 76 0 153
0.445890 0.318581 -0.134108 204 51 127
0.445890 -0.097758 0.377979 76 0 153
-0.289120 0.307664 -0.102207 204 51 127
-0.064599 0.527813 -0.102207 204 51 127
-0.147059 0.514489 -0.395507 204 51 127
0.059390 -0.044517 0.469285 76 0 153
0.445890 0.012649 -0.137058 204 51 127
-0.171340 -0.176811 -0.031470 76 0 153
-0.306703 -0.152821 -0.395507 76 0 153
0.310582 0.464249 -0.102207 204 51 127
0.440183 0.100461 -0.102207 204 51 127
-0.408663 -0.176811 0.000795 76 0 153
0.072356 -0.176811 -0.146709 76 0 153
-0.116913 0.283452 -0.102207 204 51 127
0.010200 -0.176811 -0.367791 76 0 153
0.445890 -0.310178 -0.343374 76 153 0
0.315771 -0.235083 -0.249091 76 153 0
-0.016584 -0.044517 -0.045977 76 0 153
-0.010467 -0.176811 0.350808 76 0 153
0.350662 -0.334802 -0.210485 76 153 0
-0.414051 0.584386 -0.395507 204 51 127
-0.290143 0.269835 -0.395507 204 51 127
0.398975 -0.302046 0.611091 153 0 76
0.351747 0.335391 -0.395507 204 51 127
0.209127 0.794441 -0.197255 204 51 127
0.021043 0.228334 -0.102207 204 51 127
0.386644 -0.493411 0.431762 153 0 76
-0.032085 0.828239 -0.262551 204 51 127
-0.324743 0.552485 -0.102207 204 51 127
-0.247277 -0.672809 0.488808 76 0 153
-0.311720 -0.044517 0.376949 76 0 153
0.389487 -0.553138 0.431762 153 0 76
0.106383 -0.020673 -0.102207 76 0 153
-0.017287 -0.176811 0.517070 76 0 153
-0.042329 0.775026 -0.395507 204 51 127
-0.155402 0.696387 -0.102207 204 51 127
-0.213899 0.279831 -0.102207 204 51 127
-0.135328 -0.044517 0.258092 76 0 153
-0.270518 0.087539 -0.395507 204 51 127
-0.183614 0.374720 -0.102207 204 51 127
0.138873 0.814274 -0.102207 204 51 127
-0.054777 -0.176811 -0.015329 76 0 153
0.310371 -0.044517 0.216350 76 0 153
-0.168521 0.030399 -0.395507 204 51 127
-0.377258 0.017649 -0.102207 204 51 127
0.382592 -0.044517 0.029451 76 0 153
0.430847 -0.599257 -0.395507 76 153 0
0.072865 0.473389 -0.395507 204 51 127
-0.378336 0.220654 -0.395507 204 51 127
-0.174078 -0.044517 -0.057637 76 0 153
-0.316249 -0.176811 0.066955 76 0 153
0.361440 0.714890 -0.298533 204 51 127
0.445890 0.069422 -0.210143 204 51 127
0.445890 -0.485727 -0.365918 76 153 0
-0.340408 -0.336348 0.611091 76 0 153
-0.025215 0.828701 -0.332229 204 51 127
0.103207 -0.044517 0.361670 76 0 153
0.295677 0.405278 -0.102207 204 51 127
0.049880 0.739567 -0.102207 204 51 127
-0.425772 -0.044517 0.421072 76 0 153
-0.104528 -0.176811 -0.095110 76 0 153
-0.434512 0.600017 -0.307595 204 51 127
-0.299334 -0.352464 -0.254837 0 127 127
0.445890 0.313436 -0.238545 204 51 127
0.300247 -0.720723 0.480831 153 0 76
0.147507 -0.176811 -0.312070 76 0 153
-0.383145 0.276800 -0.102207 204 51 127
-0.434512 -0.658925 -0.359710 0 127 127
0.417324 -0.176811 0.133543 76 0 153
0.445890 0.170429 -0.373348 204 51 127
0.445890 -0.431960 -0.341498 76 153 0
0.400569 0.488910 -0.395507 204 51 127
-0.247277 -0.659084 0.599232 76 0 153
-0.204465 0.101311 -0.395507 204 51 127
0.095950 0.702562 -0.395507 204 51 127
-0.412491 -0.720723 -0.267744 0 127 127
0.317560 -0.720723 -0.279012 76 153 0
0.415893 -0.044517 -0.059505 76 0 153
0.367170 -0.078919 -0.395507 76 0 153
0.397581 -0.141016 0.611091 76 0 153
0.066419 -0.176811 0.465365 76 0 153
0.360074 -0.720723 0.492852 153 0 76
-0.299334 -0.517329 -0.252526 0 127 127
-0.406470 -0.176811 0.196696 76 0 153
-0.099096 -0.176811 0.094949 76 0 153
-0.013157 -0.176811 0.058353 76 0 153
-0.255937 0.186969 -0.102207 204 51 127
0.133551 0.504269 -0.395507 204 51 127
0.445890 -0.369624 0.557379 153 0 76
0.058770 0.325723 -0.102207 204 51 127
0.124458 -0.176811 0.192291 76 0 153
-0.151347 0.180443 -0.102207 204 51 127
-0.358091 -0.176811 0.255977 76 0 153
0.082501 0.093960 -0.395507 204 51 127
-0.076192 -0.029757 -0.395507 204 51 127
-0.376232 -0.056865 -0.395507 76 0 153
-0.434512 0.011404 -0.177218 204 51 127
0.445890 -0.436331 -0.266272 76 153 0
0.296636 -0.346330 0.479154 153 0 76
0.181988 -0.176811 -0.140848 76 0 153
-0.024269 0.449028 -0.395507 204 51 127
0.054724 0.203254 -0.395507 204 51 127
-0.103055 0.081618 -0.102207 204 51 127
-0.160895 -0.006237 -0.102207 204 51 127
-0.249633 -0.044517 0.554913 76 0 153
0.399290 -0.720723 -0.257129 76 153 0
0.398325 -0.278193 -0.210485 76 153 0
0.444074 -0.660278 0.611091 153 0 76
-0.233047 -0.176811 0.466838 76 0 153
-0.434512 -0.009906 -0.289462 204 51 127
-0.341714 -0.176811 -0.131566 76 0 153
-0.434512 -0.692610 0.563024 76 0 153
0.229010 0.588928 -0.102207 204 51 127
0.408170 -0.044517 0.560911 76 0 153
-0.111206 -0.044517 -0.026689 76 0 153
0.315771 -0.247610 -0.367522 76 153 0
-0.432497 -0.044517 0.320475 76 0 153
0.445890 0.196298 -0.110280 204 51 127
-0.433232 -0.720723 -0.336998 0 127 127
-0.434512 -0.221399 -0.276982 0 127 127
-0.212369 -0.044517 0.026265 76 0 153
0.445890 -0.200229 0.550035 153 0 76
0.315771 -0.180544 -0.288603 76 0 153
-0.434512 0.500689 -0.336693 204 51 127
-0.047136 0.225750 -0.395507 204 51 127
-0.164293 0.229163 -0.395507 204 51 127
0.148342 0.393010 -0.395507 204 51 127
0.445890 0.641965 -0.242112 204 51 127
-0.434512 -0.101631 0.128191 76 0 153
0.347274 0.153667 -0.395507 204 51 127
-0.182355 -0.176811 -0.256447 76 0 153
-0.055291 -0.176811 0.475110 76 0 153
0.311376 0.748231 -0.170651 204 51 127
0.315771 -0.658531 -0.210595 76 153 0
0.338949 -0.589418 0.431762 153 0 76
0.247391 -0.176811 0.350296 76 0 153
0.188877 -0.044517 0.080728 76 0 153
-0.313377 0.099160 -0.102207 204 51 127
0.445890 0.569852 -0.185553 204 51 127
-0.274499 -0.497932 0.611091 76 0 153
0.445890 -0.006215 -0.360056 204 51 127
-0.224823 0.722191 -0.102207 204 51 127
0.161660 -0.176811 0.403322 76 0 153
-0.294961 -0.176811 -0.239407 76 0 153
-0.281583 -0.498970 0.431762 76 0 153
-0.048250 -0.044517 0.456343 76 0 153
0.188870 -0.067440 0.611091 76 0 153
0.021683 0.677313 -0.102207 204 51 127
0.139439 -0.176811 -0.229033 76 0 153
-0.116185 -0.044517 0.193230 76 0 153
0.014934 -0.176811 -0.234497 76 0 153
0.159055 -0.044517 -0.048920 76 0 153
0.445890 0.276313 -0.172831 204 51 127
0.135514 -0.044517 0.484279 76 0 153
0.136020 0.516084 -0.102207 204 51 127
0.133326 0.675319 -0.102207 204 51 127
0.296636 -0.411666 0.570817 153 0 76
0.311093 -0.176811 0.126435 76 0 153
-0.058734 0.785711 -0.102207 204 51 127
0.264378 -0.084992 -0.395507 76 0 153
0.007948 -0.094673 0.611091 76 0 153
0.195026 0.215099 -0.395507 204 51 127
0.445890 0.582927 -0.379618 204 51 127
-0.434512 0.055565 -0.102788 204 51 127
-0.241067 -0.044517 0.499131 76 0 153
0.347439 -0.594459 -0.395507 76 153 0
-0.167798 -0.176811 0.257692 76 0 153
0.340531 -0.644150 0.611091 153 0 76
0.093914 -0.044517 0.250509 76 0 153
-0.434512 0.362561 -0.322983 204 51 127
-0.104165 0.685147 -0.395507 204 51 127
-0.434512 -0.424164 0.610706 76 0 153
0.296636 -0.252596 0.441001 153 0 76
0.160879 -0.058389 -0.395507 76 0 153
0.315771 -0.397791 -0.343648 76 153 0
0.445890 0.471445 -0.350127 204 51 127
-0.192432 -0.044517 0.336491 76 0 153
0.445890 0.390088 -0.157589 204 51 127
0.348803 -0.441559 0.431762 153 0 76
0.437013 -0.719084 -0.210485 76 153 0
0.370987 -0.720723 0.557602 153 0 76
0.255965 -0.176811 0.444946 76 0 153
0.029561 0.829173 -0.241175 204 51 127
-0.434512 0.588598 -0.107188 204 51 127
-0.226943 -0.044517 0.398132 76 0 153
-0.434512 -0.372320 0.436039 76 0 153
-0.245578 -0.176811 0.566563 76 0 153
0.445890 -0.091684 0.535978 76 0 153
-0.403401 -0.044517 0.214259 76 0 153
-0.252294 -0.176811 -0.127846 76 0 153
-0.404234 -0.428939 0.431762 76 0 153
-0.434512 -0.183239 -0.392479 76 0 153
0.296636 -0.682377 0.437614 153 0 76
0.222021 0.724027 -0.102207 204 51 127
-0.434512 -0.466349 0.484849 76 0 153
-0.051106 0.826961 -0.158017 204 51 127
0.325180 0.683719 -0.395507 204 51 127
-0.434512 -0.620731 -0.300849 0 127 127
0.350802 0.366813 -0.102207 204 51 127
0.296636 -0.632946 0.549440 153 0 76
0.340372 -0.186172 -0.395507 76 153 0
0.339861 -0.044517 0.604206 76 0 153
0.445890 -0.355311 0.488169 153 0 76
-0.363078 -0.677169 0.431762 76 0 153
0.019930 -0.176811 -0.049492 76 0 153
0.048549 -0.092864 -0.395507 76 0 153
0.130864 0.291268 -0.102207 204 51 127
0.386102 -0.380316 0.431762 153 0 76
0.241894 -0.044517 0.323466 76 0 153
-0.292534 0.594207 -0.395507 204 51 127
-0.434512 -0.474610 0.549745 76 0 153
0.156259 -0.176811 0.299728 76 0 153
-0.313442 -0.395352 -0.210485 0 127 127
0.445890 -0.228583 -0.270906 76 153 0
-0.041139 0.686269 -0.102207 204 51 127
0.345187 -0.176811 0.381627 76 0 153
-0.024914 0.483337 -0.102207 204 51 127
-0.211580 -0.176811 -0.380434 76 0 153
0.444325 0.095944 -0.395507 204 51 127
0.010591 0.006797 -0.395507 204 51 127
0.077684 0.825939 -0.272905 204 51 127
-0.025005 -0.176811 -0.143658 76 0 153
-0.213103 0.222733 -0.102207 204 51 127
-0.323358 -0.611862 -0.210485 0 127 127
-0.243564 0.624295 -0.102207 204 51 127
0.392689 0.547868 -0.102207 204 51 127
0.209317 -0.176811 -0.345119 76 0 153
-0.299334 -0.569430 -0.268631 0 127 127
-0.236357 -0.083162 -0.395507 76 0 153
-0.165903 -0.176811 0.473434 76 0 153
0.130725 -0.176811 -0.042070 76 0 153
-0.247277 -0.419435 0.476525 76 0 153
-0.434512 -0.168094 0.305089 76 0 153
-0.299334 -0.370315 -0.305984 0 127 127
-0.251686 0.470736 -0.102207 204 51 127
0.074351 -0.044517 0.093707 76 0 153
0.445890 -0.174647 -0.201196 76 153 0
-0.434512 -0.031944 -0.340732 204 51 127
0.111257 0.048214 -0.395507 204 51 127
0.408903 -0.176811 0.186904 76 0 153
-0.130760 -0.176811 -0.276943 76 0 153
-0.100336 0.132183 -0.395507 204 51 127
0.336630 0.304538 -0.102207 204 51 127
-0.247277 -0.597253 0.588438 76 0 153
0.445890 0.445769 -0.226203 204 51 127
-0.365249 -0.676224 -0.210485 0 127 127
-0.299334 -0.667521 -0.392466 0 127 127
-0.396943 0.677498 -0.355083 204 51 127
-0.299488 -0.176811 0.427672 76 0 153
-0.434512 -0.211003 0.484343 76 0 153
-0.302421 -0.429242 0.611091 76 0 153
0.104633 -0.176811 -0.366807 76 0 153
0.057222 -0.176811 0.041699 76 0 153
0.310171 0.007068 -0.102207 204 51 127
-0.387243 -0.044517 0.366434 76 0 153
-0.332671 -0.720723 0.476477 76 0 153
-0.034806 -0.176811 -0.324164 76 0 153
-0.218077 0.787354 -0.107370 204 51 127
-0.339326 -0.044517 0.476764 76 0 153
-0.434512 0.279375 -0.317955 204 51 127
-0.422943 -0.559062 -0.395507 0 127 127
-0.379916 0.692984 -0.301568 204 51 127
0.287895 0.202369 -0.102207 204 51 127
0.337482 -0.176811 -0.208857 76 0 153
0.445890 -0.051172 0.122183 76 0 153
0.296636 -0.437217 0.494761 153 0 76
0.156347 -0.044517 0.399915 76 0 153
0.400180 -0.279111 0.431762 153 0 76
-0.434512 -0.052911 -0.101597 76 0 153
-0.303309 -0.425725 -0.395507 0 127 127
-0.068979 -0.044517 -0.059337 76 0 153
0.140326 -0.044517 0.301485 76 0 153
-0.377682 0.466528 -0.395507 204 51 127
0.445890 -0.314995 0.584146 153 0 76
0.198585 -0.176811 0.150786 76 0 153
0.383250 0.695058 -0.102207 204 51 127
-0.334796 -0.211369 -0.395507 0 127 127
0.427530 0.609022 -0.102207 204 51 127
-0.247277 -0.556323 0.433298 76 0 153
0.262312 0.639472 -0.102207 204 51 127
0.306918 0.539692 -0.102207 204 51 127
0.039732 -0.044517 0.279186 76 0 153
-0.410273 -0.386782 -0.395507 0 127 127
0.445890 -0.666000 -0.303047 76 153 0
-0.119334 -0.044517 0.555688 76 0 153
-0.206626 -0.176811 0.094377 76 0 153
-0.272536 -0.098768 0.611091 76 0 153
-0.423964 -0.599445 -0.210485 0 127 127
0.296636 -0.186561 0.529175 76 0 153
0.015862 0.381151 -0.395507 204 51 127
0.395304 -0.558584 -0.395507 76 153 0
-0.362039 0.052413 -0.395507 204 51 127
-0.201103 0.097950 -0.102207 204 51 127
0.209542 -0.176811 0.496173 76 0 153
-0.297641 -0.253826 0.611091 76 0 153
-0.303351 -0.720723 -0.351671 0 127 127
0.036838 0.081033 -0.102207 204 51 127
-0.434512 -0.613579 0.568905 76 0 153
-0.273729 0.699026 -0.395507 204 51 127
-0.126235 -0.176811 0.425078 76 0 153
-0.219849 0.786736 -0.221773 204 51 127
0.177400 0.448139 -0.395507 204 51 127
0.445890 -0.572765 -0.352669 76 153 0
0.445890 -0.608190 0.592705 153 0 76
-0.390758 -0.678874 0.611091 76 0 153
-0.377462 -0.232985 0.611091 76 0 153
-0.299334 -0.670238 -0.282151 0 127 127
0.224551 0.553469 -0.395507 204 51 127
0.411302 -0.176811 0.354098 76 0 153
0.217603 -0.176811 0.393520 76 0 153
-0.399076 0.675557 -0.102478 204 51 127
-0.083644 0.342581 -0.395507 204 51 127
-0.321914 0.734307 -0.117130 204 51 127
-0.034734 0.122701 -0.102207 204 51 127
0.325545 -0.194981 0.431762 153 0 76
-0.234016 0.456101 -0.395507 204 51 127
0.406059 -0.431317 0.611091 153 0 76
-0.288028 -0.176811 -0.308388 76 0 153
-0.287501 0.754574 -0.174566 204 51 127
-0.434512 -0.528025 0.462010 76 0 153
0.402110 0.229273 -0.102207 204 51 127
0.402535 -0.578707 -0.210485 76 153 0
0.315771 -0.559067 -0.355774 76 153 0
0.308249 0.580140 -0.395507 204 51 127
0.390470 -0.200457 -0.395507 76 153 0
-0.010616 -0.044517 0.035831 76 0 153
0.296636 -0.338889 0.534257 153 0 76
0.031780 0.552425 -0.395507 204 51 127
0.303894 -0.720723 0.608678 153 0 76
-0.342985 -0.290443 -0.210485 0 127 127
-0.117791 -0.176811 -0.356975 76 0 153
0.181865 0.281656 -0.395507 204 51 127
-0.313582 0.740055 -0.328158 204 51 127
-0.131944 -0.080284 -0.395507 76 0 153
0.215398 -0.044517 -0.095816 76 0 153
-0.396436 -0.681439 -0.395507 0 127 127
0.445890 -0.029572 -0.239926 204 51 127
-0.394655 -0.610926 0.431762 76 0 153
-0.434512 -0.410892 -0.293707 0 127 127
0.038607 -0.176811 0.535159 76 0 153
-0.380424 -0.044517 0.580800 76 0 153
0.445890 -0.525863 0.572741 153 0 76
-0.434512 -0.107134 0.517337 76 0 153
0.445890 0.547347 -0.274390 204 51 127
-0.434512 0.338484 -0.157205 204 51 127
-0.429276 -0.708066 0.431762 76 0 153
-0.427272 0.248425 -0.102207 204 51 127
0.445890 -0.060778 0.039357 76 0 153
0.315771 -0.496953 -0.374863 76 153 0
-0.320259 0.735448 -0.223687 204 51 127
0.296636 -0.559788 0.432117 153 0 76
0.244876 0.121097 -0.395507 204 51 127
0.326345 -0.228459 0.611091 153 0 76
0.043847 -0.044517 -0.050374 76 0 153
-0.330103 0.709693 -0.395507 204 51 127
0.192770 0.111052 -0.395507 204 51 127
0.315771 -0.380954 -0.268265 76 153 0
0.402449 -0.516834 0.611091 153 0 76
-0.293732 -0.609061 0.431762 76 0 153
-0.306799 -0.176811 -0.040483 76 0 153
0.178541 0.805105 -0.284797 204 51 127
-0.299334 -0.578935 -0.329988 0 127 127
0.315771 -0.575759 -0.224414 76 153 0
-0.434512 -0.109459 -0.269296 76 0 153
0.179308 0.049092 -0.395507 204 51 127
-0.350713 -0.134706 0.611091 76 0 153
0.339263 -0.176811 0.200737 76 0 153
-0.388815 -0.176811 -0.106511 76 0 153
0.315771 -0.479725 -0.278622 76 153 0
-0.299334 -0.268790 -0.265067 0 127 127
0.003739 -0.176811 0.213022 76 0 153
-0.403651 0.534332 -0.395507 204 51 127
0.332262 -0.044517 0.263645 76 0 153
0.437056 -0.669175 0.431762 153 0 76
-0.417446 0.324484 -0.102207 204 51 127
0.445890 0.382771 -0.291271 204 51 127
-0.123954 -0.176811 0.204150 76 0 153
-0.394306 -0.232007 -0.395507 0 127 127
-0.185246 0.555272 -0.395507 204 51 127
0.265322 -0.044517 0.564544 76 0 153
-0.419576 -0.290164 0.431762 76 0 153
0.445890 0.144991 -0.129746 204 51 127
-0.311585 0.652855 -0.102207 204 51 127
0.260642 0.124888 -0.102207 204 51 127
-0.247277 -0.274395 0.564598 76 0 153
-0.388858 -0.331044 -0.210485 0 127 127
0.445890 -0.046308 0.457999 76 0 153
-0.434512 0.631548 -0.255622 204 51 127
0.349194 0.723338 -0.198102 204 51 127
-0.249857 0.773680 -0.384468 204 51 127
0.445890 -0.133851 0.270025 76 0 153
-0.375053 -0.231068 0.431762 76 0 153
-0.331546 0.276418 -0.102207 204 51 127
0.208489 0.739755 -0.395507 204 51 127
0.389782 -0.291605 -0.395507 76 153 0
-0.123246 -0.044517 0.366249 76 0 153
-0.404263 0.382343 -0.395507 204 51 127
0.274152 -0.044517 -0.076892 76 0 153
-0.091972 -0.131248 0.611091 76 0 153
-0.251760 -0.356888 0.431762 76 0 153
0.445890 -0.297667 -0.214083 76 153 0
-0.250555 -0.176811 -0.209999 76 0 153
0.315771 -0.290835 -0.336951 76 153 0
-0.168319 0.715971 -0.395507 204 51 127
-0.009686 0.314886 -0.395507 204 51 127
-0.258571 0.127660 -0.102207 204 51 127
0.099951 0.817010 -0.395507 204 51 127
0.278730 0.764800 -0.268284 204 51 127
0.049972 0.534489 -0.102207 204 51 127
-0.183279 0.387237 -0.395507 204 51 127
-0.434512 -0.131217 0.080829 76 0 153
-0.065367 0.826003 -0.224798 204 51 127
0.445890 0.640559 -0.338558 204 51 127
-0.434512 -0.191593 0.600809 76 0 153
-0.434512 0.539604 -0.219963 204 51 127
0.156610 -0.044517 0.119358 76 0 153
-0.025271 -0.051218 0.611091 76 0 153
-0.182103 0.531869 -0.102207 204 51 127
-0.322741 -0.176811 0.337800 76 0 153
0.110975 -0.176811 -0.104652 76 0 153
0.260089 -0.176811 0.228896 76 0 153
0.329841 0.525937 -0.395507 204 51 127
0.254588 0.593659 -0.395507 204 51 127
-0.434512 0.072378 -0.345917 204 51 127
-0.434512 -0.175632 0.411778 76 0 153
0.445890 -0.720170 0.481309 153 0 76
-0.324802 -0.044517 -0.091878 76 0 153
-0.434512 -0.479179 -0.247704 0 127 127
0.235531 -0.176811 -0.241406 76 0 153
0.117949 -0.176811 0.558897 76 0 153
0.045372 -0.044517 0.536830 76 0 153
0.306288 -0.176811 -0.120183 76 0 153
-0.166584 0.803339 -0.102207 204 51 127
0.238837 -0.068920 0.611091 76 0 153
-0.342767 -0.377988 -0.395507 0 127 127
0.400212 0.684873 -0.148099 204 51 127
-0.095297 0.779716 -0.395507 204 51 127
-0.414872 0.426416 -0.102207 204 51 127
-0.434512 -0.367890 0.497279 76 0 153
-0.344088 -0.507959 -0.210485 0 127 127
0.089703 0.307597 -0.395507 204 51 127
-0.434512 -0.262822 -0.344832 0 127 127
0.011258 0.584939 -0.102207 204 51 127
-0.434512 -0.447656 -0.342762 0 127 127
0.410829 -0.044517 0.294840 76 0 153
-0.335316 -0.044517 0.188841 76 0 153
-0.003545 -0.143763 0.611091 76 0 153
0.338636 -0.654605 0.431762 153 0 76
-0.400043 -0.137066 -0.395507 76 0 153
-0.349050 -0.390834 0.611091 76 0 153
-0.235176 -0.176811 0.407832 76 0 153
0.360304 -0.176811 0.018179 76 0 153
0.197799 0.233919 -0.102207 204 51 127
-0.372648 -0.720723 0.588003 76 0 153
0.009057 0.790482 -0.102207 204 51 127
0.274440 0.045003 -0.102207 204 51 127
-0.302981 -0.044517 -0.009629 76 0 153
-0.299334 -0.315679 -0.356616 0 127 127
0.338343 -0.176811 0.288438 76 0 153
-0.393190 -0.044517 0.288351 76 0 153
0.228276 0.471388 -0.102207 204 51 127
-0.434512 0.479725 -0.251968 204 51 127
0.402284 -0.686705 0.611091 153 0 76
0.254331 0.376605 -0.395507 204 51 127
0.254881 0.369659 -0.102207 204 51 127
-0.247277 -0.470804 0.503178 76 0 153
0.400836 0.405863 -0.395507 204 51 127
0.374868 -0.044517 0.499711 76 0 153
0.315771 -0.284779 -0.281413 76 153 0
0.445890 -0.139927 0.348143 76 0 153
0.183658 0.648263 -0.395507 204 51 127
-0.066910 -0.044517 0.167533 76 0 153
-0.179456 0.613719 -0.102207 204 51 127
0.404144 0.604879 -0.395507 204 51 127
0.405170 -0.176811 0.285135 76 0 153
0.422771 0.018968 -0.395507 204 51 127
0.167616 0.772403 -0.102207 204 51 127
-0.341713 -0.176811 0.151376 76 0 153
-0.374943 -0.598732 -0.395507 0 127 127
-0.376228 0.111655 -0.395507 204 51 127
-0.299334 -0.306546 -0.233602 0 127 127
-0.284931 -0.105458 -0.395507 76 0 153
-0.434512 0.256291 -0.270144 204 51 127
0.138076 0.568212 -0.102207 204 51 127
-0.432228 -0.176811 -0.177411 76 0 153
0.276100 0.766135 -0.364667 204 51 127
-0.302124 -0.305654 0.611091 76 0 153
-0.005583 0.053115 -0.395507 204 51 127
0.390247 0.456355 -0.102207 204 51 127
0.061773 -0.044517 0.418454 76 0 153
-0.372826 -0.720723 -0.370541 0 127 127
0.391031 -0.176811 -0.110137 76 0 153
0.207206 -0.176811 -0.083137 76 0 153
-0.385491 -0.176811 0.363421 76 0 153
-0.434512 0.120239 -0.222645 204 51 127
-0.092328 -0.176811 -0.201778 76 0 153
-0.251819 -0.395138 0.611091 76 0 153
0.445890 -0.524390 -0.336057 76 153 0
-0.287771 -0.267508 0.431762 76 0 153
0.258772 0.301401 -0.395507 204 51 127
0.445890 -0.720624 0.556207 153 0 76
-0.386941 -0.044517 0.466433 76 0 153
0.445890 -0.685228 -0.354809 76 153 0
-0.312107 -0.176811 0.238278 76 0 153
0.245349 0.781743 -0.302953 204 51 127
0.445890 0.053415 -0.164199 204 51 127
-0.380034 -0.479275 0.611091 76 0 153
-0.434512 -0.342011 -0.378965 0 127 127
-0.434512 0.157162 -0.137189 204 51 127
0.445890 0.158018 -0.285728 204 51 127
-0.328754 -0.035120 -0.395507 76 0 153
0.269583 0.683137 -0.395507 204 51 127
0.445890 0.627734 -0.288506 204 51 127
0.040856 0.809473 -0.395507 204 51 127
-0.220622 -0.044517 0.599069 76 0 153
0.407457 -0.176811 0.050174 76 0 153
0.232332 0.640601 -0.395507 204 51 127
-0.160142 0.613988 -0.395507 204 51 127
0.445890 0.146108 -0.206298 204 51 127
-0.296064 0.053870 -0.102207 204 51 127
-0.150807 -0.127840 -0.395507 76 0 153
-0.322189 0.161332 -0.395507 204 51 127
0.445890 0.027076 -0.323188 204 51 127
0.445890 -0.553706 0.512552 153 0 76
0.388088 -0.044517 0.608004 76 0 153
-0.014141 -0.176811 0.401464 76 0 153
0.334592 0.716266 -0.102207 204 51 127
-0.434512 0.472925 -0.155397 204 51 127
-0.186577 -0.176811 -0.208202 76 0 153
-0.004720 0.407549 -0.102207 204 51 127
-0.389226 -0.044517 -0.052906 76 0 153
-0.056923 0.734025 -0.102207 204 51 127
-0.299334 -0.246794 -0.394829 0 127 127
-0.099029 0.419834 -0.102207 204 51 127
0.296636 -0.590636 0.469149 153 0 76
0.000185 0.714545 -0.395507 204 51 127
-0.060292 -0.176811 0.278056 76 0 153
-0.348793 -0.460070 -0.210485 0 127 127
0.108444 -0.176811 0.294365 76 0 153
0.445890 -0.412762 0.459965 153 0 76
-0.299334 -0.458228 -0.352450 0 127 127
-0.413984 0.299741 -0.395507 204 51 127
-0.434512 0.145599 -0.395254 204 51 127
-0.434512 -0.672978 0.488166 76 0 153
-0.418926 -0.591358 0.611091 76 0 153
-0.220709 -0.044517 0.236621 76 0 153
0.392919 -0.044517 0.405334 76 0 153
-0.237064 -0.161314 0.611091 76 0 153
0.445890 -0.471158 0.563471 153 0 76
0.355818 -0.029693 -0.395507 76 0 153
-0.343691 -0.318655 -0.395507 0 127 127
0.139005 0.814754 -0.191464 204 51 127
-0.434512 0.177810 -0.308254 204 51 127
-0.270269 -0.176811 0.164571 76 0 153
0.315771 -0.463169 -0.340869 76 153 0
-0.221608 -0.044517 -0.053088 76 0 153
-0.434512 -0.037097 -0.193316 204 51 127
0.445890 0.360449 -0.111364 204 51 127
-0.434512 -0.100388 -0.046067 76 0 153
0.445890 -0.161458 -0.025650 76 0 153
-0.287012 -0.682426 0.611091 76 0 153
0.296636 -0.266052 0.605555 153 0 76
-0.036612 -0.044517 0.279299 76 0 153
-0.255280 0.305328 -0.395507 204 51 127
-0.434512 -0.620098 0.466762 76 0 153
0.403001 0.538551 -0.395507 204 51 127
-0.085701 0.627985 -0.102207 204 51 127
0.416183 -0.380931 -0.210485 76 153 0
0.445890 0.239452 -0.346842 204 51 127
-0.240079 -0.176811 0.316481 76 0 153
-0.053469 -0.044517 0.350490 76 0 153
0.308667 -0.044517 0.414474 76 0 153
0.024557 0.635363 -0.395507 204 51 127
0.172613 0.323939 -0.102207 204 51 127
0.445890 0.091539 -0.301942 204 51 127
-0.434512 -0.115471 -0.141465 76 0 153
-0.434512 0.604362 -0.205658 204 51 127
0.327890 -0.044517 0.505277 76 0 153
0.066070 0.448962 -0.102207 204 51 127
-0.418768 -0.176811 0.108637 76 0 153
0.319192 0.744033 -0.357303 204 51 127
-0.434512 -0.252506 -0.234180 0 127 127
0.363122 -0.460877 -0.395507 76 153 0
0.169665 -0.176811 0.208441 76 0 153
-0.115094 0.394760 -0.395507 204 51 127
0.322953 -0.549778 0.611091 153 0 76
-0.161329 -0.176811 0.156521 76 0 153
-0.434512 -0.124859 0.348103 76 0 153
-0.434512 0.337533 -0.236921 204 51 127
0.445890 -0.126759 -0.241373 76 0 153
-0.336225 -0.044517 0.280036 76 0 153
0.272795 0.079719 -0.395507 204 51 127
-0.254747 -0.344416 0.611091 76 0 153
0.315771 -0.627965 -0.247892 76 153 0
0.297842 0.488478 -0.395507 204 51 127
-0.434512 -0.145204 0.608718 76 0 153
-0.434512 -0.132655 0.193547 76 0 153
0.101766 0.202160 -0.395507 204 51 127
0.000181 0.215564 -0.395507 204 51 127
-0.258275 0.570206 -0.102207 204 51 127
0.445890 -0.086791 -0.146840 76 0 153
-0.302569 0.203344 -0.102207 204 51 127
-0.429610 -0.044517 0.519641 76 0 153
0.192210 -0.176811 0.257976 76 0 153
0.445890 -0.275091 0.545062 153 0 76
-0.425823 -0.525567 0.611091 76 0 153
0.117767 0.819088 -0.350154 204 51 127
-0.434512 -0.500018 -0.333970 0 127 127
-0.067543 -0.071559 0.611091 76 0 153
0.379488 0.642993 -0.102207 204 51 127
-0.387651 -0.176811 0.058168 76 0 153
-0.301930 -0.443418 0.431762 76 0 153
-0.056475 -0.176811 -0.280488 76 0 153
-0.434512 -0.069218 0.004986 76 0 153
0.388238 0.691385 -0.395507 204 51 127
0.407195 -0.176811 -0.048757 76 0 153
-0.364542 -0.720723 -0.273360 0 127 127
-0.070629 -0.176811 -0.355191 76 0 153
0.054963 -0.036224 -0.395507 76 0 153
0.431079 -0.325498 -0.395507 76 153 0
0.214038 0.792729 -0.148438 204 51 127
-0.001100 -0.044517 0.122932 76 0 153
-0.434512 -0.084811 -0.348977 76 0 153
0.042308 -0.044517 0.326622 76 0 153
-0.208045 -0.176811 -0.107226 76 0 153
0.114958 -0.044517 0.202789 76 0 153
-0.269193 -0.176811 -0.380069 76 0 153
-0.434512 -0.110896 0.469199 76 0 153
0.296636 -0.397361 0.470526 153 0 76
0.445890 0.021188 -0.240248 204 51 127
0.296636 -0.234515 0.514898 153 0 76
0.445890 -0.242931 -0.367729 76 153 0
-0.389775 -0.514825 0.431762 76 0 153
-0.247277 -0.314849 0.478202 76 0 153
0.438703 -0.670633 -0.210485 76 153 0
-0.093080 0.081707 -0.395507 204 51 127
-0.412900 0.433001 -0.395507 204 51 127
0.255074 0.759148 -0.102207 204 51 127
0.445890 0.476218 -0.272021 204 51 127
0.400906 -0.720723 0.470429 153 0 76
0.445890 -0.062889 -0.293646 76 0 153
0.021276 0.829730 -0.356088 204 51 127
0.445890 -0.159311 0.031303 76 0 153
0.445890 -0.160455 -0.368982 76 0 153
0.412236 0.308284 -0.395507 204 51 127
0.384769 -0.474184 0.611091 153 0 76
-0.401617 0.514707 -0.102207 204 51 127
-0.113854 0.329530 -0.102207 204 51 127
0.296636 -0.503805 0.438739 153 0 76
0.080188 -0.176811 0.379051 76 0 153
0.194561 0.786289 -0.395507 204 51 127
0.327728 0.434516 -0.395507 204 51 127
0.296636 -0.678693 0.544390 153 0 76
-0.434512 0.636413 -0.342754 204 51 127
-0.310750 0.491115 -0.102207 204 51 127
0.412725 -0.083253 0.611091 76 0 153
0.168002 -0.044517 0.165870 76 0 153
-0.134851 -0.044517 0.096329 76 0 153
-0.295449 -0.655110 0.431762 76 0 153
0.392745 -0.176811 -0.183187 76 0 153
0.167365 -0.139960 -0.395507 76 0 153
0.193842 0.686265 -0.102207 204 51 127
0.315771 -0.543099 -0.294813 76 153 0
0.445890 -0.280156 0.487511 153 0 76
-0.144168 0.811379 -0.290227 204 51 127
-0.299334 -0.638121 -0.249481 0 127 127
0.138777 0.011692 -0.102207 204 51 127
0.050901 -0.176811 -0.271434 76 0 153
0.134674 0.276429 -0.395507 204 51 127
0.248363 -0.176811 0.165012 76 0 153
0.445890 0.236296 -0.273725 204 51 127
0.301687 0.104720 -0.102207 204 51 127
0.132095 0.613344 -0.395507 204 51 127
0.253179 0.548214 -0.102207 204 51 127
0.112174 -0.044517 0.572342 76 0 153
-0.388964 -0.325096 0.431762 76 0 153
0.208240 -0.176811 0.007851 76 0 153
0.315771 -0.427232 -0.251265 76 153 0
0.276772 -0.044517 0.027202 76 0 153
0.240622 0.324736 -0.102207 204 51 127
-0.299334 -0.213239 -0.212111 0 127 127
-0.379757 0.356539 -0.102207 204 51 127
0.359624 -0.720723 -0.234693 76 153 0
-0.255978 0.621413 -0.395507 204 51 127
-0.022960 0.024954 -0.102207 204 51 127
-0.247277 -0.215895 0.493069 76 0 153
-0.405515 0.669701 -0.262209 204 51 127
0.315771 -0.624121 -0.304919 76 153 0
0.106311 -0.095549 0.611091 76 0 153
-0.042930 0.356787 -0.102207 204 51 127
-0.390041 -0.292545 -0.395507 0 127 127
0.181421 -0.176811 -0.045726 76 0 153
-0.106886 0.536661 -0.395507 204 51 127
0.130808 0.470361 -0.102207 204 51 127
-0.299794 -0.716495 -0.210485 0 127 127
-0.191661 0.796564 -0.255877 204 51 127
0.296636 -0.512885 0.610496 153 0 76
0.415989 -0.339504 0.431762 153 0 76
0.403641 -0.683338 -0.395507 76 153 0
0.328929 -0.044517 0.338299 76 0 153
-0.077423 -0.032597 -0.102207 76 0 153
0.445890 -0.271711 -0.251174 76 153 0
-0.178705 0.768330 -0.395507 204 51 127
-0.247277 -0.402254 0.434698 76 0 153
0.445890 0.229780 -0.173221 204 51 127
0.353226 -0.682033 -0.395507 76 153 0
-0.078361 0.259619 -0.102207 204 51 127
0.403927 0.391200 -0.102207 204 51 127
-0.342417 0.182025 -0.102207 204 51 127
-0.367500 -0.044517 -0.008835 76 0 153
0.002354 -0.044517 -0.086936 76 0 153
-0.299334 -0.464285 -0.253668 0 127 127
0.340830 -0.496510 -0.210485 76 153 0
-0.034441 -0.176811 -0.187744 76 0 153
-0.013201 0.554847 -0.395507 204 51 127
0.172496 -0.044517 0.441955 76 0 153
-0.315989 -0.063010 0.611091 76 0 153
0.445890 0.334013 -0.342594 204 51 127
0.055798 0.724840 -0.395507 204 51 127
0.188409 0.186744 -0.102207 204 51 127
0.366141 -0.044517 -0.072335 76 0 153
0.445890 -0.622913 0.459144 153 0 76
0.264726 -0.176811 0.489091 76 0 153
-0.304481 -0.291467 -0.395507 0 127 127
-0.434512 0.415135 -0.314891 204 51 127
0.430447 -0.472245 0.431762 153 0 76
-0.254508 -0.044517 0.282484 76 0 153
-0.434512 -0.276890 0.582920 76 0 153
0.296636 -0.586805 0.563535 153 0 76
-0.034475 -0.052679 -0.395507 76 0 153
0.418118 0.263794 -0.395507 204 51 127
-0.248317 0.774462 -0.183629 204 51 127
0.361139 0.038044 -0.102207 204 51 127
-0.161127 0.571923 -0.102207 204 51 127
-0.227742 -0.044517 0.068492 76 0 153
-0.332957 0.463635 -0.395507 204 51 127
-0.247277 -0.627669 0.492209 76 0 153
-0.393341 -0.176811 0.150663 76 0 153
-0.341113 -0.642814 0.611091 76 0 153
0.445890 -0.511216 0.477222 153 0 76
0.445890 -0.153456 0.571046 76 0 153
0.203672 0.510418 -0.102207 204 51 127
-0.385831 0.687604 -0.204119 204 51 127
0.206851 -0.044517 0.019168 76 0 153
-0.434512 -0.117605 -0.313260 76 0 153
-0.326191 0.296224 -0.395507 204 51 127
-0.289727 -0.189374 0.611091 76 0 153
-0.434512 0.199846 -0.202839 204 51 127
0.230792 -0.044517 0.525042 76 0 153
-0.231271 -0.176811 -0.011757 76 0 153
0.315771 -0.655321 -0.343177 76 153 0
0.421006 -0.176811 0.430470 153 0 76
0.163454 0.809765 -0.326924 204 51 127
0.135256 0.772534 -0.395507 204 51 127
-0.189130 0.432383 -0.102207 204 51 127
-0.208249 0.208389 -0.395507 204 51 127
0.114275 0.819800 -0.247932 204 51 127
0.445890 -0.580575 -0.254190 76 153 0
0.173358 -0.176811 -0.200279 76 0 153
-0.231884 0.531633 -0.102207 204 51 127
0.361024 -0.044517 0.179095 76 0 153
-0.256842 0.500495 -0.395507 204 51 127
-0.171205 -0.176811 0.377919 76 0 153
-0.328219 -0.518798 -0.395507 0 127 127
0.445890 -0.531758 -0.259261 76 153 0
0.425191 -0.044517 0.218926 76 0 153
0.445890 0.482224 -0.393323 204 51 127
0.089043 0.635353 -0.102207 204 51 127
0.309444 -0.044517 0.560335 76 0 153
-0.434512 -0.326607 -0.249568 0 127 127
-0.302972 0.510103 -0.395507 204 51 127
0.032197 0.292501 -0.395507 204 51 127
0.430343 0.287765 -0.102207 204 51 127
0.362391 0.236887 -0.395507 204 51 127
0.445890 -0.093861 0.180857 76 0 153
-0.195835 -0.044517 0.502195 76 0 153
0.410044 -0.252228 -0.395507 76 153 0
0.173004 0.598576 -0.102207 204 51 127
0.445890 0.544545 -0.221789 204 51 127
0.260292 -0.120875 0.611091 76 0 153
-0.410516 -0.475319 -0.395507 0 127 127
-0.434512 -0.516856 0.566596 76 0 153
0.218185 -0.044517 0.362975 76 0 153
0.150334 -0.176811 0.048264 76 0 153
0.372096 0.439315 -0.395507 204 51 127
0.325833 0.606959 -0.102207 204 51 127
0.177550 -0.146498 0.611091 76 0 153
-0.434512 0.259635 -0.180948 204 51 127
0.039902 0.491559 -0.102207 204 51 127
-0.416357 -0.044517 0.172140 76 0 153
-0.434512 -0.045053 0.610508 76 0 153
-0.331015 -0.584893 -0.395507 0 127 127
0.445890 -0.216101 0.591136 153 0 76
0.172671 0.356292 -0.395507 204 51 127
-0.042878 0.443135 -0.102207 204 51 127
0.338814 0.727255 -0.395507 204 51 127
-0.385706 0.202125 -0.102207 204 51 127
-0.434512 -0.027971 -0.149575 204 51 127
0.445890 -0.396229 0.608444 153 0 76
0.366705 -0.448434 -0.210485 76 153 0
0.244659 0.240001 -0.102207 204 51 127
0.391172 -0.643840 -0.210485 76 153 0
-0.106131 0.456958 -0.395507 204 51 127
0.445890 0.641181 -0.197766 204 51 127
-0.394974 -0.189159 -0.210485 76 0 153
-0.050882 -0.044517 0.525479 76 0 153
0.100414 -0.138942 0.611091 76 0 153
0.354601 0.152488 -0.102207 204 51 127
0.032731 -0.176811 0.261060 76 0 153
0.256390 -0.176811 -0.074654 76 0 153
0.445890 -0.693636 0.516050 153 0 76
0.036247 0.135796 -0.395507 204 51 127
0.079715 0.662010 -0.395507 204 51 127
0.445890 -0.146776 0.202563 76 0 153
0.445890 -0.122149 0.417438 76 0 153
0.406695 -0.530450 -0.210485 76 153 0
-0.199542 0.014048 -0.102207 204 51 127
-0.044383 -0.123547 -0.395507 76 0 153
0.313790 -0.410653 0.611091 153 0 76
0.445890 0.544055 -0.341410 204 51 127
-0.339970 0.593323 -0.102207 204 51 127
-0.263021 -0.176811 0.259377 76 0 153
-0.136362 -0.176811 0.002325 76 0 153
-0.087762 0.588532 -0.395507 204 51 127
0.232995 0.435141 -0.395507 204 51 127
0.074921 0.009442 -0.102207 204 51 127
0.445890 -0.082239 -0.079971 76 0 153
0.407190 -0.720723 -0.341616 76 153 0
-0.389596 -0.469920 0.431762 76 0 153
-0.165761 0.805594 -0.347459 204 51 127
-0.096619 -0.176811 -0.245065 76 0 153
-0.389387 -0.720723 0.499977 76 0 153
0.296636 -0.489157 0.482997 153 0 76
-0.434512 -0.383419 0.578735 76 0 153
0.205502 -0.002712 -0.102207 76 0 153
-0.245019 -0.044517 0.455655 76 0 153
-0.434512 -0.164577 -0.235245 76 0 153
-0.434512 -0.312354 0.513218 76 0 153
-0.243370 0.356293 -0.395507 204 51 127
0.445890 -0.568623 0.565253 153 0 76
0.128752 0.389395 -0.102207 204 51 127
0.035536 0.176203 -0.102207 204 51 127
0.080459 -0.044517 0.174773 76 0 153
-0.247277 -0.317671 0.571095 76 0 153
0.012659 -0.044517 0.198114 76 0 153
0.004746 -0.176811 0.308756 76 0 153
-0.307104 -0.720723 0.607761 76 0 153
0.081864 -0.044517 -0.073071 76 0 153
-0.337141 0.039970 -0.102207 204 51 127
-0.058918 -0.176811 0.234729 76 0 153
-0.278898 -0.044517 0.115048 76 0 153
0.380037 -0.221031 0.431762 153 0 76
-0.353859 0.712271 -0.138724 204 51 127
0.350041 -0.720723 -0.346956 76 153 0
0.324048 0.740683 -0.286644 204 51 127
-0.434512 0.544217 -0.106385 204 51 127
-0.344912 0.718443 -0.301916 204 51 127
0.296636 -0.443346 0.541328 153 0 76
-0.247277 -0.373932 0.524964 76 0 153
-0.299334 -0.360748 -0.355146 0 127 127
-0.075884 -0.176811 -0.060704 76 0 153
-0.264567 -0.007368 -0.395507 204 51 127
-0.065441 0.171066 -0.102207 204 51 127
-0.339809 0.247667 -0.395507 204 51 127
0.445890 0.395715 -0.389894 204 51 127
-0.434512 -0.617097 -0.343892 0 127 127
-0.196768 0.430278 -0.395507 204 51 127
0.038858 -0.155373 0.611091 76 0 153
-0.247277 -0.458529 0.569423 76 0 153
0.115260 0.122598 -0.395507 204 51 127
-0.434512 0.119746 -0.158640 204 51 127
0.391245 -0.176811 0.098913 76 0 153
-0.434512 -0.111882 0.042302 76 0 153
0.369524 -0.176811 -0.023915 76 0 153
0.105125 0.163083 -0.102207 204 51 127
0.169238 -0.044517 0.578641 76 0 153
-0.247277 -0.177544 0.514724 76 0 153
0.203395 -0.048220 -0.395507 76 0 153
-0.247277 -0.415397 0.573378 76 0 153
-0.179608 -0.176811 0.060924 76 0 153
0.178735 0.692185 -0.395507 204 51 127
0.205372 -0.176811 -0.302381 76 0 153
-0.227862 0.550386 -0.395507 204 51 127
0.036133 0.828732 -0.198790 204 51 127
0.445890 -0.143719 0.111809 76 0 153
-0.296481 -0.044517 0.465565 76 0 153
0.296636 -0.533844 0.530625 153 0 76
0.272655 -0.176811 0.001638 76 0 153
0.445890 -0.078213 -0.381555 76 0 153
0.445890 0.408546 -0.201130 204 51 127
0.344598 0.609632 -0.395507 204 51 127
0.332323 -0.044517 -0.000298 76 0 153
0.445890 -0.460409 0.520154 153 0 76
-0.314627 0.557517 -0.395507 204 51 127
-0.434512 0.029938 -0.273778 204 51 127
0.445890 -0.036373 -0.153210 76 0 153
0.307489 -0.176811 0.354208 76 0 153
-0.195886 -0.131967 -0.395507 76 0 153
-0.167116 0.475534 -0.395507 204 51 127
-0.092016 -0.044517 0.452844 76 0 153
-0.299334 -0.497712 -0.333797 0 127 127
-0.062041 0.672498 -0.395507 204 51 127
-0.434512 0.628714 -0.170553 204 51 127
0.220170 -0.044517 0.449406 76 0 153
-0.076162 -0.176811 0.368915 76 0 153
0.247819 -0.176811 0.578966 76 0 153
-0.299334 -0.691960 -0.245397 0 127 127
-0.397321 -0.523114 -0.395507 0 127 127
-0.113501 0.309592 -0.395507 204 51 127
0.104501 -0.176811 -0.321805 76 0 153
-0.065961 -0.044517 0.052098 76 0 153
0.307321 0.378682 -0.395507 204 51 127
-0.219513 0.051772 -0.102207 204 51 127
-0.434512 0.380529 -0.146507 204 51 127
-0.434512 -0.321574 -0.296143 0 127 127
0.445890 -0.208095 -0.233533 76 153 0
0.440080 -0.566239 0.431762 153 0 76
0.031479 -0.176811 0.493186 76 0 153
0.398023 -0.383461 -0.395507 76 153 0
-0.388740 -0.373557 -0.210485 0 127 127
-0.154306 -0.044517 0.579850 76 0 153
0.030177 -0.058237 0.611091 76 0 153
-0.327847 0.364544 -0.395507 204 51 127
0.403997 -0.720723 0.585711 153 0 76
0.391880 -0.176811 0.392784 76 0 153
0.410278 -0.591895 0.611091 153 0 76
-0.062988 -0.176811 -0.108438 76 0 153
0.248072 0.026968 -0.395507 204 51 127
-0.299334 -0.625916 -0.337997 0 127 127
-0.343775 -0.176811 0.429402 76 0 153
0.341689 -0.331880 -0.395507 76 153 0
0.445890 0.353250 -0.252995 204 51 127
-0.237147 0.128242 -0.395507 204 51 127
-0.292480 -0.176811 -0.142296 76 0 153
-0.040772 0.506153 -0.395507 204 51 127
-0.046806 0.062352 -0.395507 204 51 127
-0.372668 -0.176811 -0.021471 76 0 153
0.257875 -0.126720 -0.395507 76 0 153
0.039386 0.593940 -0.395507 204 51 127
-0.434512 0.301061 -0.354232 204 51 127
0.340709 -0.483941 0.431762 153 0 76
0.098615 0.798728 -0.102207 204 51 127
0.079720 0.430937 -0.395507 204 51 127
0.099254 0.233146 -0.102207 204 51 127
-0.247277 -0.255847 0.432045 76 0 153
0.445890 -0.174623 0.166956 76 0 153
-0.037938 -0.044517 0.203495 76 0 153
-0.434512 0.050713 -0.192220 204 51 127
-0.434512 -0.082872 0.435991 76 0 153
0.445890 0.429877 -0.343644 204 51 127
0.328433 -0.336879 0.431762 153 0 76
0.364113 -0.383179 0.611091 153 0 76
-0.434512 -0.331177 0.606304 76 0 153
0.296636 -0.269998 0.552378 153 0 76
0.232776 0.033278 -0.102207 204 51 127
0.351380 -0.176811 0.112098 76 0 153
-0.434512 -0.073945 0.230573 76 0 153
0.445890 -0.643256 0.518831 153 0 76
-0.247277 -0.254808 0.601698 76 0 153
-0.210545 -0.176811 0.226852 76 0 153
-0.403852 0.089036 -0.102207 204 51 127
-0.176938 -0.049748 -0.395507 76 0 153
0.388784 -0.601482 -0.395507 76 153 0
0.403667 -0.099546 -0.395507 76 0 153
0.105107 -0.176811 0.105248 76 0 153
-0.362724 0.561723 -0.395507 204 51 127
0.051834 -0.176811 -0.022312 76 0 153
0.250676 0.726182 -0.395507 204 51 127
0.241105 0.783292 -0.346057 204 51 127
-0.434512 -0.162465 0.451532 76 0 153
-0.434512 0.596302 -0.359239 204 51 127
0.445890 -0.046044 0.319133 76 0 153
0.356956 0.112995 -0.395507 204 51 127
-0.343237 -0.176811 -0.180583 76 0 153
0.321568 -0.220228 -0.210485 76 153 0
0.341643 -0.467705 0.611091 153 0 76
0.205323 0.016484 -0.395507 204 51 127
0.268506 -0.039436 -0.395507 204 51 127
-0.434512 -0.086468 0.565140 76 0 153
0.387896 0.696074 -0.324719 204 51 127
0.313599 -0.154016 0.611091 76 0 153
-0.322803 -0.720723 0.519427 76 0 153
-0.434512 0.448827 -0.341129 204 51 127
0.008871 -0.006281 -0.102207 204 51 127
-0.434512 0.288343 -0.243493 204 51 127
-0.014239 -0.176811 -0.024738 76 0 153
-0.226798 -0.176811 0.185578 76 0 153
-0.030895 0.400656 -0.395507 204 51 127
0.445890 -0.113381 0.498539 76 0 153
-0.394378 0.628237 -0.395507 204 51 127
0.445890 0.478838 -0.194317 204 51 127
-0.337414 -0.523104 0.611091 76 0 153
0.315771 -0.691196 -0.249710 76 153 0
0.315771 -0.581285 -0.319095 76 153 0
0.275429 -0.176811 -0.351388 76 0 153
0.234959 -0.044517 0.097019 76 0 153
0.427595 0.525440 -0.102207 204 51 127
-0.233444 0.781996 -0.338586 204 51 127
-0.434512 -0.550591 0.532565 76 0 153
-0.247277 -0.540810 0.504837 76 0 153
-0.212765 -0.176811 -0.289229 76 0 153
0.360129 0.242233 -0.102207 204 51 127
-0.434512 -0.699911 -0.239472 0 127 127
-0.331688 -0.586398 0.431762 76 0 153
-0.176643 -0.044517 0.255134 76 0 153
0.296636 -0.285708 0.469071 153 0 76
-0.300805 -0.176811 0.192494 76 0 153
0.119037 -0.026784 -0.395507 204 51 127
0.445890 -0.352862 -0.220488 76 153 0
-0.434428 -0.044517 0.053964 76 0 153
0.195019 0.087040 -0.102207 204 51 127
-0.358701 0.448954 -0.102207 204 51 127
-0.083120 0.366338 -0.102207 204 51 127
-0.392399 -0.634066 0.611091 76 0 153
-0.434512 -0.168134 0.533122 76 0 153
0.295637 -0.044517 0.474782 76 0 153
-0.434512 0.192599 -0.346773 204 51 127
-0.299426 -0.176811 0.380414 76 0 153
-0.278330 -0.582292 0.611091 76 0 153
0.386553 -0.720624 0.431762 153 0 76
0.445890 -0.070170 0.577300 76 0 153
-0.221685 -0.176811 0.365530 76 0 153
0.164935 -0.176811 0.572557 76 0 153
0.445890 -0.056663 0.365923 76 0 153
-0.163131 0.321131 -0.395507 204 51 127
-0.434512 -0.037004 -0.257889 204 51 127
0.275829 -0.176811 -0.279330 76 0 153
0.039596 -0.044517 0.040705 76 0 153
-0.386894 -0.115066 0.611091 76 0 153
-0.434512 -0.389404 -0.246672 0 127 127
0.323166 -0.044517 -0.053304 76 0 153
0.445890 -0.081180 0.424476 76 0 153
0.388104 -0.044517 0.259286 76 0 153
-0.049162 -0.176811 0.149474 76 0 153
-0.180843 -0.144923 0.611091 76 0 153
0.445890 -0.092430 0.268249 76 0 153
-0.434512 0.113945 -0.313726 204 51 127
-0.159978 -0.176811 -0.353504 76 0 153
0.430491 -0.013110 -0.102207 204 51 127
-0.299334 -0.263797 -0.305798 0 127 127
0.299775 -0.196761 0.611091 153 0 76
0.382328 0.700481 -0.190311 204 51 127
0.273091 0.447703 -0.102207 204 51 127
-0.311352 -0.044517 0.247490 76 0 153
0.316045 -0.328440 0.611091 153 0 76
0.417622 -0.465747 -0.210485 76 153 0
-0.349079 -0.720723 0.438260 76 0 153
-0.305833 0.244600 -0.102207 204 51 127
0.035816 0.412942 -0.102207 204 51 127
-0.083411 -0.176811 0.505155 76 0 153
-0.281113 0.757816 -0.261905 204 51 127
0.042489 0.501670 -0.395507 204 51 127
0.020392 -0.044517 0.482511 76 0 153
0.445890 -0.403659 -0.290779 76 153 0
0.122899 -0.044517 -0.067905 76 0 153
0.296636 -0.182987 0.569855 76 0 153
-0.206651 -0.044517 -0.014169 76 0 153
0.445890 0.444729 -0.128792 204 51 127
-0.110667 0.818215 -0.143736 204 51 127
-0.434512 0.563664 -0.289120 204 51 127
-0.290377 -0.044517 0.553996 76 0 153
