ply
format ascii 1.0
element vertex 1240
property float x
property float y
property float z
property uchar red
property uchar green
property uchar blue
end_header
-0.341727 0.429912 -0.280709 153 76 0
0.339410 0.479004 -0.273671 153 0 76
-0.123654 0.284044 -0.318949 153 76 0
-0.348416 -0.218356 -0.257531 153 0 76
0.314542 -0.156892 0.362138 204 51 127
-0.068754 0.414507 -0.341377 153 76 0
-0.365363 -0.156892 0.010703 204 51 127
-0.242927 -0.156892 -0.005860 204 51 127
0.165550 0.256560 -0.201328 153 76 0
0.191677 -0.129559 -0.250475 204 51 127
0.143620 0.264777 -0.313190 153 76 0
-0.325273 -0.558788 -0.260596 153 0 76
0.367153 -0.067334 -0.034858 204 51 127
0.329507 -0.328552 -0.183246 76 0 153
0.150274 -0.021813 -0.025939 204 51 127
0.350115 0.138771 -0.259603 153 0 76
0.351162 0.471220 -0.306089 153 0 76
-0.197384 0.470399 -0.252799 153 76 0
0.349606 0.250873 -0.215786 153 0 76
0.160002 -0.156892 0.175657 204 51 127
-0.337007 -0.013094 -0.252465 76 153 0
0.392888 -0.073961 0.196393 204 51 127
-0.417643 0.188414 0.275197 255 0 0
0.189442 -0.156892 -0.167228 204 51 127
0.383034 -0.130461 0.089900 204 51 127
0.278883 -0.156892 -0.141929 204 51 127
-0.339113 -0.588264 -0.305014 153 0 76
0.096230 0.203041 -0.309333 153 76 0
-0.244851 0.051718 -0.276021 153 76 0
0.180672 0.489090 -0.346780 153 76 0
-0.391232 -0.406997 0.460022 76 0 153
0.206776 -0.028494 0.520139 204 51 127
0.356768 0.572613 -0.333759 76 0 153
0.395041 -0.699186 0.521007 153 76 0
-0.319032 -0.325730 -0.259954 153 0 76
-0.466830 -0.095206 0.324437 0 0 255
0.110629 -0.156892 0.430518 204 51 127
-0.238155 -0.156892 0.238997 204 51 127
0.336952 -0.146351 -0.175510 76 0 153
-0.255211 0.098816 -0.199830 153 76 0
-0.094885 0.454779 -0.348652 153 76 0
-0.231073 0.441863 -0.331424 153 76 0
0.040590 -0.018272 0.147164 204 51 127
-0.325060 -0.023428 0.440386 204 51 127
-0.025960 0.193615 -0.188051 153 76 0
0.334386 0.074395 -0.254880 153 0 76
-0.393551 -0.156892 0.503141 204 51 127
0.329728 -0.156892 -0.230522 204 51 127
-0.263682 0.155120 -0.278698 153 76 0
-0.233522 0.339937 -0.222015 153 76 0
0.390916 0.198785 -0.073911 127 127 0
0.161572 0.341514 -0.217763 153 76 0
0.044885 0.170057 -0.306626 153 76 0
0.041016 0.572171 -0.330363 76 0 153
-0.249712 -0.021052 0.409146 204 51 127
-0.210716 -0.156892 0.363934 204 51 127
-0.435520 0.125711 0.328530 0 0 255
0.376018 0.529815 -0.273451 153 0 76
0.073288 -0.018841 0.314169 204 51 127
-0.418234 0.083772 0.308970 0 0 255
-0.073756 0.277036 -0.319963 153 76 0
0.142999 0.051718 -0.267017 153 76 0
-0.414734 -0.129442 0.311195 0 0 255
-0.298694 -0.147106 -0.249189 204 51 127
0.450356 0.197650 0.089649 127 127 0
0.352106 0.342455 -0.285301 153 0 76
-0.065536 0.237294 -0.315044 153 76 0
0.355104 -0.610972 -0.280101 76 0 153
-0.366141 -0.145684 0.468209 76 0 153
0.005484 -0.128534 -0.250928 204 51 127
0.374113 -0.283690 0.452362 153 76 0
-0.317025 -0.192490 -0.192019 153 0 76
0.210635 -0.156892 -0.104644 204 51 127
0.104997 -0.019280 0.330699 204 51 127
-0.417258 0.211299 0.080345 255 0 0
-0.137367 0.490852 -0.259209 153 76 0
0.336592 -0.040060 -0.151023 204 51 127
0.223725 -0.121043 0.533469 204 51 127
-0.318665 0.148150 -0.194356 153 76 0
-0.375673 -0.249604 -0.197463 153 0 76
0.372221 -0.468876 0.463866 153 76 0
-0.372720 -0.033559 0.198749 204 51 127
0.235750 0.067743 -0.220687 153 76 0
0.110457 -0.148574 0.525317 204 51 127
0.356023 -0.339101 0.472878 153 76 0
-0.230742 -0.029623 -0.214284 204 51 127
-0.252248 0.554218 -0.327853 153 76 0
0.023398 0.255828 -0.197558 153 76 0
0.322425 -0.713256 -0.339153 76 0 153
0.031096 -0.097406 -0.250865 204 51 127
-0.190781 -0.156892 -0.181419 204 51 127
0.330729 -0.413237 -0.273775 76 0 153
0.407593 -0.141540 0.351844 0 255 0
0.150516 -0.156892 0.471694 204 51 127
0.102202 -0.156892 -0.097787 204 51 127
0.338524 -0.044014 -0.186597 204 51 127
0.220463 0.487600 -0.258160 153 76 0
-0.348825 -0.585661 -0.243143 153 0 76
-0.012085 -0.156892 0.183544 204 51 127
-0.014544 -0.024916 -0.145793 204 51 127
-0.052849 -0.018046 0.464627 204 51 127
0.016247 0.131973 -0.303849 153 76 0
-0.367742 0.045518 -0.253275 76 153 0
-0.058651 -0.018318 0.240209 204 51 127
-0.096014 -0.156892 -0.221541 204 51 127
-0.406514 -0.038523 0.366958 204 51 127
-0.338451 -0.027998 0.262606 204 51 127
0.302321 0.225876 -0.272345 153 76 0
0.354840 -0.099027 -0.156095 204 51 127
-0.030883 -0.156892 0.123879 204 51 127
-0.373922 0.448867 -0.302283 76 153 0
-0.256359 -0.121863 -0.250355 204 51 127
-0.357601 0.491658 -0.309641 76 153 0
0.085494 0.595547 -0.356122 76 0 153
0.213446 -0.156892 0.373313 204 51 127
-0.411483 -0.769749 0.520053 76 0 153
0.288600 0.364978 -0.235042 153 76 0
0.300173 -0.028170 0.044538 204 51 127
0.009558 0.150390 -0.184561 153 76 0
0.181274 -0.029284 -0.211068 204 51 127
0.449264 0.127418 0.294215 0 255 0
-0.003017 -0.156892 0.461685 204 51 127
0.348447 -0.125901 -0.222213 204 51 127
0.395268 -0.048420 0.281850 204 51 127
-0.156734 -0.156892 0.415753 204 51 127
-0.466817 -0.047534 0.323077 0 0 255
-0.210150 0.551934 -0.288233 153 76 0
0.135721 -0.019765 0.312975 204 51 127
-0.377279 -0.115587 -0.243559 153 0 76
-0.112838 0.312811 -0.209242 153 76 0
0.360371 -0.229867 -0.192029 76 0 153
-0.316518 0.206624 -0.270076 153 76 0
-0.324998 -0.088252 0.534512 204 51 127
-0.200445 -0.023296 -0.090023 204 51 127
0.305205 0.468071 -0.313227 153 76 0
-0.190147 -0.156892 -0.013663 204 51 127
0.357733 -0.413247 -0.219372 76 0 153
0.145028 0.109969 -0.194977 153 76 0
-0.090141 -0.020122 0.058217 204 51 127
-0.363460 -0.474733 -0.281333 153 0 76
0.248604 -0.156892 -0.190644 204 51 127
0.408756 -0.144098 0.315344 0 255 0
0.042655 0.207124 -0.311297 153 76 0
0.373582 -0.040231 0.181681 204 51 127
0.427524 0.014905 0.340317 0 255 0
-0.100846 -0.023617 -0.098366 204 51 127
-0.382890 0.144374 -0.256232 76 153 0
0.347990 -0.250437 -0.259511 76 0 153
0.040421 -0.023031 -0.066965 204 51 127
0.418548 -0.142380 0.408181 204 51 127
-0.387520 -0.041740 0.145378 204 51 127
-0.317962 -0.309466 -0.184198 153 0 76
0.120524 0.559248 -0.341783 153 76 0
0.297212 -0.027304 0.076660 204 51 127
0.048027 -0.020782 0.032050 204 51 127
-0.437403 0.073464 0.336043 0 0 255
0.346503 -0.001099 -0.252504 153 0 76
0.176330 -0.026366 -0.175198 204 51 127
0.359002 -0.340114 -0.243915 76 0 153
0.054669 -0.018530 0.290127 204 51 127
0.194807 0.558944 -0.352701 76 0 153
0.410032 0.177884 -0.112367 127 127 0
0.326725 -0.033256 -0.056799 204 51 127
-0.134462 -0.156892 0.326745 204 51 127
0.124740 -0.019814 0.089979 204 51 127
0.150843 -0.156892 -0.099755 204 51 127
0.191414 0.595547 -0.344712 76 0 153
-0.326354 -0.493906 -0.219440 153 0 76
-0.042063 -0.022844 -0.057009 204 51 127
-0.185257 -0.156892 0.077764 204 51 127
-0.275203 -0.156892 0.438898 204 51 127
0.098953 0.268476 -0.317558 153 76 0
-0.052734 0.176853 -0.307525 153 76 0
0.395007 0.196241 -0.035766 127 127 0
-0.264424 0.051718 -0.246677 153 76 0
-0.345945 0.510793 -0.298684 153 76 0
-0.141058 0.180564 -0.186406 153 76 0
-0.332708 0.258773 -0.222288 153 76 0
0.409768 -0.095376 0.342885 204 51 127
-0.346460 -0.505605 -0.286262 153 0 76
0.158107 -0.151469 0.521031 204 51 127
-0.371425 -0.334348 0.495069 76 0 153
-0.382974 0.112057 -0.212068 76 153 0
0.391590 0.225194 -0.185316 127 127 0
-0.082024 0.133981 -0.186285 153 76 0
-0.212844 0.232272 -0.198974 153 76 0
0.155210 -0.156892 0.314228 204 51 127
-0.394088 0.578893 -0.305849 76 0 153
0.031892 -0.156892 0.352081 204 51 127
0.408924 0.204883 0.293398 127 127 0
0.406935 0.180158 -0.077878 127 127 0
-0.383208 0.258779 -0.273051 76 153 0
0.405574 0.227383 -0.138215 127 127 0
-0.020831 0.396389 -0.231191 153 76 0
-0.314862 -0.241819 -0.217563 153 0 76
-0.363954 -0.689634 -0.332219 153 0 76
-0.155694 -0.156892 0.075018 204 51 127
0.164028 0.565287 -0.326927 76 0 153
0.406961 -0.362761 0.471294 153 76 0
-0.401352 -0.156892 0.362868 204 51 127
0.063252 -0.156892 -0.006610 204 51 127
-0.193970 -0.020127 0.466941 204 51 127
-0.403423 -0.561294 0.518159 76 0 153
-0.057802 0.595547 -0.344065 76 0 153
-0.161748 -0.156892 -0.185474 204 51 127
0.359598 -0.292465 -0.236371 76 0 153
-0.137237 0.341149 -0.326823 153 76 0
0.242013 -0.156892 0.142404 204 51 127
-0.070193 -0.156892 0.042845 204 51 127
0.346306 0.199086 -0.247513 127 127 0
0.357462 -0.462357 -0.223419 76 0 153
-0.251464 -0.156892 0.493176 204 51 127
-0.341174 -0.032581 -0.021164 204 51 127
-0.315626 -0.023017 0.383408 204 51 127
-0.287261 -0.156892 -0.204226 204 51 127
-0.126427 -0.019415 0.303544 204 51 127
-0.063513 0.051718 -0.236303 153 76 0
-0.373046 -0.192540 -0.253917 153 0 76
0.380883 -0.655315 0.477697 153 76 0
-0.383108 0.116259 -0.238370 76 153 0
-0.334770 0.471427 -0.309201 153 76 0
0.251211 0.359358 -0.308325 153 76 0
-0.349752 -0.156892 0.438924 204 51 127
0.321745 -0.508242 -0.222841 76 0 153
-0.442920 -0.103760 0.533719 204 51 127
-0.383822 -0.132460 -0.044475 204 51 127
0.000866 0.266982 -0.199676 153 76 0
0.012593 0.551934 -0.291116 153 76 0
-0.276201 -0.156892 0.405101 204 51 127
-0.331368 -0.753935 -0.325175 153 0 76
0.298204 -0.156892 -0.167358 204 51 127
-0.151554 -0.032950 -0.234368 204 51 127
-0.387233 0.197094 -0.189926 255 0 0
-0.202837 -0.130080 0.532747 204 51 127
0.338803 -0.039682 -0.125266 204 51 127
-0.416478 -0.311696 0.454102 76 0 153
-0.342317 -0.156892 0.501139 204 51 127
0.371379 -0.156892 0.349209 204 51 127
-0.250251 -0.021652 0.070840 204 51 127
0.247279 -0.100362 -0.250095 204 51 127
0.082424 0.428041 -0.343581 153 76 0
-0.215918 0.168597 -0.291518 153 76 0
0.056482 0.058840 -0.300147 153 76 0
-0.166717 0.133091 -0.186386 153 76 0
0.098091 0.551934 -0.285819 153 76 0
0.331359 -0.031381 0.111892 204 51 127
0.095217 -0.026167 -0.175598 204 51 127
0.364103 -0.597296 0.471945 153 76 0
0.063537 -0.023157 -0.075333 204 51 127
0.225771 -0.156892 -0.142604 204 51 127
0.114712 0.078709 -0.211946 153 76 0
0.041781 -0.019107 0.107204 204 51 127
-0.442891 0.177500 0.198949 255 0 0
-0.002201 -0.020785 0.037911 204 51 127
0.216425 -0.021008 0.284155 204 51 127
-0.411422 0.160301 -0.242505 255 0 0
-0.206304 0.551934 -0.314709 153 76 0
0.240902 -0.098230 0.534949 204 51 127
0.112697 -0.140589 -0.250667 204 51 127
-0.345903 -0.316834 -0.180508 153 0 76
-0.053522 0.480131 -0.353691 153 76 0
-0.237504 0.518051 -0.267687 153 76 0
-0.143481 -0.019587 0.349100 204 51 127
0.430786 -0.002576 0.285631 0 255 0
-0.275092 -0.022980 0.500395 204 51 127
-0.326125 -0.460248 -0.210972 153 0 76
-0.013877 0.289027 -0.203861 153 76 0
-0.172926 -0.156892 0.196217 204 51 127
0.307934 -0.032716 -0.189590 204 51 127
-0.270281 -0.021753 0.182496 204 51 127
-0.277631 -0.156892 0.246365 204 51 127
0.070848 -0.018727 0.358469 204 51 127
-0.025597 -0.156892 0.378530 204 51 127
0.349992 0.366814 -0.288922 153 0 76
-0.299534 -0.156892 0.372251 204 51 127
0.369639 0.208675 -0.228551 153 0 76
0.062206 -0.018668 0.200185 204 51 127
0.363996 -0.030768 0.524547 204 51 127
-0.025400 -0.156892 0.068949 204 51 127
0.208410 -0.156892 0.408117 204 51 127
0.164993 -0.109469 0.535084 204 51 127
0.050853 0.406733 -0.340085 153 76 0
-0.263164 0.402581 -0.316732 153 76 0
0.435534 0.198041 -0.147948 127 127 0
0.256186 -0.030875 -0.223951 204 51 127
0.402066 0.205547 0.143419 127 127 0
0.195544 0.264046 -0.305340 153 76 0
-0.236600 -0.025372 0.512501 204 51 127
0.007733 0.175360 -0.307512 153 76 0
-0.176787 -0.020106 0.333994 204 51 127
0.436583 0.209465 -0.122086 127 127 0
-0.002531 -0.017482 0.201726 204 51 127
-0.351300 -0.030997 0.177875 204 51 127
0.308504 -0.156892 0.318765 204 51 127
0.042480 0.138471 -0.303989 153 76 0
0.351988 -0.205861 0.475501 153 76 0
0.396862 -0.123739 0.217280 204 51 127
-0.012223 -0.031680 -0.232489 204 51 127
0.407374 -0.433632 0.493207 153 76 0
-0.239173 -0.156892 0.374421 204 51 127
0.316420 -0.648448 -0.263694 76 0 153
0.254733 -0.156892 -0.106215 204 51 127
-0.367957 -0.474170 -0.211924 153 0 76
0.416029 0.228850 -0.006556 127 127 0
-0.121016 -0.024460 -0.131935 204 51 127
0.327309 -0.721799 -0.285436 76 0 153
0.193533 -0.156892 0.344385 204 51 127
-0.261355 0.551934 -0.301852 153 76 0
0.319310 0.157812 -0.232302 153 0 76
-0.288323 0.338899 -0.298937 153 76 0
0.200246 -0.156892 0.141672 204 51 127
-0.466445 0.107052 0.308556 0 0 255
0.177438 0.233986 -0.197739 153 76 0
-0.436212 -0.119537 0.350955 0 0 255
-0.033813 -0.156892 -0.004980 204 51 127
0.115828 -0.156892 0.384561 204 51 127
0.397241 -0.151903 0.254960 204 51 127
0.348609 -0.520328 -0.223992 76 0 153
-0.379347 -0.489929 0.516223 76 0 153
-0.349161 -0.388988 -0.271120 153 0 76
0.393124 -0.038019 0.395148 204 51 127
0.423331 0.178120 0.178765 127 127 0
-0.426150 -0.288591 0.488447 76 0 153
-0.376350 -0.030585 0.433620 204 51 127
0.072169 -0.018997 0.108491 204 51 127
0.339858 -0.608424 -0.310554 76 0 153
-0.046319 -0.030289 -0.225258 204 51 127
0.422569 0.225319 -0.179617 127 127 0
-0.204926 0.074022 -0.286246 153 76 0
0.352537 -0.156892 0.105184 204 51 127
0.284276 -0.024100 0.178753 204 51 127
-0.379659 -0.007531 -0.235591 76 153 0
0.402066 0.018912 0.316908 0 255 0
0.354713 -0.031780 0.297347 204 51 127
-0.370553 -0.305539 0.468164 76 0 153
0.175384 -0.020416 0.276345 204 51 127
-0.151994 -0.156892 0.227466 204 51 127
-0.214349 -0.156892 0.463353 204 51 127
0.168707 -0.020487 0.179231 204 51 127
0.077524 -0.021527 0.490143 204 51 127
0.152118 -0.020153 0.229965 204 51 127
0.042217 -0.023662 0.505202 204 51 127
0.125014 0.482819 -0.351754 153 76 0
0.265595 0.116412 -0.270856 153 76 0
-0.039317 0.124644 -0.189457 153 76 0
0.418234 -0.104203 0.289700 0 255 0
0.450425 0.194956 0.225532 127 127 0
0.391912 0.186782 -0.248015 127 127 0
-0.346208 -0.025357 0.511204 204 51 127
0.046812 0.344114 -0.330038 153 76 0
0.266597 -0.156892 0.260928 204 51 127
0.113112 -0.156892 0.061593 204 51 127
-0.145622 -0.019911 0.080264 204 51 127
-0.023070 -0.137777 -0.250923 204 51 127
0.191383 -0.156892 0.431120 204 51 127
-0.294610 -0.021919 0.292814 204 51 127
0.325062 0.428190 -0.272833 153 76 0
0.206700 0.551934 -0.295266 153 76 0
0.132874 0.073572 -0.294947 153 76 0
0.030999 -0.156892 0.275060 204 51 127
-0.109723 -0.156892 -0.127663 204 51 127
0.337173 0.440801 -0.300498 153 0 76
0.356687 -0.156892 0.450640 204 51 127
-0.234543 0.099817 -0.281764 153 76 0
0.273045 0.288122 -0.217892 153 76 0
0.308337 -0.156892 -0.122912 204 51 127
-0.299392 -0.156892 0.287485 204 51 127
-0.344022 0.539758 -0.276221 153 76 0
0.368313 -0.156892 0.227850 204 51 127
-0.065519 -0.156892 0.108527 204 51 127
-0.385396 -0.156892 0.176819 204 51 127
-0.332153 -0.386161 -0.193877 153 0 76
-0.429019 0.229530 -0.048523 255 0 0
0.262828 0.220180 -0.203246 153 76 0
0.412418 0.182318 0.045598 127 127 0
-0.461222 0.208990 0.264130 255 0 0
-0.128100 0.260609 -0.315585 153 76 0
0.305985 -0.156892 -0.056644 204 51 127
-0.335376 0.559253 -0.319407 153 76 0
-0.221859 -0.020822 0.305278 204 51 127
0.355756 0.417997 -0.296965 153 0 76
0.161169 -0.147192 -0.249149 204 51 127
0.318102 -0.027777 0.232702 204 51 127
-0.421982 0.227559 0.054954 255 0 0
0.313814 0.036445 -0.216640 153 0 76
0.056693 -0.156892 0.265406 204 51 127
-0.112113 0.440405 -0.243539 153 76 0
-0.386908 0.254109 -0.221455 76 153 0
-0.265784 0.290540 -0.296841 153 76 0
-0.260295 -0.021487 0.249776 204 51 127
-0.385151 0.191646 -0.240364 76 153 0
-0.256700 -0.156892 0.125774 204 51 127
-0.426957 -0.174970 0.468783 76 0 153
0.353116 -0.383848 -0.190602 76 0 153
0.398759 -0.090881 0.244463 204 51 127
-0.302988 -0.156892 0.396020 204 51 127
-0.133734 -0.022435 -0.049765 204 51 127
-0.446704 0.027750 0.339464 0 0 255
-0.415069 0.204761 0.022920 255 0 0
0.175039 0.074793 -0.215068 153 76 0
0.401823 -0.041850 0.329528 0 255 0
0.222817 0.575707 -0.366526 76 0 153
-0.113371 -0.025163 -0.155809 204 51 127
0.358925 -0.434954 0.495547 153 76 0
-0.450437 0.201521 -0.148378 255 0 0
0.048236 -0.156892 0.501267 204 51 127
-0.216525 -0.156892 -0.085867 204 51 127
-0.141970 0.531884 -0.363327 153 76 0
0.375898 -0.144148 0.531455 204 51 127
-0.085532 -0.018585 0.432337 204 51 127
-0.445166 0.194843 -0.195178 255 0 0
-0.060145 -0.156892 0.251704 204 51 127
0.178051 -0.156892 0.321460 204 51 127
0.429997 -0.074739 0.348152 0 255 0
-0.373754 -0.403525 -0.248356 153 0 76
0.302835 -0.032842 -0.231432 204 51 127
0.393804 -0.097861 0.197429 204 51 127
0.040633 -0.156892 0.180939 204 51 127
-0.115431 -0.156892 0.439751 204 51 127
0.183266 -0.024433 0.510204 204 51 127
-0.238054 0.572482 -0.365908 76 0 153
-0.086769 -0.018833 0.166982 204 51 127
0.128971 0.387804 -0.228937 153 76 0
-0.290112 0.263642 -0.286397 153 76 0
0.065595 0.053050 -0.229064 153 76 0
-0.335014 0.155960 -0.250244 76 153 0
0.363694 -0.156892 0.171782 204 51 127
-0.321463 -0.156892 0.356112 204 51 127
-0.465627 0.194310 0.175577 255 0 0
-0.173673 0.270575 -0.312105 153 76 0
0.380292 0.209210 -0.150319 127 127 0
0.402066 0.065284 0.312887 0 255 0
-0.358502 -0.039909 -0.091049 204 51 127
-0.333313 -0.270311 -0.176020 153 0 76
-0.340441 0.278245 -0.244659 153 76 0
-0.099962 0.068437 -0.299100 153 76 0
-0.223676 -0.024162 -0.118265 204 51 127
0.373456 0.337713 -0.256779 153 0 76
-0.285554 0.595547 -0.350377 76 0 153
0.378541 0.571373 -0.284155 76 0 153
0.215065 0.160083 -0.186331 153 76 0
-0.378504 -0.568154 0.470868 76 0 153
0.007753 -0.020174 0.063874 204 51 127
-0.405492 -0.701786 0.484387 76 0 153
0.163015 0.054732 -0.229064 153 76 0
-0.415330 0.172806 -0.165716 255 0 0
-0.414093 -0.036954 0.464920 204 51 127
0.108787 0.350215 -0.329286 153 76 0
-0.192383 -0.026881 -0.181674 204 51 127
0.400009 -0.593226 0.513472 153 76 0
-0.226774 -0.144077 0.531554 204 51 127
-0.026128 -0.156892 -0.041391 204 51 127
-0.245055 -0.021074 0.357315 204 51 127
-0.327347 -0.156892 0.472084 204 51 127
0.275079 -0.143741 0.532020 204 51 127
0.354622 -0.039239 0.025247 204 51 127
-0.380656 -0.051306 -0.016235 204 51 127
0.284895 0.577562 -0.311306 76 0 153
-0.175786 -0.021218 -0.000666 204 51 127
0.138979 0.357707 -0.327945 153 76 0
0.140280 -0.156892 0.246613 204 51 127
0.215448 -0.156892 -0.225315 204 51 127
0.191125 -0.020981 0.086553 204 51 127
-0.257968 -0.021873 0.010157 204 51 127
-0.420572 -0.599522 0.495418 76 0 153
0.253465 0.304447 -0.218751 153 76 0
-0.304181 -0.156892 0.168372 204 51 127
0.382643 -0.169278 0.445302 153 76 0
0.305070 -0.135657 -0.247490 76 0 153
0.105888 -0.019376 0.283610 204 51 127
0.076389 0.561226 -0.328126 76 0 153
0.344217 -0.742361 -0.291883 76 0 153
0.362076 -0.088658 -0.227654 76 0 153
-0.283112 0.229100 -0.205592 153 76 0
-0.162788 -0.019847 0.363810 204 51 127
-0.376364 -0.032578 0.298539 204 51 127
-0.087598 0.498624 -0.261555 153 76 0
-0.112447 0.478185 -0.352531 153 76 0
0.305676 -0.442398 -0.250991 76 0 153
0.084738 0.078209 -0.299118 153 76 0
0.429933 0.066071 0.337042 0 255 0
0.100871 0.051718 -0.285261 153 76 0
0.275376 -0.021639 0.421633 204 51 127
-0.369729 -0.723597 -0.295856 153 0 76
-0.014554 0.478446 -0.353462 153 76 0
0.305503 -0.031008 -0.097550 204 51 127
0.003299 -0.156892 -0.086225 204 51 127
0.407774 -0.207705 0.499734 153 76 0
0.111341 -0.021711 -0.016770 204 51 127
0.304041 -0.156892 0.103228 204 51 127
0.267745 0.072068 -0.267019 153 76 0
-0.280491 -0.029323 -0.209327 204 51 127
-0.330078 -0.033239 -0.166981 204 51 127
-0.004290 -0.156892 0.268111 204 51 127
0.304446 -0.402866 -0.220258 76 0 153
-0.326687 -0.029520 -0.229250 76 153 0
0.233296 -0.023922 -0.109299 204 51 127
-0.320185 -0.156892 0.219983 204 51 127
-0.375700 -0.475531 0.496493 76 0 153
-0.316556 -0.066744 -0.249144 204 51 127
0.366409 -0.043543 0.071737 204 51 127
0.368338 0.152042 -0.215179 153 0 76
0.271857 -0.026304 -0.071286 204 51 127
-0.084069 -0.018610 0.405920 204 51 127
0.350021 -0.156892 -0.028501 204 51 127
-0.415989 -0.086277 0.320482 0 0 255
-0.360991 -0.156892 -0.013942 204 51 127
0.404288 -0.129515 0.282833 204 51 127
0.123800 0.564350 -0.372340 76 0 153
-0.415310 -0.137108 0.239526 204 51 127
-0.335057 0.595547 -0.333882 76 0 153
0.124498 0.529834 -0.362939 153 76 0
0.218919 0.349351 -0.223960 153 76 0
0.182605 -0.156892 0.480796 204 51 127
-0.038203 -0.023936 -0.105047 204 51 127
0.018958 0.202400 -0.189158 153 76 0
0.029792 -0.024109 -0.113583 204 51 127
-0.392559 0.222650 -0.210426 255 0 0
-0.057248 -0.070478 0.536275 204 51 127
0.001140 0.450718 -0.246725 153 76 0
-0.154765 0.574946 -0.330266 76 0 153
0.409719 -0.397260 0.483851 153 76 0
-0.371468 -0.585452 -0.255335 153 0 76
-0.455312 -0.020287 0.286450 0 0 255
-0.348925 0.456055 -0.276588 76 153 0
0.277620 0.134723 -0.188270 153 76 0
0.005410 -0.156892 0.390874 204 51 127
0.136113 -0.156892 0.273610 204 51 127
0.006681 -0.017651 0.398845 204 51 127
0.073847 -0.018613 0.448891 204 51 127
-0.061392 0.418295 -0.236944 153 76 0
-0.418109 -0.094123 0.349328 0 0 255
-0.317558 0.514774 -0.324865 153 76 0
-0.212028 -0.156892 0.221706 204 51 127
0.166523 0.558944 -0.349634 76 0 153
-0.026369 -0.047868 -0.250915 204 51 127
-0.417612 0.165906 0.295258 0 0 255
0.441040 0.043733 0.283421 0 255 0
0.046357 -0.089488 0.536244 204 51 127
-0.090672 0.051718 -0.271768 153 76 0
0.358159 -0.407333 -0.247858 76 0 153
0.319009 -0.482329 -0.215986 76 0 153
0.357661 -0.293470 -0.259749 76 0 153
0.370901 0.259730 -0.270896 153 0 76
-0.167396 -0.156892 0.005148 204 51 127
-0.239551 0.485795 -0.257584 153 76 0
-0.318292 -0.341152 -0.207946 153 0 76
0.073378 -0.023684 -0.099914 204 51 127
0.033010 -0.018133 0.348060 204 51 127
-0.167095 -0.156892 0.466498 204 51 127
-0.425057 0.182654 0.012384 255 0 0
0.331442 0.334275 -0.239861 153 0 76
-0.219847 0.176555 -0.188603 153 76 0
-0.109230 0.201597 -0.309268 153 76 0
0.354964 -0.662069 -0.301191 76 0 153
0.189553 -0.156892 0.009695 204 51 127
-0.020816 0.574678 -0.374671 76 0 153
0.409035 -0.182521 0.461503 153 76 0
-0.069693 0.106611 -0.301871 153 76 0
0.057005 -0.156892 0.315904 204 51 127
0.412194 -0.151632 0.488675 153 76 0
-0.034817 -0.025130 -0.157519 204 51 127
0.387848 -0.091443 0.145398 204 51 127
0.221037 0.287838 -0.212061 153 76 0
-0.321737 -0.446830 -0.252191 153 0 76
-0.353742 0.347081 -0.241096 76 153 0
0.083682 -0.156892 0.465819 204 51 127
0.072480 -0.115371 -0.250765 204 51 127
-0.379949 -0.615847 0.500620 76 0 153
-0.250813 -0.156892 -0.207784 204 51 127
0.223471 -0.029355 -0.210938 204 51 127
-0.417927 0.015689 0.312309 0 0 255
-0.275047 -0.156892 0.205515 204 51 127
-0.416613 -0.078174 0.269246 204 51 127
-0.132846 -0.072808 0.535772 204 51 127
0.188093 -0.020675 0.235456 204 51 127
-0.400278 -0.506049 0.516579 76 0 153
0.313790 -0.697097 -0.311407 76 0 153
0.206905 0.482395 -0.341072 153 76 0
-0.308688 0.559252 -0.331581 153 76 0
-0.436064 -0.148681 0.446418 204 51 127
0.218729 0.051718 -0.267320 153 76 0
0.138905 0.161904 -0.300261 153 76 0
0.382597 -0.640934 0.520437 153 76 0
-0.438079 -0.056777 0.346225 0 0 255
-0.365045 0.187640 -0.258159 255 0 0
0.324652 -0.303113 -0.179437 76 0 153
0.377064 -0.132490 0.035173 204 51 127
-0.265714 -0.156892 0.038201 204 51 127
-0.166696 -0.156892 -0.087175 204 51 127
0.375376 -0.031875 0.478330 204 51 127
-0.064412 -0.021977 -0.021169 204 51 127
0.229069 -0.156892 0.025138 204 51 127
0.186126 0.579098 -0.327876 76 0 153
-0.040906 0.130357 -0.303664 153 76 0
-0.349323 -0.156892 0.086538 204 51 127
-0.422152 -0.499125 0.482807 76 0 153
0.138850 -0.019595 0.436754 204 51 127
-0.357510 0.502931 -0.278874 76 153 0
0.420672 -0.111453 0.436832 204 51 127
-0.393342 0.483619 -0.284898 76 153 0
0.248190 -0.156892 -0.042802 204 51 127
0.359721 -0.246843 -0.214610 76 0 153
0.375205 -0.403706 0.459817 153 76 0
0.198278 -0.021029 0.119259 204 51 127
0.448009 0.196908 0.003546 127 127 0
0.143471 -0.126607 -0.250592 204 51 127
0.356607 -0.179593 -0.173424 76 0 153
0.221439 0.098071 -0.281084 153 76 0
-0.384565 0.169002 -0.223308 76 153 0
-0.386402 0.234713 -0.240089 76 153 0
-0.173505 -0.116535 -0.250557 204 51 127
0.402066 0.124578 0.289417 0 255 0
-0.381370 0.310544 -0.225236 76 153 0
0.308353 0.520314 -0.268488 153 76 0
0.395560 -0.279915 0.512437 153 76 0
0.186099 0.463432 -0.250634 153 76 0
-0.403796 -0.762186 0.495911 76 0 153
-0.264400 0.082303 -0.273104 153 76 0
0.368268 0.177497 -0.245684 153 0 76
0.199778 -0.156892 -0.073894 204 51 127
-0.101225 -0.022001 -0.026605 204 51 127
0.171028 -0.156892 0.151001 204 51 127
-0.164470 -0.023677 0.505311 204 51 127
0.027935 -0.047814 -0.250803 204 51 127
-0.094762 0.380636 -0.227054 153 76 0
0.336048 -0.254140 -0.174860 76 0 153
0.399999 -0.093000 0.301066 0 255 0
0.312472 -0.023049 0.494346 204 51 127
0.207780 0.155573 -0.288312 153 76 0
0.300732 -0.287130 -0.233600 76 0 153
-0.018986 0.551934 -0.300452 153 76 0
-0.374156 -0.370734 -0.207027 153 0 76
0.067538 -0.029632 -0.217756 204 51 127
-0.262127 0.533473 -0.272463 153 76 0
-0.418226 -0.551480 0.502728 76 0 153
0.059802 -0.138861 0.532672 204 51 127
-0.403783 -0.087956 0.149985 204 51 127
-0.246872 -0.156892 -0.088091 204 51 127
-0.262237 -0.048973 -0.249240 204 51 127
-0.087041 0.254657 -0.197336 153 76 0
-0.417619 0.138457 0.299592 0 0 255
0.386984 -0.037637 0.346730 204 51 127
-0.232910 -0.156892 -0.039059 204 51 127
0.314810 -0.054625 0.534693 204 51 127
0.092166 -0.156892 0.349820 204 51 127
0.341502 -0.156892 0.128861 204 51 127
-0.377849 -0.075473 -0.222030 153 0 76
0.034329 0.117051 -0.192217 153 76 0
-0.192961 -0.024705 -0.137597 204 51 127
-0.058095 0.057234 -0.289750 153 76 0
0.145969 -0.023664 -0.103756 204 51 127
0.182962 -0.020324 0.392654 204 51 127
0.414162 0.229762 -0.043857 127 127 0
0.318125 -0.030850 0.026930 204 51 127
0.041834 0.160810 -0.184561 153 76 0
-0.157036 -0.156892 0.388651 204 51 127
-0.405162 -0.263246 0.512136 76 0 153
0.299975 -0.156892 0.384935 204 51 127
-0.047808 -0.131032 0.533686 204 51 127
0.312839 -0.156892 0.062385 204 51 127
0.164220 -0.156892 0.049273 204 51 127
-0.058205 -0.020776 0.032942 204 51 127
-0.142589 -0.156892 -0.020754 204 51 127
-0.424515 -0.430018 0.484365 76 0 153
-0.435370 -0.105688 0.430899 204 51 127
0.160662 -0.033080 0.527703 204 51 127
0.016383 -0.156892 -0.222282 204 51 127
0.180925 -0.156892 0.257374 204 51 127
0.416256 0.223939 0.137941 127 127 0
-0.200275 0.521810 -0.268809 153 76 0
0.450882 0.199511 0.140424 127 127 0
-0.347430 -0.645919 -0.261591 153 0 76
0.436256 0.181582 -0.049267 127 127 0
0.133024 -0.019808 0.265911 204 51 127
-0.075357 -0.018613 0.330372 204 51 127
-0.050844 -0.018175 0.203747 204 51 127
0.287132 -0.025564 0.106369 204 51 127
0.040213 0.289710 -0.203991 153 76 0
0.360318 0.091245 -0.255671 153 0 76
-0.150543 0.424447 -0.339797 153 76 0
-0.400195 0.180802 -0.120473 255 0 0
0.181090 0.329466 -0.216794 153 76 0
0.383126 -0.078166 0.106629 204 51 127
-0.046965 -0.105149 -0.250865 204 51 127
-0.461523 -0.096311 0.346732 0 0 255
-0.085616 -0.019974 0.479187 204 51 127
0.174650 -0.024159 -0.119351 204 51 127
0.228136 -0.020938 0.422839 204 51 127
-0.366864 -0.183692 0.499851 76 0 153
-0.324367 -0.129054 0.532026 204 51 127
-0.274918 -0.023764 -0.009120 204 51 127
-0.116073 -0.020593 0.034213 204 51 127
-0.408386 -0.475358 0.515960 76 0 153
0.138572 0.595547 -0.354943 76 0 153
0.297756 -0.156892 0.494210 204 51 127
0.404205 -0.520580 0.479899 153 76 0
0.145041 0.461007 -0.249900 153 76 0
0.106348 -0.029170 -0.211434 204 51 127
-0.370519 -0.619038 -0.310194 153 0 76
-0.447921 0.182654 0.011887 255 0 0
-0.385489 -0.101801 -0.020042 204 51 127
0.359683 0.229984 -0.207745 153 0 76
0.068361 -0.018781 0.270067 204 51 127
0.362911 0.347710 -0.233958 153 0 76
-0.415972 0.225321 -0.178520 255 0 0
0.017669 0.570450 -0.330011 76 0 153
-0.271511 -0.151166 0.521722 204 51 127
-0.218892 0.083557 -0.208082 153 76 0
0.132209 -0.152139 0.519388 204 51 127
0.216002 0.244153 -0.202969 153 76 0
0.039898 0.080470 -0.210542 153 76 0
-0.388497 -0.083929 0.012653 204 51 127
0.334814 -0.096895 -0.249404 204 51 127
0.104019 -0.021173 0.008010 204 51 127
-0.199057 0.485252 -0.345580 153 76 0
-0.256985 0.061787 -0.225435 153 76 0
0.356440 -0.534412 -0.267318 76 0 153
-0.121028 0.551929 -0.344748 153 76 0
-0.350877 -0.156892 0.386529 204 51 127
-0.375134 -0.030995 0.524933 204 51 127
-0.227349 -0.043287 0.534195 204 51 127
-0.354334 0.299682 -0.229768 76 153 0
-0.376309 -0.199281 -0.222121 153 0 76
0.365695 0.082787 -0.217553 153 0 76
0.373169 -0.140889 -0.002687 204 51 127
-0.116084 0.104206 -0.197485 153 76 0
0.383920 -0.586129 0.471174 153 76 0
0.353530 -0.256766 0.482770 153 76 0
0.386827 0.201879 -0.105062 127 127 0
0.367199 -0.517001 0.466855 153 76 0
-0.390320 -0.120940 0.017932 204 51 127
-0.033267 -0.156892 0.327454 204 51 127
0.442471 0.214711 0.027726 127 127 0
-0.335312 -0.156892 -0.127687 204 51 127
0.334492 -0.156892 0.316401 204 51 127
-0.411875 0.208216 -0.021276 255 0 0
0.146842 -0.156892 0.130176 204 51 127
-0.336451 -0.064573 0.534594 204 51 127
-0.201272 -0.156892 0.412965 204 51 127
-0.371475 -0.066582 -0.136363 204 51 127
-0.226568 -0.131603 -0.250427 204 51 127
-0.262146 0.417234 -0.240185 153 76 0
-0.157924 -0.019595 0.466162 204 51 127
-0.417658 0.198621 0.209687 255 0 0
0.175985 -0.058077 0.535489 204 51 127
-0.347582 0.316719 -0.280976 76 153 0
0.257265 -0.022259 0.072301 204 51 127
0.004414 0.360851 -0.332884 153 76 0
0.025065 -0.156892 0.220092 204 51 127
-0.466691 0.068736 0.311114 0 0 255
0.205622 -0.156892 0.210955 204 51 127
-0.276426 -0.156892 0.368362 204 51 127
0.174266 0.551934 -0.305137 153 76 0
0.187316 0.384068 -0.228002 153 76 0
-0.430639 0.104240 0.280513 0 0 255
0.318545 -0.000270 -0.252451 153 0 76
-0.271610 0.577453 -0.317376 76 0 153
-0.316351 0.422640 -0.305433 153 76 0
0.352742 -0.097819 0.534205 204 51 127
0.449632 0.204206 0.183938 127 127 0
-0.289419 0.131727 -0.187213 153 76 0
-0.321437 0.368175 -0.293848 153 76 0
-0.174611 -0.021778 -0.025426 204 51 127
-0.370631 -0.064395 0.534394 204 51 127
-0.143716 0.260322 -0.199936 153 76 0
-0.394910 -0.111593 0.062370 204 51 127
-0.337457 0.205855 -0.227531 76 153 0
0.336802 -0.045254 -0.216432 204 51 127
-0.007753 0.355129 -0.220355 153 76 0
0.429920 0.224940 0.117031 127 127 0
-0.417832 0.191025 0.096150 255 0 0
0.042620 -0.018309 0.211380 204 51 127
-0.374228 -0.365662 -0.244860 153 0 76
0.359726 -0.189412 -0.250636 76 0 153
0.077578 -0.156892 -0.136104 204 51 127
0.337087 0.526165 -0.315929 153 0 76
-0.207925 0.399074 -0.327583 153 76 0
-0.053796 -0.156892 0.296221 204 51 127
-0.386865 -0.033569 0.326280 204 51 127
0.386789 -0.734972 0.490311 153 76 0
0.332889 -0.156892 -0.005790 204 51 127
0.441946 0.150679 0.323812 0 255 0
-0.393844 -0.449866 0.462685 76 0 153
0.224041 0.204167 -0.195888 153 76 0
-0.108820 -0.026969 -0.185779 204 51 127
-0.457047 0.069057 0.282320 0 0 255
0.094620 0.482352 -0.353423 153 76 0
-0.066957 -0.029053 0.521352 204 51 127
-0.316472 -0.277107 -0.248034 153 0 76
-0.328863 -0.681013 -0.322097 153 0 76
0.352405 -0.156892 0.244154 204 51 127
-0.430364 -0.046253 0.533991 204 51 127
0.292477 -0.042447 0.533535 204 51 127
0.337545 -0.030037 0.258862 204 51 127
-0.147318 -0.033378 0.528037 204 51 127
-0.406980 -0.092347 0.177627 204 51 127
0.189013 0.117202 -0.289235 153 76 0
0.056864 -0.156892 -0.049190 204 51 127
-0.238564 -0.156892 0.262258 204 51 127
0.398295 0.197445 0.004136 127 127 0
-0.237822 -0.021268 0.185434 204 51 127
0.193962 -0.021141 -0.001276 204 51 127
0.449200 -0.113048 0.334058 0 255 0
0.192265 -0.156892 0.283314 204 51 127
0.150328 -0.020038 0.280609 204 51 127
-0.074628 -0.026609 -0.182394 204 51 127
0.106209 0.288563 -0.204570 153 76 0
-0.355370 0.045031 -0.186004 76 153 0
0.143854 0.262317 -0.201135 153 76 0
-0.063690 -0.156892 -0.104699 204 51 127
-0.309953 -0.156892 0.000258 204 51 127
-0.414964 -0.242065 0.449776 76 0 153
-0.370681 -0.215639 -0.257204 153 0 76
-0.463928 0.185525 0.241734 255 0 0
0.398701 -0.496052 0.514999 153 76 0
-0.001696 -0.156892 0.220243 204 51 127
0.360746 -0.098737 -0.178732 76 0 153
0.411030 -0.285498 0.477867 153 76 0
0.097035 -0.156892 -0.213322 204 51 127
0.084778 -0.156892 -0.049005 204 51 127
-0.438569 -0.126241 0.531547 204 51 127
-0.021790 -0.156892 -0.170756 204 51 127
0.177597 0.295281 -0.312555 153 76 0
-0.073981 -0.018974 0.111162 204 51 127
0.322545 0.229965 -0.227413 153 0 76
0.042025 0.496471 -0.356739 153 76 0
0.312479 -0.044663 -0.250619 153 0 76
0.322324 0.372702 -0.253555 153 76 0
-0.437223 0.003886 0.340746 0 0 255
0.077433 -0.018779 0.384503 204 51 127
-0.152888 -0.019965 0.212464 204 51 127
-0.095719 0.422731 -0.238109 153 76 0
-0.214204 -0.156892 0.300489 204 51 127
-0.226867 0.378065 -0.228866 153 76 0
-0.318730 -0.172951 -0.207683 153 0 76
-0.383459 0.575333 -0.330371 76 0 153
0.067520 -0.021800 -0.015500 204 51 127
-0.311082 -0.156892 0.067956 204 51 127
-0.353439 0.139021 -0.259632 76 153 0
-0.103359 -0.136808 0.532702 204 51 127
-0.148620 0.341360 -0.216739 153 76 0
-0.056670 0.551690 -0.330876 153 76 0
0.069185 0.539688 -0.367229 153 76 0
0.391807 -0.560639 0.469566 153 76 0
-0.152593 0.416381 -0.236441 153 76 0
0.285017 -0.027631 -0.047740 204 51 127
0.357034 -0.121360 -0.142997 204 51 127
0.403231 -0.047324 0.364312 204 51 127
0.359062 -0.259806 -0.192516 76 0 153
-0.069421 0.465976 -0.251478 153 76 0
-0.205611 -0.020859 0.147188 204 51 127
-0.374126 -0.423557 0.485341 76 0 153
0.418044 -0.097051 0.417389 204 51 127
-0.402606 -0.140456 0.123358 204 51 127
-0.174546 0.409063 -0.234520 153 76 0
0.362952 -0.394512 0.514503 153 76 0
-0.171784 -0.030730 -0.225254 204 51 127
-0.413073 -0.662426 0.517679 76 0 153
-0.267052 -0.021332 0.395159 204 51 127
-0.387529 -0.718125 0.487183 76 0 153
0.068509 0.500378 -0.262092 153 76 0
-0.090728 -0.023186 -0.077985 204 51 127
0.353757 -0.712438 -0.323817 76 0 153
-0.306642 -0.022869 0.317377 204 51 127
-0.452923 -0.121490 0.290372 0 0 255
-0.394270 -0.044512 0.171858 204 51 127
-0.137187 -0.019410 0.397010 204 51 127
-0.187599 0.078833 -0.211847 153 76 0
-0.440302 0.176439 0.233532 255 0 0
-0.159457 -0.092056 -0.250591 204 51 127
-0.418083 0.059223 0.300829 0 0 255
0.148647 0.423837 -0.338254 153 76 0
0.015541 0.385772 -0.336847 153 76 0
0.166584 0.437892 -0.338761 153 76 0
-0.146355 -0.113395 -0.250623 204 51 127
0.039614 -0.156892 0.092540 204 51 127
0.428794 -0.146717 0.527893 204 51 127
-0.067765 0.508215 -0.264490 153 76 0
-0.308160 -0.156892 0.197756 204 51 127
0.406908 -0.003969 0.285757 0 255 0
-0.328201 -0.033698 0.528397 204 51 127
-0.332083 0.231296 -0.242050 153 76 0
-0.016579 -0.017547 0.270130 204 51 127
0.225032 -0.156892 0.451664 204 51 127
-0.440653 0.226975 0.087357 255 0 0
-0.116410 0.086019 -0.298534 153 76 0
-0.378883 -0.035316 -0.234732 76 153 0
0.376683 0.446341 -0.283579 153 0 76
0.353095 -0.242423 0.458200 153 76 0
-0.446278 0.223256 0.147664 255 0 0
0.318577 0.295214 -0.268169 153 76 0
-0.304443 0.552106 -0.296053 153 76 0
0.376727 -0.036451 0.277225 204 51 127
-0.174564 -0.156892 -0.166268 204 51 127
0.224189 -0.020835 0.448321 204 51 127
0.153909 -0.156892 -0.203964 204 51 127
0.197286 -0.021143 0.043705 204 51 127
0.127018 0.212805 -0.190531 153 76 0
-0.426253 0.167993 -0.200596 255 0 0
-0.243953 -0.021211 0.269281 204 51 127
-0.038855 0.244611 -0.316119 153 76 0
0.446378 0.161258 0.275964 0 255 0
0.329290 0.367372 -0.274439 153 76 0
0.315491 -0.750368 -0.317394 76 0 153
0.218407 -0.076550 0.535123 204 51 127
-0.388632 -0.191743 0.446650 76 0 153
0.369824 0.558944 -0.322206 76 0 153
-0.382283 -0.692947 0.510144 76 0 153
-0.325068 0.110460 -0.246531 153 76 0
0.085155 0.538029 -0.274441 153 76 0
0.431824 -0.051245 0.346073 0 255 0
0.229182 -0.154004 0.514808 204 51 127
0.269885 -0.021829 0.266728 204 51 127
0.277372 -0.025837 0.006003 204 51 127
0.376519 -0.059147 0.052528 204 51 127
0.296968 0.489516 -0.320232 153 76 0
0.089659 0.424528 -0.238647 153 76 0
-0.102719 -0.156892 0.224634 204 51 127
-0.234809 -0.156892 0.136067 204 51 127
0.031949 -0.027304 -0.191184 204 51 127
0.052788 -0.024031 -0.112883 204 51 127
-0.412016 -0.649361 0.479170 76 0 153
0.416858 -0.051513 0.451241 204 51 127
0.333529 -0.030692 0.178126 204 51 127
-0.089863 0.242158 -0.315269 153 76 0
0.319169 0.142253 -0.255213 153 0 76
-0.368519 -0.094103 -0.173649 153 0 76
-0.134181 -0.019702 0.134110 204 51 127
-0.342185 -0.156892 0.164093 204 51 127
-0.113065 0.335114 -0.327438 153 76 0
-0.353174 -0.176965 -0.174998 153 0 76
0.076450 -0.018929 0.178954 204 51 127
-0.400217 -0.107001 0.111874 204 51 127
0.144197 -0.020849 0.017619 204 51 127
0.402066 0.162893 0.290730 0 255 0
-0.337735 -0.156892 0.311915 204 51 127
-0.189944 0.052687 -0.288788 153 76 0
0.427145 0.182605 0.026399 127 127 0
0.329077 -0.527215 -0.290756 76 0 153
-0.376545 -0.097558 -0.099820 204 51 127
0.171363 -0.156892 0.092198 204 51 127
-0.278891 0.558944 -0.335555 76 0 153
0.442234 0.194655 -0.089475 127 127 0
0.407058 -0.097179 0.533881 204 51 127
-0.375533 -0.055619 -0.092733 204 51 127
0.235824 0.558944 -0.341908 76 0 153
-0.356345 -0.112638 -0.249634 204 51 127
0.209779 0.551931 -0.336199 153 76 0
-0.130357 0.584159 -0.332724 76 0 153
-0.099078 -0.021098 0.013776 204 51 127
-0.263127 -0.023390 -0.085285 204 51 127
-0.327793 -0.033446 -0.189401 153 0 76
-0.360419 0.321286 -0.233468 76 153 0
-0.374945 -0.308265 -0.229126 153 0 76
-0.283341 -0.021446 0.467600 204 51 127
-0.321201 0.311309 -0.226944 153 76 0
-0.067698 0.321569 -0.326395 153 76 0
-0.125221 -0.019538 0.172748 204 51 127
0.084974 -0.156892 -0.111412 204 51 127
0.341476 -0.148184 -0.248689 204 51 127
-0.116014 -0.156892 0.393742 204 51 127
0.426915 -0.081550 0.288825 0 255 0
0.292531 -0.156892 0.441964 204 51 127
-0.026143 0.551834 -0.354150 153 76 0
0.389057 -0.156892 0.314129 204 51 127
-0.053907 -0.154593 -0.241374 204 51 127
0.377126 0.494391 -0.307994 153 0 76
-0.268066 0.204008 -0.284314 153 76 0
-0.385314 -0.034185 0.270217 204 51 127
0.403714 -0.708487 0.503152 153 76 0
-0.133559 -0.023694 -0.105655 204 51 127
-0.385431 0.200867 -0.220483 76 153 0
0.442392 -0.032844 0.287082 0 255 0
-0.313570 -0.025830 0.180637 204 51 127
0.247411 -0.135278 0.531774 204 51 127
-0.016836 0.408053 -0.340477 153 76 0
0.075894 -0.020714 0.031768 204 51 127
0.365213 0.049324 -0.242338 153 0 76
-0.224933 0.473003 -0.338742 153 76 0
-0.439397 0.222187 0.169894 255 0 0
-0.322931 -0.471815 -0.266889 153 0 76
-0.198889 -0.156892 -0.129284 204 51 127
-0.042955 -0.156892 0.266128 204 51 127
0.344673 -0.078524 -0.242017 204 51 127
-0.413781 0.227640 -0.127150 255 0 0
-0.374434 -0.348551 -0.206502 153 0 76
0.240180 0.583480 -0.321503 76 0 153
0.014700 0.591613 -0.378131 76 0 153
-0.341970 -0.142658 -0.253754 153 0 76
0.207262 0.574601 -0.324578 76 0 153
-0.451111 0.226848 -0.080049 255 0 0
-0.134475 0.186667 -0.305553 153 76 0
-0.414588 -0.086026 0.248506 204 51 127
-0.339083 0.396753 -0.277552 153 76 0
-0.097631 0.116938 -0.301628 153 76 0
-0.362313 0.187725 -0.203290 76 153 0
-0.349420 -0.156892 -0.166087 204 51 127
-0.213418 0.361665 -0.320365 153 76 0
0.350962 0.039689 -0.184062 153 0 76
0.367171 0.294777 -0.220734 153 0 76
0.189279 -0.156892 0.055043 204 51 127
-0.425490 -0.041032 0.499166 204 51 127
-0.233510 0.428525 -0.239879 153 76 0
-0.158141 0.551934 -0.301001 153 76 0
0.243234 -0.021640 0.149822 204 51 127
-0.447604 0.218908 0.220333 255 0 0
-0.276910 -0.148194 -0.248685 204 51 127
0.406539 -0.320354 0.465908 153 76 0
0.367599 -0.113323 -0.044790 204 51 127
0.382923 -0.515121 0.516838 153 76 0
-0.035447 -0.017893 0.319392 204 51 127
-0.072596 -0.156892 0.307271 204 51 127
0.096108 -0.156892 -0.156064 204 51 127
0.390174 -0.690536 0.482575 153 76 0
0.422254 -0.141687 0.297586 0 255 0
-0.031229 0.381233 -0.336117 153 76 0
-0.315733 -0.212596 -0.183747 153 0 76
-0.464062 0.027445 0.301149 0 0 255
0.333180 -0.205384 -0.175804 76 0 153
-0.340432 0.430969 -0.256882 153 76 0
0.188896 -0.149479 0.524063 204 51 127
0.005592 0.462855 -0.350531 153 76 0
0.373769 0.368095 -0.260366 153 0 76
0.304354 -0.400745 -0.241901 76 0 153
0.418156 0.220620 0.197775 127 127 0
0.261629 -0.156892 -0.000409 204 51 127
-0.263859 -0.027775 0.518380 204 51 127
-0.186826 0.343207 -0.218793 153 76 0
0.403802 -0.164339 0.445021 153 76 0
0.025982 0.360154 -0.221675 153 76 0
-0.189043 -0.029168 -0.209878 204 51 127
0.299352 -0.243691 -0.230371 76 0 153
-0.054097 -0.018235 0.264588 204 51 127
-0.040662 0.057234 -0.268194 153 76 0
-0.311758 -0.030564 -0.146618 204 51 127
-0.363939 0.560258 -0.309484 76 153 0
0.280100 -0.156892 -0.093150 204 51 127
-0.342327 -0.358004 -0.187724 153 0 76
-0.388863 0.399468 -0.291558 76 153 0
-0.115206 0.595547 -0.355507 76 0 153
0.004879 -0.041775 0.534319 204 51 127
-0.436684 -0.101701 0.289603 0 0 255
-0.158162 0.500591 -0.353852 153 76 0
0.252715 -0.038802 -0.245053 204 51 127
-0.455508 0.218759 0.004318 255 0 0
-0.080508 0.404595 -0.233346 153 76 0
0.057553 0.451412 -0.348273 153 76 0
0.295922 -0.030887 -0.170364 204 51 127
0.379465 -0.066332 0.077052 204 51 127
0.164653 0.201364 -0.302088 153 76 0
0.364844 0.022201 -0.226168 153 0 76
-0.121239 -0.156892 -0.006619 204 51 127
0.385153 -0.365606 0.513982 153 76 0
-0.066787 -0.156647 0.508320 204 51 127
0.135688 -0.156892 0.323576 204 51 127
-0.288872 -0.023759 0.108899 204 51 127
0.009198 0.537485 -0.274563 153 76 0
-0.394457 -0.580965 0.518721 76 0 153
-0.375787 -0.241010 -0.228711 153 0 76
-0.111122 -0.018916 0.459035 204 51 127
0.168826 0.535994 -0.273320 153 76 0
-0.420476 -0.199779 0.508505 76 0 153
0.188105 -0.023458 -0.095321 204 51 127
-0.150490 -0.144146 0.531459 204 51 127
0.034009 0.551927 -0.364928 153 76 0
0.326932 -0.591725 -0.305966 76 0 153
0.405057 -0.208675 0.450470 153 76 0
-0.133694 0.450686 -0.246707 153 76 0
-0.047931 0.525573 -0.270003 153 76 0
-0.188726 0.542435 -0.275713 153 76 0
-0.432240 -0.098170 0.404816 204 51 127
0.359206 -0.075774 -0.109455 204 51 127
-0.409007 -0.054469 0.218103 204 51 127
0.212107 -0.020907 0.305350 204 51 127
-0.300735 -0.152904 0.517509 204 51 127
-0.379598 -0.156892 0.394675 204 51 127
0.231167 -0.021687 0.021279 204 51 127
-0.001428 -0.156892 0.141028 204 51 127
-0.084462 0.559246 -0.345563 153 76 0
-0.243062 -0.022854 -0.073642 204 51 127
0.388450 -0.057064 0.161306 204 51 127
0.405490 -0.412122 0.498907 153 76 0
-0.114444 -0.033565 0.528247 204 51 127
0.366957 -0.700208 0.500690 153 76 0
0.112543 0.576713 -0.331236 76 0 153
0.270232 -0.156892 0.039254 204 51 127
-0.369005 0.368951 -0.289238 76 153 0
-0.212097 -0.156892 -0.059418 204 51 127
-0.377597 -0.252375 0.450417 76 0 153
0.044545 0.551934 -0.293643 153 76 0
0.082685 -0.019043 0.242381 204 51 127
0.020750 -0.031230 -0.230395 204 51 127
0.073937 0.119697 -0.302201 153 76 0
-0.323982 0.088843 -0.232508 153 76 0
0.274193 -0.156892 0.339489 204 51 127
-0.391793 -0.144594 0.452868 76 0 153
-0.343004 -0.145840 0.529109 204 51 127
-0.021792 -0.156892 0.433832 204 51 127
0.256690 -0.156892 0.292040 204 51 127
-0.201063 -0.020292 0.432163 204 51 127
0.147672 -0.020234 0.104783 204 51 127
0.329929 -0.031670 0.079423 204 51 127
0.402066 0.132974 0.309512 0 255 0
0.445029 0.086313 0.282650 0 255 0
0.394749 -0.533163 0.517354 153 76 0
0.367600 -0.206582 0.447572 153 76 0
-0.114436 0.559248 -0.363819 153 76 0
-0.324203 0.451251 -0.308703 153 76 0
-0.342135 0.578171 -0.344306 76 0 153
-0.086814 -0.048310 0.535962 204 51 127
-0.118896 -0.156892 0.042022 204 51 127
-0.417798 0.199476 0.144655 255 0 0
-0.444853 0.175880 -0.160746 255 0 0
-0.332637 -0.765660 -0.301368 153 0 76
0.276986 -0.025456 0.027893 204 51 127
-0.000740 -0.022911 -0.056732 204 51 127
0.004922 0.273927 -0.319902 153 76 0
0.271316 0.567538 -0.356109 76 0 153
-0.350106 -0.549599 -0.295478 153 0 76
-0.200176 0.301259 -0.211497 153 76 0
-0.109471 -0.126314 -0.250712 204 51 127
0.275086 -0.029546 -0.211780 204 51 127
0.337684 -0.027411 0.436965 204 51 127
0.271021 -0.021888 0.242596 204 51 127
-0.277552 0.358666 -0.230400 153 76 0
-0.380211 -0.085297 -0.062868 204 51 127
-0.244012 -0.156892 0.397939 204 51 127
0.446300 0.202340 -0.017074 127 127 0
0.429596 0.228512 0.014418 127 127 0
0.210900 0.456195 -0.335143 153 76 0
-0.360152 0.348625 -0.286221 76 153 0
-0.103595 -0.156892 0.260171 204 51 127
-0.077331 -0.156892 -0.211157 204 51 127
-0.091292 -0.156892 -0.141645 204 51 127
0.042211 -0.156892 -0.188037 204 51 127
-0.191676 -0.156892 0.505959 204 51 127
0.011758 0.119291 -0.191402 153 76 0
-0.217707 -0.156892 0.005324 204 51 127
-0.078218 0.558851 -0.371456 153 76 0
0.360419 -0.484286 0.494399 153 76 0
-0.334406 0.301768 -0.249324 153 76 0
-0.088437 -0.045654 -0.250442 204 51 127
-0.343159 -0.032504 0.002069 204 51 127
-0.362011 0.217178 -0.224040 255 0 0
0.048177 -0.156892 0.430576 204 51 127
0.367641 -0.722808 0.510946 153 76 0
-0.348352 -0.030925 0.155796 204 51 127
0.371806 -0.553212 0.469104 153 76 0
0.237410 -0.156892 0.110466 204 51 127
0.079295 -0.156892 0.202192 204 51 127
0.129688 -0.079170 0.535689 204 51 127
0.313067 -0.026663 0.258470 204 51 127
-0.428794 -0.053457 0.404222 204 51 127
0.279305 -0.122860 0.532897 204 51 127
-0.165671 0.508012 -0.264524 153 76 0
0.330626 -0.179562 -0.255125 76 0 153
-0.090555 -0.156892 0.496112 204 51 127
0.330819 0.213784 -0.211535 153 0 76
0.022886 0.433794 -0.241528 153 76 0
0.089660 -0.018872 0.434641 204 51 127
0.087200 0.057234 -0.269912 153 76 0
0.390991 -0.033346 0.519766 204 51 127
-0.310494 -0.156892 0.336932 204 51 127
-0.146637 -0.027529 -0.191494 204 51 127
0.425294 -0.140819 0.469796 204 51 127
0.128980 -0.024859 -0.144475 204 51 127
0.076698 0.190676 -0.187681 153 76 0
0.098403 0.391563 -0.336585 153 76 0
0.359439 0.595016 -0.337400 76 0 153
-0.463351 0.195694 0.290590 255 0 0
0.117269 -0.019677 0.129806 204 51 127
0.173639 -0.156892 -0.145838 204 51 127
0.266243 -0.025500 0.512814 204 51 127
-0.091255 0.430518 -0.344154 153 76 0
-0.371544 -0.579829 -0.284720 153 0 76
-0.296631 0.484649 -0.323987 153 76 0
0.158239 -0.156892 0.494754 204 51 127
-0.370261 -0.111755 -0.161096 204 51 127
0.203945 -0.021536 -0.020016 204 51 127
0.053599 -0.076281 -0.250811 204 51 127
0.083202 -0.156892 0.314605 204 51 127
-0.394702 0.532920 -0.308478 76 153 0
0.357367 -0.430503 -0.205081 76 0 153
-0.059270 -0.156892 -0.013334 204 51 127
-0.453667 0.182528 -0.078756 255 0 0
0.240176 -0.156892 0.192860 204 51 127
-0.204819 -0.020602 0.286987 204 51 127
0.091271 0.551934 -0.307066 153 76 0
-0.322534 -0.026649 0.202286 204 51 127
0.144714 0.544341 -0.276549 153 76 0
-0.196659 0.572695 -0.370881 76 0 153
-0.456263 0.180521 0.103326 255 0 0
-0.174217 0.237952 -0.197210 153 76 0
-0.148016 -0.019955 0.162710 204 51 127
-0.266741 0.595547 -0.340483 76 0 153
0.166926 -0.052810 -0.249881 204 51 127
-0.019709 0.235595 -0.315095 153 76 0
0.122056 -0.156892 0.481492 204 51 127
0.238878 0.080557 -0.275555 153 76 0
0.313959 -0.025708 0.330915 204 51 127
-0.103255 0.074523 -0.215283 153 76 0
0.405350 0.180512 0.104864 127 127 0
0.361842 -0.111986 -0.233590 76 0 153
0.308722 0.200353 -0.266427 153 76 0
-0.016059 -0.022553 -0.040969 204 51 127
0.001219 -0.156892 -0.171496 204 51 127
0.187034 -0.020521 0.314207 204 51 127
0.365196 -0.040626 0.099698 204 51 127
-0.067907 -0.018488 0.283487 204 51 127
-0.389190 -0.376213 0.458109 76 0 153
-0.316681 -0.288402 -0.185415 153 0 76
0.311874 -0.636646 -0.280732 76 0 153
0.156081 0.248147 -0.309422 153 76 0
-0.331963 0.106408 -0.200281 153 76 0
-0.134435 -0.156892 -0.098822 204 51 127
0.366833 0.595547 -0.305658 76 0 153
-0.005570 -0.122111 0.534882 204 51 127
-0.327810 0.137464 -0.217494 153 76 0
0.149954 -0.020274 0.142980 204 51 127
0.130071 -0.156892 -0.013228 204 51 127
-0.372818 -0.478287 -0.261027 153 0 76
0.007059 -0.156892 0.020852 204 51 127
0.340318 -0.270049 -0.260736 76 0 153
0.359402 -0.265758 -0.223944 76 0 153
0.143446 -0.095368 0.535598 204 51 127
-0.223507 -0.021696 -0.027591 204 51 127
0.340347 -0.121428 0.532634 204 51 127
-0.313126 -0.029498 -0.064840 204 51 127
0.364104 -0.060791 0.534364 204 51 127
0.366162 0.086915 -0.193684 153 0 76
0.145109 -0.020113 0.193575 204 51 127
-0.014336 0.112466 -0.193891 153 76 0
0.140654 0.379396 -0.331362 153 76 0
0.254299 0.244065 -0.206960 153 76 0
0.420029 -0.010346 0.342405 0 255 0
0.357973 -0.389838 -0.220832 76 0 153
0.282089 0.240529 -0.280948 153 76 0
0.314442 0.049564 -0.234318 153 0 76
-0.260166 -0.021346 0.329373 204 51 127
