ply
format ascii 1.0
element vertex 1263
property float x
property float y
property float z
property uchar red
property uchar green
property uchar blue
end_header
0.619280 0.336775 -0.144682 204 51 127
0.522658 -0.031281 0.258358 204 51 127
0.524711 0.056806 0.239828 204 51 127
-0.150728 -0.127396 -0.117386 127 0 127
-0.069583 0.122357 -0.381171 255 0 0
-0.521165 -0.067251 0.204645 153 0 76
0.522314 0.015095 0.288470 204 51 127
0.054333 -0.461783 0.484684 255 0 0
-0.170942 -0.092318 0.277091 127 0 127
0.326031 -0.603529 -0.110497 153 0 76
-0.038066 -0.462125 0.112974 127 127 0
0.310086 -0.489746 -0.151018 127 0 127
-0.038731 -0.478802 0.273189 0 255 0
-0.266309 0.261842 -0.410631 255 0 0
-0.121063 0.300120 -0.455896 255 0 0
-0.498993 0.148983 0.031241 153 0 76
-0.511369 0.000224 0.144173 153 0 76
0.462216 -0.117939 -0.084275 127 0 127
0.190065 0.314235 -0.449029 255 0 0
0.270684 -0.094884 0.234816 127 0 127
0.290800 -0.469149 -0.078418 127 0 127
-0.521601 0.141034 0.149312 153 0 76
0.581043 0.340132 -0.333563 204 51 127
0.068043 -0.112309 0.122484 127 0 127
0.015165 -0.135425 -0.214865 127 0 127
0.024023 -0.470714 0.613498 255 0 0
-0.288696 -0.584914 -0.175225 153 76 0
-0.360830 -0.085910 0.495560 127 0 127
0.184403 -0.135279 0.146078 127 0 127
-0.420988 -0.023927 -0.229931 153 0 76
0.512185 0.036376 0.345057 204 51 127
-0.117229 0.261213 -0.444956 255 0 0
-0.208910 -0.094529 0.321563 127 0 127
0.051139 -0.442837 0.574020 255 0 0
0.218981 -0.431847 -0.010915 127 0 127
0.048514 -0.290419 0.222055 153 0 76
0.069729 -0.456530 0.174348 127 0 127
-0.040343 -0.082688 0.480804 127 0 127
-0.144906 -0.137648 0.606645 127 0 127
0.516036 -0.057284 0.385170 204 51 127
-0.521476 0.320246 0.168166 153 0 76
-0.297500 -0.120824 0.002859 127 0 127
-0.508007 0.220172 0.029124 153 0 76
0.003228 -0.092735 0.279735 127 0 127
-0.176323 -0.129283 -0.071418 127 0 127
0.047586 -0.133992 -0.124220 127 0 127
0.078048 -0.463065 0.222538 153 0 76
0.273182 -0.086960 0.322361 127 0 127
-0.323687 -0.125156 -0.238909 255 0 0
0.192899 -0.093771 0.261118 127 0 127
0.511080 0.227672 0.084746 204 51 127
-0.024541 -0.088666 0.523612 127 0 127
0.104819 0.423959 -0.512598 255 0 0
0.482384 0.223115 -0.131964 204 51 127
-0.041096 -0.123677 0.601940 127 0 127
-0.150393 0.174184 -0.407907 255 0 0
-0.025407 0.258797 -0.453653 255 0 0
-0.221044 -0.125456 0.574483 127 0 127
0.003713 -0.265735 0.231747 153 0 76
0.396015 0.356416 -0.384476 255 0 0
0.010161 0.441287 -0.536571 255 0 0
-0.436781 -0.120527 0.158155 127 0 127
-0.222746 0.439045 -0.481499 255 0 0
0.206296 -0.116020 -0.280804 255 0 0
-0.438356 -0.509127 0.379298 0 255 0
0.209446 -0.134090 -0.227771 127 0 127
-0.127346 0.210909 -0.423504 255 0 0
0.510494 0.220837 0.026194 204 51 127
0.012752 -0.384263 0.269952 153 0 76
0.088163 0.278362 -0.448664 255 0 0
-0.179742 -0.031066 -0.310564 255 0 0
0.059569 0.049168 -0.349700 255 0 0
-0.497699 0.219990 -0.051821 153 0 76
-0.594986 0.349672 -0.085233 153 0 76
0.162852 0.413546 -0.503713 255 0 0
-0.478948 0.200988 -0.178045 153 0 76
0.507301 -0.088727 0.260631 127 0 127
-0.519928 -0.030952 0.255285 153 0 76
0.195064 0.012438 -0.331928 255 0 0
0.478264 -0.112587 0.217470 127 0 127
0.033934 -0.231921 0.219958 153 0 76
-0.130059 -0.087275 0.406712 127 0 127
0.199462 0.458665 -0.501429 255 0 0
0.184477 -0.132194 -0.172262 127 0 127
0.042762 -0.097090 0.229616 127 0 127
-0.439015 -0.648650 0.395551 153 0 76
0.171068 -0.482183 0.051816 127 0 127
0.107660 0.577272 -0.605734 255 0 0
-0.118182 -0.007706 -0.323048 255 0 0
-0.421399 -0.122548 0.100402 127 0 127
-0.136885 -0.038992 -0.317373 255 0 0
0.321008 -0.082753 0.365783 127 0 127
0.499827 0.234554 -0.059916 204 51 127
0.066319 -0.349740 0.220836 153 0 76
-0.091552 -0.140474 -0.197804 127 0 127
0.538785 0.339846 -0.257642 204 51 127
-0.209881 -0.077587 -0.299702 255 0 0
0.535835 0.343543 0.243764 204 51 127
0.066726 -0.567110 0.781913 204 51 127
0.551309 0.342249 -0.201152 204 51 127
-0.154534 -0.078543 -0.291526 255 0 0
0.070849 -0.402076 0.186149 153 0 76
0.287872 -0.127583 -0.067643 127 0 127
-0.265196 0.523591 -0.503802 255 0 0
-0.515962 -0.078885 0.442928 153 0 76
0.346054 0.363873 -0.416841 255 0 0
0.055594 0.439685 -0.533479 255 0 0
-0.448516 -0.096049 -0.158617 153 0 76
-0.268099 -0.457785 0.360459 0 255 0
0.233004 0.314502 -0.433181 255 0 0
0.489798 0.341284 -0.291951 204 51 127
-0.220140 -0.109797 0.148853 127 0 127
0.081550 -0.087876 0.401068 127 0 127
0.263158 0.444839 -0.467733 255 0 0
-0.514949 0.100726 0.247802 153 0 76
0.518169 0.188766 0.296311 204 51 127
0.501341 -0.570532 0.370224 0 255 0
-0.149201 -0.126682 0.119618 127 0 127
0.265010 -0.108320 0.543756 127 0 127
0.026210 -0.097381 -0.281867 255 0 0
0.499722 -0.073748 0.005324 204 51 127
-0.251500 0.490766 -0.487669 255 0 0
0.205940 -0.118293 0.052792 127 0 127
-0.216239 -0.134432 -0.224465 127 0 127
-0.372515 -0.086349 0.357313 127 0 127
0.523233 0.276078 0.116910 204 51 127
-0.452286 -0.001559 -0.185013 153 0 76
-0.077243 0.301585 -0.460067 255 0 0
-0.493085 0.173616 -0.076295 153 0 76
0.104677 -0.455509 0.282915 0 127 127
0.266254 0.190802 -0.387296 255 0 0
0.275331 -0.108426 0.145078 127 0 127
0.235996 -0.102390 0.232579 127 0 127
-0.159231 -0.113931 0.034235 127 0 127
-0.065318 0.213273 -0.431729 255 0 0
0.348786 0.137795 -0.343785 255 0 0
0.499436 0.175926 -0.051190 204 51 127
0.041621 -0.468417 0.764175 255 0 0
0.464632 -0.112369 0.170775 127 0 127
0.119428 -0.480874 0.132853 127 0 127
0.496691 0.027419 0.014754 204 51 127
-0.318071 0.174724 -0.357969 255 0 0
-0.360974 -0.464167 0.358635 0 255 0
-0.221247 -0.024817 -0.313070 255 0 0
-0.051955 -0.131729 -0.165807 127 0 127
-0.088928 -0.092437 0.280593 127 0 127
-0.469080 -0.519922 0.419034 0 255 0
-0.454413 0.321378 -0.279431 153 0 76
0.318606 -0.520383 -0.151974 127 0 127
-0.403456 0.206901 -0.328445 255 0 0
0.120022 -0.126771 0.131795 127 0 127
0.183503 0.042758 -0.340167 255 0 0
0.334530 0.073063 -0.320404 255 0 0
-0.147462 -0.127919 -0.247937 255 0 0
0.006939 -0.120582 0.029754 127 0 127
-0.325730 -0.468971 0.378668 0 255 0
-0.527177 0.322700 0.216488 153 0 76
-0.343783 -0.133458 -0.178536 127 0 127
0.521366 0.220440 0.204132 204 51 127
-0.487710 -0.081305 -0.059972 153 0 76
0.081936 -0.075647 0.489647 127 0 127
0.436738 0.371525 -0.361520 255 0 0
-0.192400 0.543107 -0.542610 255 0 0
-0.380332 -0.061032 -0.254045 255 0 0
0.483795 0.124527 -0.100307 204 51 127
-0.393097 -0.129261 -0.169008 127 0 127
0.028619 -0.476967 0.482852 255 0 0
0.420081 0.421356 -0.432882 255 0 0
0.270129 -0.128197 -0.264739 255 0 0
0.010019 -0.343350 0.221472 153 0 76
0.021898 -0.445412 0.452427 255 0 0
0.319942 -0.098959 0.184198 127 0 127
0.033627 0.488334 -0.547860 255 0 0
0.301621 -0.097120 0.266429 127 0 127
0.105025 -0.132856 -0.178907 127 0 127
-0.253021 -0.097035 0.211984 127 0 127
0.000395 -0.122385 0.601193 127 0 127
-0.501449 0.051923 0.065105 153 0 76
-0.115338 0.343977 -0.476047 255 0 0
0.552389 0.324841 0.260265 204 51 127
-0.223247 -0.088895 0.534371 127 0 127
0.519955 -0.019735 0.368365 204 51 127
-0.338992 0.015440 -0.309599 255 0 0
0.037850 -0.561368 0.770761 204 51 127
0.494642 -0.486455 0.410227 0 127 127
-0.237648 -0.132406 -0.175036 127 0 127
-0.421268 -0.450248 0.387942 0 255 0
-0.471613 -0.019412 -0.133850 153 0 76
0.010249 -0.580587 0.765845 204 51 127
0.292231 0.465536 -0.475335 255 0 0
-0.073715 -0.101609 0.554542 127 0 127
-0.311237 0.260843 -0.399590 255 0 0
-0.405950 -0.108489 -0.223087 153 0 76
0.181904 0.101102 -0.363563 255 0 0
-0.207627 -0.127983 -0.126871 127 0 127
0.210367 0.068916 -0.352145 255 0 0
-0.484859 -0.028632 -0.092275 153 0 76
0.427386 -0.099577 0.213447 127 0 127
-0.233640 -0.123464 -0.077661 127 0 127
-0.182009 -0.093897 0.531717 127 0 127
0.600656 0.342515 -0.042175 204 51 127
-0.250709 -0.115455 0.069635 127 0 127
0.427207 -0.125527 -0.073612 127 0 127
-0.344887 0.293805 -0.391758 255 0 0
0.536528 0.347184 -0.066744 204 51 127
0.057421 -0.511446 0.770762 255 0 0
-0.387865 -0.089405 0.275601 127 0 127
-0.508675 -0.043478 0.339537 153 0 76
-0.552899 0.348445 -0.060716 153 0 76
-0.002264 -0.128034 -0.247664 255 0 0
0.329557 0.442627 -0.453329 255 0 0
0.318547 -0.097927 0.534121 127 0 127
0.227041 -0.025779 -0.318248 255 0 0
0.478937 -0.623312 0.374194 0 255 0
0.503947 0.060399 0.006936 204 51 127
0.529135 0.287241 0.217269 204 51 127
-0.268096 -0.135251 -0.215553 127 0 127
-0.081997 -0.482893 0.084234 127 127 0
-0.499532 0.338813 -0.072077 153 0 76
0.184623 -0.099731 -0.290985 255 0 0
-0.058288 0.341918 -0.489359 255 0 0
-0.362059 -0.106484 0.094701 127 0 127
-0.401766 -0.583147 0.388921 153 0 76
0.209308 0.566240 -0.564939 255 0 0
0.367316 -0.444201 0.363416 0 127 127
0.495921 0.205793 -0.025502 204 51 127
0.187233 -0.081086 0.403337 127 0 127
0.567015 0.234389 0.289227 204 51 127
0.080718 -0.378859 0.265161 153 0 76
0.094709 -0.133908 0.596817 127 0 127
-0.480249 -0.076943 -0.112069 153 0 76
-0.539160 0.253310 0.288591 153 0 76
0.014229 -0.209924 0.249782 153 0 76
0.477014 0.072388 -0.150598 204 51 127
-0.115867 0.153636 -0.393895 255 0 0
-0.262783 0.395534 -0.458625 255 0 0
0.004358 -0.120834 -0.041131 127 0 127
0.570064 0.283166 0.269301 204 51 127
-0.149831 -0.085357 0.429602 127 0 127
0.538493 0.343399 -0.305644 204 51 127
-0.485119 0.181569 -0.133086 153 0 76
-0.018769 -0.419005 0.279930 0 255 0
-0.031361 -0.134910 -0.201874 127 0 127
0.042863 0.238799 -0.443743 255 0 0
-0.515176 0.278113 0.075617 153 0 76
-0.473256 -0.106256 -0.064246 153 0 76
0.134950 -0.434658 0.139335 127 0 127
-0.324159 -0.101557 0.521780 127 0 127
-0.518801 0.275971 0.212009 153 0 76
-0.525328 0.180771 0.177728 153 0 76
-0.160293 -0.093544 0.337458 127 0 127
0.062875 -0.259071 0.248433 153 0 76
-0.328707 -0.089480 0.288180 127 0 127
-0.091789 -0.467154 0.300308 0 255 0
0.007552 0.037472 -0.344425 255 0 0
-0.361461 -0.020336 -0.278797 255 0 0
-0.051635 -0.112740 -0.282854 255 0 0
-0.319227 0.126287 -0.340669 255 0 0
0.549217 0.139608 0.338483 204 51 127
0.518671 0.182456 0.248969 204 51 127
0.479457 0.130557 -0.141703 204 51 127
-0.378376 0.073604 -0.297466 255 0 0
0.480497 -0.014604 -0.096099 204 51 127
0.508550 -0.082967 0.294378 127 0 127
0.033136 -0.088573 0.326929 127 0 127
-0.238317 -0.550708 -0.160674 127 127 0
0.512993 0.089544 0.068067 204 51 127
-0.095672 0.213842 -0.420333 255 0 0
-0.414154 -0.106231 0.147918 127 0 127
-0.059869 0.173664 -0.405319 255 0 0
0.362248 0.108689 -0.329236 255 0 0
-0.196485 0.100639 -0.363500 255 0 0
0.512929 -0.047310 0.310701 204 51 127
-0.401576 0.160658 -0.315295 255 0 0
0.112913 -0.090950 0.297083 127 0 127
-0.523023 0.128117 0.238953 153 0 76
0.360992 -0.123792 -0.084705 127 0 127
-0.023799 -0.093849 0.334882 127 0 127
0.604493 0.344790 0.047476 204 51 127
-0.142072 0.389773 -0.487572 255 0 0
-0.130320 -0.432374 0.314347 0 255 0
0.249856 0.396475 -0.455637 255 0 0
0.198757 -0.457843 -0.003605 127 0 127
-0.254493 0.227995 -0.401450 255 0 0
-0.512099 0.155068 0.124651 153 0 76
0.441976 0.043631 -0.222943 204 51 127
-0.071880 -0.093690 -0.294215 255 0 0
0.105662 0.314608 -0.464580 255 0 0
-0.518169 -0.042924 0.299196 153 0 76
-0.081934 -0.126280 0.589462 127 0 127
-0.287916 -0.547756 -0.157555 127 127 0
0.520015 0.108776 0.205554 204 51 127
0.099178 -0.123450 -0.004552 127 0 127
0.477781 -0.585558 0.386327 0 255 0
0.026823 -0.272146 0.279587 153 0 76
0.355794 -0.627648 -0.183742 153 0 76
0.424182 0.273564 -0.331024 255 0 0
-0.482320 0.256409 -0.117607 153 0 76
0.523624 0.099777 0.289222 204 51 127
0.048105 -0.121489 0.266812 153 0 76
0.426682 -0.088806 0.264843 127 0 127
0.508151 0.162622 0.017652 204 51 127
0.468047 0.008940 -0.182285 204 51 127
0.422402 0.064948 -0.270479 204 51 127
0.298939 -0.571334 -0.156621 153 0 76
0.004595 -0.089805 0.313194 127 0 127
-0.216663 -0.099027 0.201196 127 0 127
-0.273581 0.176168 -0.373358 255 0 0
0.459780 0.174631 -0.216363 204 51 127
-0.464943 -0.108601 -0.119465 153 0 76
0.411371 -0.022202 -0.253978 204 51 127
0.241490 0.039981 -0.331143 255 0 0
0.060327 0.278762 -0.461066 255 0 0
0.234768 -0.481635 0.313722 0 127 127
-0.252357 0.554644 -0.538724 255 0 0
-0.434128 0.384383 -0.383605 255 0 0
-0.093849 0.580290 -0.608317 255 0 0
0.056533 -0.098421 0.281860 127 0 127
0.348977 -0.085067 0.387009 127 0 127
-0.551989 0.201338 0.303048 153 0 76
-0.477033 0.259098 -0.173786 153 0 76
0.378551 0.173409 -0.330134 255 0 0
0.608993 0.345465 0.013974 204 51 127
0.336991 0.266247 -0.379547 255 0 0
0.239913 -0.100082 -0.290765 255 0 0
0.490247 -0.055966 -0.067747 204 51 127
0.502782 -0.082946 0.457114 127 0 127
-0.544555 0.164172 0.327579 153 0 76
-0.551346 0.330955 -0.251227 153 0 76
0.075710 -0.383162 0.237349 153 0 76
0.267671 0.058280 -0.335090 255 0 0
0.138450 -0.103632 0.150388 127 0 127
-0.047706 -0.083544 0.384094 127 0 127
-0.562069 0.355239 0.094180 153 0 76
0.289310 0.369889 -0.445034 255 0 0
-0.517126 0.236130 0.236264 153 0 76
-0.116165 -0.082246 0.466901 127 0 127
0.591025 0.345842 0.136660 204 51 127
0.307834 -0.466610 -0.101153 127 0 127
0.397888 -0.094421 0.262102 127 0 127
0.426219 -0.117734 0.130511 127 0 127
-0.440618 -0.585163 0.429813 153 0 76
0.536330 0.030917 0.382880 204 51 127
0.514435 0.329109 0.087295 204 51 127
0.175194 -0.045336 -0.314679 255 0 0
0.017452 0.395370 -0.515639 255 0 0
-0.434730 -0.542775 0.428415 0 255 0
-0.482417 0.231413 -0.157456 153 0 76
0.499787 0.060725 -0.023518 204 51 127
-0.259521 -0.126985 -0.116002 127 0 127
-0.090650 0.250010 -0.446228 255 0 0
-0.103512 -0.427480 0.065385 127 127 0
-0.549866 -0.022963 0.394132 153 0 76
-0.173527 -0.133796 -0.230614 127 0 127
0.405502 0.086221 -0.278349 255 0 0
-0.534750 0.350013 0.001329 153 0 76
0.149693 -0.116426 0.075264 127 0 127
0.420382 0.323756 -0.351602 255 0 0
0.198512 -0.066834 -0.303551 255 0 0
0.096082 -0.093505 0.559349 127 0 127
0.500077 0.007010 -0.009690 204 51 127
0.495562 0.113892 -0.008940 204 51 127
-0.267534 -0.462979 -0.166581 127 127 0
0.257972 -0.134819 -0.201625 127 0 127
0.515750 0.140070 0.081168 204 51 127
-0.488873 0.154038 -0.102788 153 0 76
0.298351 -0.466873 -0.137184 127 0 127
0.014940 -0.297264 0.237251 153 0 76
0.518400 0.346924 -0.003761 204 51 127
0.117429 0.577304 -0.577464 255 0 0
-0.109973 -0.442486 0.015496 127 127 0
0.024454 -0.438468 0.511063 255 0 0
0.138038 -0.095457 0.314318 127 0 127
0.552995 -0.534327 0.396638 0 127 127
0.527990 -0.045803 0.415252 204 51 127
-0.184470 -0.066420 -0.296387 255 0 0
0.479697 -0.104098 0.253975 127 0 127
-0.307299 -0.449041 0.342679 0 255 0
-0.543829 0.342808 -0.185127 153 0 76
-0.497584 0.070385 -0.020932 153 0 76
-0.248768 0.082910 -0.343540 255 0 0
0.396670 -0.085495 0.316984 127 0 127
-0.122959 -0.459566 0.313585 0 255 0
0.562122 0.345369 -0.144483 204 51 127
0.519715 0.023163 0.192061 204 51 127
-0.508447 0.103459 0.052348 153 0 76
0.030195 -0.118525 -0.263069 255 0 0
-0.428640 0.012749 -0.233669 153 0 76
-0.474852 0.310134 -0.202419 153 0 76
0.485639 0.247824 -0.165339 204 51 127
-0.244055 -0.509074 -0.181534 127 127 0
-0.512708 0.183704 0.072224 153 0 76
-0.125346 -0.119789 0.211354 127 0 127
-0.505952 0.028008 0.101071 153 0 76
0.320202 -0.126791 -0.116063 127 0 127
-0.479362 0.262017 -0.203609 153 0 76
-0.388484 -0.476838 0.368772 0 255 0
0.365410 -0.535577 -0.160297 127 0 127
0.182458 -0.092775 0.345209 127 0 127
0.355750 0.202293 -0.352383 255 0 0
0.518135 0.006383 0.219599 204 51 127
-0.131052 -0.117310 0.590293 127 0 127
-0.071658 -0.459907 0.065564 127 127 0
0.606203 0.349859 -0.091523 204 51 127
-0.387163 0.253826 -0.345972 255 0 0
-0.462193 -0.478251 0.410618 0 255 0
-0.468686 0.008244 -0.159598 153 0 76
-0.123320 -0.127669 -0.052155 127 0 127
0.193503 0.175899 -0.395537 255 0 0
-0.506747 -0.048682 0.389111 153 0 76
-0.060629 -0.438884 0.081265 127 127 0
-0.503978 0.093780 0.020664 153 0 76
-0.223063 -0.451601 -0.131871 127 127 0
0.537196 -0.006444 0.398979 204 51 127
-0.113646 -0.117162 -0.001393 127 0 127
0.144881 -0.076207 -0.301568 255 0 0
-0.453389 -0.112774 0.240870 127 0 127
-0.184060 -0.117817 -0.009526 127 0 127
0.525630 0.109655 0.237479 204 51 127
0.365179 -0.084325 0.333984 127 0 127
0.492319 0.092020 -0.028913 204 51 127
0.471426 -0.467062 0.369876 0 127 127
0.397652 0.128742 -0.312126 255 0 0
-0.435606 -0.092741 0.281998 127 0 127
-0.045735 -0.423543 0.287358 0 255 0
-0.117293 -0.483809 0.038224 127 127 0
-0.524222 0.138087 0.209816 153 0 76
0.508142 -0.054126 0.109523 204 51 127
-0.302213 -0.112034 0.101437 127 0 127
-0.294802 0.094621 -0.351337 255 0 0
0.499170 -0.519869 0.394666 0 127 127
-0.489788 -0.070065 0.428623 127 0 127
-0.491971 -0.036307 -0.038667 153 0 76
-0.525543 0.221163 0.204542 153 0 76
0.360502 -0.011727 -0.292850 255 0 0
-0.428118 -0.129963 0.007668 127 0 127
0.226593 -0.105999 0.117074 127 0 127
-0.353322 0.443402 -0.438060 255 0 0
-0.010951 -0.069532 -0.296140 255 0 0
-0.202829 0.192971 -0.400402 255 0 0
0.162892 -0.128762 0.208100 127 0 127
0.403132 0.193974 -0.313907 255 0 0
0.151470 -0.140116 0.595378 127 0 127
0.524833 0.333118 -0.155371 204 51 127
-0.421343 -0.127729 0.060560 127 0 127
-0.122161 -0.135669 -0.212506 127 0 127
0.041902 -0.486477 0.537790 255 0 0
0.518439 0.226364 0.265745 204 51 127
0.478299 0.182325 -0.164963 204 51 127
-0.009266 0.407150 -0.511905 255 0 0
0.519284 0.158642 0.231401 204 51 127
-0.002840 -0.478376 0.186552 153 0 76
0.354577 -0.071148 -0.268036 255 0 0
-0.248971 -0.569834 -0.141072 153 76 0
-0.374290 0.408899 -0.403453 255 0 0
-0.141394 0.525551 -0.545480 255 0 0
0.311928 0.170744 -0.362075 255 0 0
0.497100 0.290232 -0.090768 204 51 127
0.079396 0.233355 -0.429660 255 0 0
-0.463860 -0.117260 -0.039672 153 0 76
0.390848 0.229453 -0.349215 255 0 0
0.335007 0.495582 -0.464465 255 0 0
0.204302 -0.010661 -0.318746 255 0 0
0.085467 0.124377 -0.391905 255 0 0
-0.022298 0.297190 -0.471081 255 0 0
-0.232355 0.150332 -0.381288 255 0 0
0.222930 0.403232 -0.473112 255 0 0
-0.233336 0.401016 -0.462653 255 0 0
0.510610 0.041858 0.059638 204 51 127
0.231198 -0.128988 -0.245411 255 0 0
-0.318133 0.394779 -0.432116 255 0 0
-0.236852 -0.119834 -0.276289 255 0 0
0.029435 -0.418644 0.398569 255 0 0
-0.339560 -0.130188 -0.149771 127 0 127
-0.137831 -0.100003 -0.290815 255 0 0
0.501651 0.339888 -0.108579 204 51 127
0.486427 0.246322 -0.105931 204 51 127
0.348899 -0.082682 0.414621 127 0 127
-0.519264 0.012682 0.293153 153 0 76
0.395211 -0.126090 -0.031817 127 0 127
0.494935 0.327495 -0.070030 204 51 127
-0.029700 -0.111397 0.134356 127 0 127
-0.462066 0.055018 -0.180836 153 0 76
-0.174926 0.269126 -0.440310 255 0 0
-0.482327 -0.102839 0.161801 153 0 76
0.506619 0.263031 -0.011389 204 51 127
0.073397 -0.424529 0.256674 153 0 76
0.133628 -0.117237 -0.003183 127 0 127
-0.163712 0.567446 -0.555955 255 0 0
0.455766 -0.115432 0.114369 127 0 127
-0.300983 -0.099824 0.179795 127 0 127
-0.373455 -0.137494 -0.132039 127 0 127
-0.217946 -0.485038 0.332304 0 255 0
-0.321035 -0.104093 0.124124 127 0 127
-0.338371 0.057036 -0.313718 255 0 0
0.483589 0.173140 -0.112074 204 51 127
0.171345 -0.418498 0.297388 0 127 127
-0.457209 0.182337 -0.217621 153 0 76
0.338171 0.399477 -0.433828 255 0 0
0.244867 -0.092120 0.271955 127 0 127
-0.505564 -0.077035 0.339062 153 0 76
0.512114 0.131881 0.108149 204 51 127
-0.382396 -0.098311 0.177895 127 0 127
0.253648 -0.437151 -0.056808 127 0 127
-0.443735 0.226607 -0.286211 153 0 76
0.511388 0.284798 0.075094 204 51 127
-0.383619 -0.123093 -0.018869 127 0 127
-0.175927 -0.479185 -0.031469 127 127 0
0.507393 0.113544 0.020512 204 51 127
0.560177 0.343167 0.043508 204 51 127
-0.407301 -0.079023 -0.238552 255 0 0
0.449967 -0.070480 -0.178111 204 51 127
-0.215952 -0.139941 -0.193182 127 0 127
0.510435 -0.015104 0.070772 204 51 127
0.582486 0.352465 0.003241 204 51 127
-0.488864 0.033322 -0.076533 153 0 76
0.514742 0.062892 0.299768 204 51 127
-0.309961 0.516793 -0.505005 255 0 0
-0.080842 0.380814 -0.494908 255 0 0
-0.490277 0.087797 -0.078095 153 0 76
0.219204 -0.126653 0.576416 127 0 127
-0.522849 0.016646 0.194576 153 0 76
-0.371320 -0.119768 -0.042995 127 0 127
-0.272585 -0.086259 0.329973 127 0 127
0.291772 -0.465820 0.311161 0 127 127
0.058212 -0.368381 0.275504 153 0 76
0.335938 -0.648060 -0.142214 153 0 76
0.115823 -0.088546 0.519446 127 0 127
-0.374106 -0.137989 -0.185908 127 0 127
-0.571308 0.285822 0.269231 153 0 76
0.503185 0.285620 -0.042187 204 51 127
0.052031 -0.197835 0.223562 153 0 76
0.029026 -0.416225 0.369609 255 0 0
0.297413 0.191323 -0.383208 255 0 0
-0.071335 0.269555 -0.446729 255 0 0
-0.263797 -0.561368 -0.207618 76 0 153
0.504051 -0.082970 0.055802 204 51 127
-0.514319 0.250377 0.073586 153 0 76
0.224509 -0.108606 0.162310 127 0 127
-0.412758 -0.091191 0.496475 127 0 127
0.227412 -0.096122 0.548781 127 0 127
-0.494330 -0.089576 0.123378 153 0 76
0.051609 -0.490045 0.723906 255 0 0
0.463382 -0.023464 -0.182498 204 51 127
-0.593859 0.343519 -0.228259 153 0 76
-0.392638 0.025319 -0.280518 255 0 0
0.458479 0.220107 -0.239001 204 51 127
-0.211506 0.307481 -0.439868 255 0 0
-0.519540 0.068023 0.309860 153 0 76
-0.417315 -0.132038 -0.022712 127 0 127
0.087310 -0.116606 0.073129 127 0 127
0.047661 -0.472649 0.207859 153 0 76
0.044264 -0.552270 0.732137 204 51 127
-0.488506 0.345703 -0.323097 153 0 76
-0.082317 -0.426956 0.298935 0 255 0
0.379270 -0.101657 0.192697 127 0 127
0.171738 0.214039 -0.420291 255 0 0
0.058153 -0.090261 0.307261 127 0 127
-0.210743 0.240398 -0.416190 255 0 0
0.121673 -0.117080 0.591393 127 0 127
0.127316 -0.155838 -0.120664 127 0 127
-0.082635 -0.130632 -0.086082 127 0 127
-0.494542 0.193956 -0.011910 153 0 76
-0.271898 -0.075680 -0.290125 255 0 0
-0.102002 0.311312 -0.470836 255 0 0
-0.508414 -0.061286 0.086861 153 0 76
0.047104 -0.133352 -0.184235 127 0 127
0.344118 -0.128889 -0.137150 127 0 127
-0.411025 -0.096394 0.232158 127 0 127
-0.024232 0.553701 -0.577641 255 0 0
0.422894 -0.080640 0.360447 127 0 127
0.340117 -0.097485 0.511034 127 0 127
-0.270509 -0.110961 0.117872 127 0 127
0.045210 -0.127853 0.606099 127 0 127
-0.354436 0.178957 -0.344342 255 0 0
0.182400 -0.089880 0.518106 127 0 127
0.068897 -0.119491 0.597191 127 0 127
-0.015504 -0.424001 0.144487 127 127 0
0.129838 -0.085794 0.423314 127 0 127
-0.567058 0.347854 0.147248 153 0 76
0.497088 0.312421 -0.039036 204 51 127
0.537750 0.266722 0.281053 204 51 127
0.059603 -0.114575 0.029235 127 0 127
-0.277431 0.135501 -0.368098 255 0 0
0.059440 -0.283799 0.257494 153 0 76
0.057071 -0.086958 0.412768 127 0 127
0.053440 -0.468223 0.630750 255 0 0
0.021767 -0.410585 0.189944 127 127 0
-0.457333 0.271605 -0.277540 153 0 76
0.483775 0.082264 -0.091598 204 51 127
-0.392302 0.439682 -0.434706 255 0 0
-0.025503 -0.120164 0.034369 127 0 127
-0.375350 -0.131881 -0.211916 127 0 127
0.117412 -0.121512 -0.051053 127 0 127
-0.482246 0.211382 -0.108713 153 0 76
0.310415 0.118648 -0.345144 255 0 0
0.237323 0.343910 -0.450582 255 0 0
0.007407 -0.043737 -0.307779 255 0 0
0.483624 -0.103468 0.154610 127 0 127
0.471100 -0.106477 0.036130 204 51 127
0.522969 0.040599 0.281401 204 51 127
-0.008255 -0.462312 0.276454 153 0 76
0.578205 0.360632 0.229432 204 51 127
0.026515 0.371525 -0.495154 255 0 0
-0.340712 -0.124465 -0.038299 127 0 127
-0.114881 0.456415 -0.523920 255 0 0
-0.457586 0.136340 -0.206888 153 0 76
-0.311962 -0.100276 0.231543 127 0 127
0.122319 -0.122111 0.203673 127 0 127
-0.481253 -0.019192 -0.067862 153 0 76
0.509763 0.072770 0.046713 204 51 127
0.275067 -0.111547 0.052122 127 0 127
0.051895 -0.091663 0.359177 127 0 127
0.603408 0.346557 -0.169168 204 51 127
-0.493715 0.119508 -0.002558 153 0 76
0.222468 0.211217 -0.403083 255 0 0
-0.332071 -0.131366 0.574243 127 0 127
-0.153569 -0.443205 0.003911 127 127 0
-0.515157 0.158062 0.256720 153 0 76
-0.244062 -0.086509 -0.288114 255 0 0
0.587618 0.332950 -0.286411 204 51 127
-0.061586 -0.127864 -0.121939 127 0 127
-0.536201 0.303496 0.251989 153 0 76
0.150690 0.126581 -0.373780 255 0 0
0.355653 -0.089263 0.281417 127 0 127
-0.429388 -0.124671 -0.085206 127 0 127
0.134502 0.543504 -0.556435 255 0 0
0.244852 0.487863 -0.490368 255 0 0
-0.490067 0.040305 -0.014279 153 0 76
0.438374 -0.113277 0.179578 127 0 127
-0.271877 -0.118492 -0.261743 255 0 0
0.501827 -0.052769 0.064224 204 51 127
-0.105512 -0.057948 -0.300985 255 0 0
-0.484820 -0.065768 -0.084465 153 0 76
0.011098 -0.481796 0.268298 153 0 76
-0.175712 -0.086565 0.506995 127 0 127
-0.487805 0.016286 -0.026592 153 0 76
-0.496587 0.338880 -0.227448 153 0 76
0.189787 -0.120932 -0.044597 127 0 127
-0.410735 -0.084667 0.319152 127 0 127
0.462814 -0.082384 0.380587 127 0 127
0.232796 -0.099290 0.192964 127 0 127
-0.164054 -0.099356 0.198010 127 0 127
0.107203 0.157301 -0.395504 255 0 0
-0.440234 -0.067982 -0.203728 153 0 76
0.145669 -0.476917 0.272989 0 127 127
0.014448 -0.123418 0.238399 153 0 76
-0.223973 -0.633074 -0.162232 153 76 0
0.269393 -0.103881 -0.276335 255 0 0
-0.174803 -0.126201 0.125169 127 0 127
0.480377 0.069985 -0.114758 204 51 127
0.137263 -0.092960 0.342564 127 0 127
0.386355 0.411256 -0.397659 255 0 0
-0.580693 0.338755 -0.108919 153 0 76
-0.444250 0.137522 -0.241561 153 0 76
-0.107764 -0.110067 0.080083 127 0 127
0.034638 -0.488157 0.595177 255 0 0
0.448693 -0.126468 0.030961 127 0 127
-0.521638 0.143674 0.284607 153 0 76
0.007167 -0.102067 0.173168 127 0 127
-0.502021 0.135114 0.055900 153 0 76
-0.228249 -0.079736 0.505409 127 0 127
0.425345 -0.121226 -0.150596 204 51 127
-0.456827 -0.079804 0.397588 127 0 127
-0.518715 0.052714 0.141598 153 0 76
0.100602 -0.472012 0.255576 153 0 76
-0.300005 -0.075851 0.462750 127 0 127
0.477327 0.156166 -0.190047 204 51 127
0.276874 -0.037413 -0.310879 255 0 0
-0.461489 -0.110772 0.029023 153 0 76
-0.325445 -0.121685 -0.062403 127 0 127
-0.493493 -0.079077 0.312214 153 0 76
-0.048091 0.522770 -0.571405 255 0 0
0.111428 0.444827 -0.527752 255 0 0
-0.517148 0.236907 0.276737 153 0 76
0.204076 -0.109871 0.079949 127 0 127
0.107123 -0.118878 0.047340 127 0 127
-0.033604 -0.112152 0.057805 127 0 127
-0.057067 -0.010181 -0.331626 255 0 0
0.026500 -0.385993 0.202456 153 0 76
-0.523290 0.059133 0.176454 153 0 76
-0.002435 -0.134321 -0.195137 127 0 127
0.159337 -0.131668 -0.165492 127 0 127
0.158764 0.570736 -0.588033 255 0 0
0.275218 0.415158 -0.462078 255 0 0
0.284694 0.268496 -0.403205 255 0 0
0.040874 -0.412934 0.281569 255 0 0
0.480509 0.214137 -0.194182 204 51 127
0.496852 -0.029212 0.024948 204 51 127
-0.006627 0.168296 -0.412939 255 0 0
0.189094 -0.433194 0.276696 0 127 127
0.308415 0.279492 -0.399071 255 0 0
-0.114506 -0.424816 0.033997 127 127 0
0.327284 -0.480466 -0.130306 127 0 127
0.438265 0.072674 -0.239658 204 51 127
-0.381085 -0.093501 0.512932 127 0 127
0.012079 -0.536535 0.750550 255 0 0
-0.491484 0.144916 -0.024785 153 0 76
-0.215328 0.504453 -0.516142 255 0 0
-0.409500 0.356443 -0.356624 255 0 0
-0.003141 -0.091046 0.367428 127 0 127
-0.270232 0.000272 -0.323744 255 0 0
0.217876 -0.425459 0.313585 0 127 127
0.386190 0.083031 -0.296529 255 0 0
-0.247093 -0.037689 -0.304085 255 0 0
-0.467211 -0.118429 0.080309 127 0 127
0.434239 -0.127194 0.071851 127 0 127
0.050042 0.148407 -0.402670 255 0 0
0.226862 -0.487584 -0.011269 127 0 127
0.004499 -0.086433 0.420147 127 0 127
-0.523088 0.185457 0.262488 153 0 76
0.505269 0.204499 0.045588 204 51 127
0.514927 0.341734 0.043509 204 51 127
0.541491 0.357517 0.200252 204 51 127
-0.033741 0.580692 -0.615045 255 0 0
-0.526042 0.235778 0.181086 153 0 76
-0.302433 0.419337 -0.445898 255 0 0
-0.176365 0.045479 -0.341258 255 0 0
-0.524217 0.108845 0.175310 153 0 76
-0.079796 -0.046627 -0.315298 255 0 0
-0.514956 0.347091 -0.374187 153 0 76
0.140300 -0.099028 0.564324 127 0 127
0.200031 -0.116696 0.002562 127 0 127
0.180456 -0.103064 0.156600 127 0 127
-0.512889 0.007995 0.267613 153 0 76
0.341154 -0.505708 -0.193531 127 0 127
0.090513 -0.115222 0.021569 127 0 127
0.082218 -0.095193 0.317382 127 0 127
0.384655 -0.487560 0.351475 0 127 127
0.201355 -0.125404 0.172525 127 0 127
-0.276625 -0.600668 -0.191710 153 76 0
-0.022302 -0.082752 0.461628 127 0 127
-0.115795 -0.124712 -0.087301 127 0 127
0.319603 -0.096729 0.209879 127 0 127
-0.054039 0.570617 -0.593000 255 0 0
0.476223 0.247760 -0.222215 204 51 127
0.131020 -0.129443 -0.140432 127 0 127
0.143933 -0.125876 -0.032917 127 0 127
-0.390918 -0.009038 -0.271547 255 0 0
0.509874 0.349393 -0.347022 204 51 127
-0.436648 0.253096 -0.290880 153 0 76
-0.169446 0.517703 -0.532076 255 0 0
-0.512715 -0.065464 0.229533 153 0 76
0.205255 -0.083622 0.483661 127 0 127
0.036630 -0.095923 0.565710 127 0 127
0.229143 0.443047 -0.481181 255 0 0
0.030453 -0.249754 0.267490 153 0 76
0.524595 0.081724 0.254090 204 51 127
-0.476372 0.090313 -0.133011 153 0 76
0.314034 -0.580904 -0.131299 153 0 76
0.054604 -0.458112 0.335764 255 0 0
-0.099784 -0.080937 0.411469 127 0 127
0.521122 0.179897 0.116619 204 51 127
0.197782 0.279236 -0.435124 255 0 0
-0.118950 -0.151970 -0.122622 127 0 127
-0.511920 0.344572 -0.097239 153 0 76
0.492371 -0.090307 0.079961 204 51 127
-0.387783 0.321799 -0.366342 255 0 0
0.055450 -0.433254 0.348210 255 0 0
-0.298854 0.497954 -0.482316 255 0 0
-0.419169 -0.059271 -0.221378 153 0 76
-0.337763 -0.103080 0.184550 127 0 127
-0.180899 -0.472272 -0.082609 127 127 0
-0.227647 -0.612426 -0.126239 153 76 0
0.208557 0.231575 -0.415508 255 0 0
0.015654 0.135354 -0.388588 255 0 0
-0.269719 -0.482233 0.353159 0 255 0
-0.474278 0.038592 -0.135608 153 0 76
0.075710 -0.451798 0.250266 153 0 76
-0.062091 -0.433865 0.258983 0 255 0
-0.428050 -0.124138 -0.046943 127 0 127
-0.513925 0.000379 0.385030 153 0 76
-0.108921 -0.099783 0.196818 127 0 127
0.071952 -0.101011 0.572810 127 0 127
0.385451 -0.092676 0.285278 127 0 127
-0.360746 0.330604 -0.396584 255 0 0
-0.002100 -0.023102 -0.326215 255 0 0
0.049905 -0.471979 0.418444 255 0 0
-0.348254 -0.081399 0.443150 127 0 127
0.104570 -0.428337 0.181111 127 0 127
-0.150197 0.020081 -0.331074 255 0 0
0.172331 -0.127616 0.584002 127 0 127
0.248790 -0.479432 -0.065318 127 0 127
0.516805 -0.081861 0.222112 204 51 127
0.511571 0.025347 0.121298 204 51 127
-0.385628 -0.138309 0.554542 127 0 127
0.496448 0.208115 -0.080032 204 51 127
0.424882 -0.124627 0.529835 127 0 127
-0.219282 -0.601573 -0.156201 153 76 0
-0.204169 -0.075973 0.487759 127 0 127
0.465897 0.282755 -0.240409 204 51 127
0.503965 0.174538 0.041996 204 51 127
0.266211 -0.058506 -0.296553 255 0 0
-0.354587 -0.118025 0.543548 127 0 127
-0.272478 -0.088164 0.393477 127 0 127
0.171973 -0.109496 0.560219 127 0 127
-0.461830 -0.581427 0.415476 153 0 76
0.289873 0.318799 -0.428026 255 0 0
0.055217 0.529580 -0.565184 255 0 0
0.450774 0.096816 -0.215486 204 51 127
0.145293 0.187332 -0.401462 255 0 0
0.169635 0.560323 -0.561066 255 0 0
0.269931 0.496665 -0.493400 255 0 0
0.508869 -0.586653 0.424671 0 255 0
-0.363822 0.468216 -0.452966 255 0 0
-0.365559 -0.079724 0.470890 127 0 127
-0.020146 0.203330 -0.428720 255 0 0
0.492219 -0.023066 -0.009104 204 51 127
-0.377744 -0.110243 0.046699 127 0 127
0.204632 -0.079711 0.509046 127 0 127
-0.045733 0.108428 -0.376439 255 0 0
-0.069026 -0.105281 0.134828 127 0 127
-0.515570 -0.068693 0.291540 153 0 76
-0.046772 -0.141977 -0.220754 127 0 127
0.277422 -0.443037 -0.070429 127 0 127
-0.540726 0.343436 0.101479 153 0 76
-0.300064 0.466600 -0.462204 255 0 0
0.101904 0.074650 -0.359211 255 0 0
-0.118282 -0.443288 0.277205 0 255 0
0.520953 0.095573 0.129575 204 51 127
0.036541 0.000299 -0.336485 255 0 0
-0.313360 0.016084 -0.308781 255 0 0
0.274075 -0.105226 0.181213 127 0 127
-0.527614 -0.032620 0.408961 153 0 76
0.305503 0.093259 -0.339312 255 0 0
0.052609 -0.473792 0.689436 255 0 0
0.485362 0.280699 -0.191178 204 51 127
0.035398 0.055977 -0.352772 255 0 0
0.144359 -0.128595 0.121126 127 0 127
0.527509 0.185730 0.165803 204 51 127
0.338841 -0.100294 0.163247 127 0 127
-0.476897 -0.537276 0.398624 0 255 0
-0.556494 0.340019 -0.035100 153 0 76
-0.324367 0.446600 -0.446754 255 0 0
-0.163927 0.149012 -0.395893 255 0 0
0.109092 -0.106841 0.116707 127 0 127
-0.414890 0.056709 -0.271754 153 0 76
0.527779 0.254991 0.241550 204 51 127
-0.404171 -0.080869 0.452350 127 0 127
0.236454 0.272001 -0.416298 255 0 0
-0.526122 0.345954 0.173396 153 0 76
-0.554462 0.336436 -0.122696 153 0 76
-0.457789 0.090688 -0.215251 153 0 76
-0.425444 -0.550662 0.389516 0 255 0
0.293244 -0.448497 -0.120707 127 0 127
0.007032 0.260117 -0.445456 255 0 0
-0.517107 0.275503 0.248987 153 0 76
-0.155614 -0.125008 -0.090490 127 0 127
-0.239527 -0.468024 0.319544 0 255 0
-0.474966 0.177350 -0.166009 153 0 76
0.055689 -0.138982 0.226892 153 0 76
-0.047566 0.075046 -0.369806 255 0 0
0.053329 -0.407521 0.304981 255 0 0
0.518230 0.138061 0.247630 204 51 127
0.151656 -0.146000 0.174644 127 0 127
0.319376 -0.526191 -0.185477 127 0 127
-0.240681 0.272690 -0.422733 255 0 0
-0.560139 0.344221 0.065472 153 0 76
-0.317693 0.146050 -0.357406 255 0 0
0.204245 0.126597 -0.373786 255 0 0
-0.036407 0.441694 -0.535724 255 0 0
0.292819 -0.616150 -0.151509 153 0 76
-0.588109 0.357525 0.136749 153 0 76
0.522087 0.144955 0.130115 204 51 127
-0.148939 -0.120480 -0.039510 127 0 127
-0.427366 0.137037 -0.282366 153 0 76
-0.067565 -0.117790 0.059706 127 0 127
0.521180 0.131129 0.187525 204 51 127
-0.415866 0.406846 -0.416664 255 0 0
-0.532975 0.095597 0.355149 153 0 76
-0.016118 0.509669 -0.558071 255 0 0
-0.331742 -0.490311 0.366906 0 255 0
-0.515923 -0.037254 0.364546 153 0 76
-0.039096 -0.429506 0.164905 127 127 0
0.203851 -0.098912 0.556859 127 0 127
-0.493697 0.307819 -0.098136 153 0 76
-0.245408 -0.108503 0.159887 127 0 127
-0.503136 -0.092538 0.470661 127 0 127
0.483036 -0.053921 -0.115990 204 51 127
0.160839 -0.083424 0.378215 127 0 127
-0.523436 0.224313 0.149619 153 0 76
0.519063 0.060641 0.213508 204 51 127
-0.530565 0.333083 -0.300177 153 0 76
-0.423377 -0.084075 0.360248 127 0 127
0.467351 0.199515 -0.209713 204 51 127
-0.504849 0.221709 0.004057 153 0 76
-0.481406 -0.093686 0.024179 153 0 76
-0.161827 -0.110692 0.139905 127 0 127
-0.435992 -0.078421 0.415303 127 0 127
0.348898 -0.133406 -0.183647 127 0 127
-0.011436 -0.116241 0.079379 127 0 127
-0.074834 -0.138512 -0.175532 127 0 127
0.086961 -0.135104 -0.217964 127 0 127
0.196759 -0.463380 0.311510 0 127 127
0.438988 0.325287 -0.331663 255 0 0
0.390594 0.267769 -0.361131 255 0 0
0.504543 0.155816 -0.009515 204 51 127
-0.193127 0.154812 -0.385870 255 0 0
-0.010805 -0.127820 -0.120900 127 0 127
-0.274183 0.502207 -0.492724 255 0 0
0.246129 -0.126975 0.585545 127 0 127
-0.513409 0.187731 0.128782 153 0 76
0.455492 -0.119692 -0.119514 127 0 127
-0.393086 0.420159 -0.418343 255 0 0
-0.068394 -0.079008 0.435193 127 0 127
-0.472578 0.357051 -0.361962 153 0 76
0.025609 -0.099535 0.269982 127 0 127
-0.423440 0.288425 -0.319135 255 0 0
-0.586189 0.353196 0.013550 153 0 76
0.044922 -0.589192 0.704457 0 0 255
0.512899 -0.013195 0.319059 204 51 127
-0.496369 -0.072252 0.383995 153 0 76
0.151157 -0.095247 -0.283290 255 0 0
0.492735 -0.097716 0.203690 127 0 127
-0.511320 0.101573 0.324684 153 0 76
0.506478 0.083987 0.020278 204 51 127
0.518597 -0.022944 0.203764 204 51 127
-0.315021 -0.090530 0.337165 127 0 127
-0.506627 0.104388 0.093688 153 0 76
-0.278252 -0.098897 0.189884 127 0 127
-0.203871 -0.126835 -0.250498 255 0 0
0.523005 -0.004304 0.162609 204 51 127
0.330719 -0.486390 0.335010 0 127 127
-0.443049 -0.114735 0.189784 127 0 127
-0.202676 -0.453565 -0.063345 127 127 0
-0.489152 0.292544 -0.130943 153 0 76
-0.362512 -0.129683 -0.085807 127 0 127
-0.349791 0.422995 -0.423738 255 0 0
-0.003303 0.573423 -0.597076 255 0 0
-0.214892 -0.080235 0.413413 127 0 127
-0.317086 0.204913 -0.368913 255 0 0
0.118338 -0.133967 -0.228956 127 0 127
-0.087703 -0.462357 0.043971 127 127 0
0.116702 0.401908 -0.501045 255 0 0
-0.512000 0.050756 0.089187 153 0 76
0.254139 0.555426 -0.539340 255 0 0
-0.492287 0.060393 -0.057438 153 0 76
-0.297814 0.211877 -0.388704 255 0 0
0.489425 0.276322 -0.140759 204 51 127
0.316391 0.311627 -0.406640 255 0 0
0.074181 0.381800 -0.507225 255 0 0
-0.164331 -0.460552 0.293906 0 255 0
0.505428 0.113940 0.063293 204 51 127
0.486287 0.033128 -0.116088 204 51 127
-0.507049 0.324151 -0.020293 153 0 76
0.542147 0.153916 0.319526 204 51 127
-0.127084 0.125083 -0.387054 255 0 0
-0.398978 0.074684 -0.277894 255 0 0
-0.022165 -0.395857 0.267956 0 255 0
0.096913 -0.424379 0.138806 127 0 127
0.063434 0.569807 -0.591986 255 0 0
0.150992 0.341782 -0.479055 255 0 0
0.035110 -0.121399 0.020089 127 0 127
-0.456263 0.380911 -0.395749 255 0 0
0.537219 -0.083465 0.429287 204 51 127
0.180424 0.532644 -0.536609 255 0 0
-0.389743 -0.130221 -0.111160 127 0 127
0.162847 -0.089965 0.303472 127 0 127
0.023543 -0.128198 -0.125216 127 0 127
0.377209 -0.129741 -0.103208 127 0 127
-0.030652 -0.108377 0.168813 127 0 127
-0.283480 -0.078178 0.418690 127 0 127
0.192544 0.506225 -0.521898 255 0 0
0.505822 0.250253 0.040175 204 51 127
-0.493108 0.358641 -0.379245 153 0 76
-0.521754 0.343483 0.131012 153 0 76
0.304827 0.391262 -0.436894 255 0 0
0.247539 -0.120215 0.018545 127 0 127
0.056847 -0.449954 0.306235 255 0 0
-0.192113 -0.471204 0.304966 0 255 0
-0.451656 -0.124843 0.055218 127 0 127
0.538635 0.205614 0.294967 204 51 127
-0.102332 -0.114338 0.031602 127 0 127
0.513505 0.307725 0.035131 204 51 127
0.424685 -0.106427 -0.189499 204 51 127
-0.439209 -0.112659 -0.142202 127 0 127
0.289380 -0.491099 -0.095022 127 0 127
0.339935 -0.101965 -0.260978 255 0 0
-0.364946 -0.442687 0.371413 0 255 0
0.249431 -0.088322 0.499388 127 0 127
0.338123 0.214789 -0.370411 255 0 0
0.285046 -0.482091 0.331359 0 127 127
0.092045 0.481324 -0.547979 255 0 0
0.427175 -0.440824 0.370270 0 127 127
0.064582 0.192786 -0.422551 255 0 0
0.106995 0.526795 -0.556670 255 0 0
-0.018831 -0.117224 -0.279479 255 0 0
0.031688 -0.469609 0.281251 153 0 76
0.320999 -0.138213 -0.231348 127 0 127
-0.514037 -0.051823 0.125863 153 0 76
-0.172021 0.197688 -0.402294 255 0 0
0.254251 -0.422647 0.319750 0 127 127
-0.060931 0.392629 -0.503284 255 0 0
0.214185 0.548761 -0.536253 255 0 0
-0.407864 -0.134323 -0.067611 127 0 127
-0.416646 -0.135046 -0.115350 127 0 127
0.168084 -0.133591 -0.256145 127 0 127
-0.409754 -0.027374 -0.251526 255 0 0
-0.513434 0.160234 0.305060 153 0 76
0.493052 0.159217 -0.094173 204 51 127
-0.325488 0.334386 -0.417403 255 0 0
-0.278401 0.288616 -0.410166 255 0 0
0.029937 -0.152182 0.221422 153 0 76
-0.610773 0.346569 -0.183492 153 0 76
-0.315537 -0.086178 0.478717 127 0 127
-0.487264 -0.089918 0.057531 153 0 76
-0.505524 0.008087 0.050631 153 0 76
-0.521815 -0.034629 0.200854 153 0 76
-0.359060 -0.103760 -0.248132 255 0 0
0.172909 0.463204 -0.508764 255 0 0
-0.303196 0.311542 -0.410410 255 0 0
0.444542 -0.107160 0.229263 127 0 127
0.037033 -0.647677 0.731044 0 0 255
0.178944 -0.112354 0.119904 127 0 127
-0.127846 -0.139970 -0.239489 127 0 127
0.019416 -0.124922 -0.019864 127 0 127
-0.494119 0.309039 -0.039261 153 0 76
-0.521271 0.086503 0.269597 153 0 76
0.471805 0.305467 -0.261306 204 51 127
0.516533 0.154486 0.286096 204 51 127
-0.269229 -0.561368 -0.165654 153 76 0
0.131279 0.084615 -0.362408 255 0 0
-0.496953 0.092939 -0.030460 153 0 76
0.507065 0.027203 0.036940 204 51 127
-0.090623 -0.416987 0.276174 0 255 0
-0.243526 -0.122844 -0.009681 127 0 127
0.202019 0.381888 -0.474455 255 0 0
0.472322 -0.093252 -0.085720 204 51 127
0.474302 0.028305 -0.146112 204 51 127
-0.576049 0.323134 0.258437 153 0 76
-0.519292 -0.021343 0.158680 153 0 76
0.525984 0.344655 -0.115140 204 51 127
-0.069575 0.034621 -0.351696 255 0 0
0.024014 -0.463934 0.337837 255 0 0
0.313081 -0.087068 0.318709 127 0 127
0.029276 -0.426725 0.472111 255 0 0
0.539817 -0.477427 0.407383 0 127 127
0.598449 0.348072 -0.125329 204 51 127
0.517838 0.182279 0.090418 204 51 127
-0.420864 -0.503894 0.395536 0 255 0
0.507630 0.160982 0.071495 204 51 127
-0.463494 -0.106997 -0.014628 153 0 76
-0.277390 -0.084888 0.473424 127 0 127
-0.616119 0.343084 -0.074917 153 0 76
0.025005 -0.450024 0.627035 255 0 0
0.300059 -0.133603 -0.128201 127 0 127
-0.269407 -0.121232 -0.053351 127 0 127
-0.211130 -0.076442 0.455897 127 0 127
-0.213973 0.385280 -0.466549 255 0 0
0.337863 -0.571475 -0.177145 153 0 76
-0.444343 -0.023207 -0.192972 153 0 76
0.025540 0.555921 -0.578725 255 0 0
0.496323 0.096286 -0.056566 204 51 127
-0.027212 0.377078 -0.497659 255 0 0
0.171815 -0.461691 0.271793 0 127 127
0.520689 0.347058 -0.028036 204 51 127
-0.507794 0.338184 0.025154 153 0 76
0.104836 -0.130875 -0.088840 127 0 127
-0.523730 0.345363 0.224767 153 0 76
-0.316357 0.059085 -0.328777 255 0 0
0.567929 0.189122 0.318792 204 51 127
-0.213184 -0.113959 0.028290 127 0 127
0.511638 -0.051308 0.335409 204 51 127
0.358302 -0.501214 -0.161094 127 0 127
0.175035 -0.146671 -0.102979 127 0 127
0.003997 -0.437635 0.257511 153 0 76
0.496984 -0.059041 -0.017878 204 51 127
0.593160 0.350123 -0.068108 204 51 127
0.456052 0.375300 -0.383848 255 0 0
-0.542686 0.132459 0.340771 153 0 76
-0.059722 -0.120924 -0.260292 255 0 0
0.216583 -0.084800 0.433601 127 0 127
-0.442033 0.064005 -0.229542 153 0 76
-0.191704 -0.426159 0.310694 0 255 0
0.211353 -0.089066 0.384829 127 0 127
0.423081 0.020714 -0.254650 255 0 0
-0.600940 0.347368 0.060321 153 0 76
-0.360580 0.104156 -0.317929 255 0 0
0.559241 0.342085 0.017595 204 51 127
0.024256 -0.471990 0.578702 255 0 0
-0.085514 -0.136480 -0.249055 127 0 127
0.137306 -0.459368 0.081163 127 0 127
0.055106 -0.455091 0.453892 255 0 0
0.125403 -0.463142 0.149296 127 0 127
-0.242071 -0.083170 0.454787 127 0 127
-0.470302 -0.616514 0.416929 153 0 76
-0.057212 0.480686 -0.551641 255 0 0
-0.544138 -0.066529 0.418017 153 0 76
0.361515 -0.034732 -0.285223 255 0 0
-0.318750 -0.105802 -0.265266 255 0 0
-0.162995 0.254503 -0.425076 255 0 0
0.288659 -0.075680 0.471679 127 0 127
0.364290 0.415737 -0.423655 255 0 0
0.013846 0.292831 -0.469366 255 0 0
-0.483206 -0.006809 -0.109108 153 0 76
-0.339979 0.091634 -0.331816 255 0 0
-0.308863 -0.086111 0.509591 127 0 127
-0.030029 0.150035 -0.395213 255 0 0
-0.098454 -0.084397 -0.298090 255 0 0
0.500243 0.274345 -0.063388 204 51 127
0.319274 0.349001 -0.426548 255 0 0
0.121222 0.199481 -0.418651 255 0 0
0.066726 -0.590710 0.734260 0 0 255
0.087876 -0.140168 -0.194335 127 0 127
-0.154656 0.334790 -0.473929 255 0 0
0.002777 -0.132252 -0.171511 127 0 127
-0.285462 -0.131611 -0.166483 127 0 127
-0.017837 -0.093981 0.562854 127 0 127
0.405669 0.352304 -0.362704 255 0 0
0.494065 -0.569233 0.403082 0 255 0
0.565121 0.347895 0.156139 204 51 127
0.249197 -0.080093 0.410626 127 0 127
0.084054 0.578069 -0.610845 255 0 0
0.311355 0.497255 -0.469118 255 0 0
-0.571741 0.345204 -0.163200 153 0 76
-0.506530 -0.026112 0.113843 153 0 76
0.004549 -0.459407 0.171459 127 127 0
0.145119 -0.421052 0.086066 127 0 127
-0.211749 0.053119 -0.346490 255 0 0
0.123180 -0.043321 -0.315535 255 0 0
-0.487343 -0.104436 0.077160 153 0 76
0.543140 -0.505098 0.388082 0 127 127
0.001265 -0.469729 0.242360 153 0 76
-0.471190 0.110247 -0.169883 153 0 76
0.143713 -0.430201 0.295102 0 127 127
-0.469900 0.160822 -0.209920 153 0 76
-0.233054 0.352696 -0.445449 255 0 0
0.314619 0.518750 -0.488550 255 0 0
0.254093 -0.115877 0.065097 127 0 127
-0.021946 -0.130446 -0.150885 127 0 127
0.503948 0.233279 -0.027330 204 51 127
-0.452247 0.216921 -0.265858 153 0 76
0.165150 0.391580 -0.494060 255 0 0
-0.381598 0.216381 -0.338775 255 0 0
-0.076648 0.557769 -0.574774 255 0 0
0.388882 -0.081019 0.444304 127 0 127
0.420847 -0.130874 -0.000252 127 0 127
0.084096 -0.087247 0.340328 127 0 127
-0.037129 0.037249 -0.344322 255 0 0
0.378269 0.444670 -0.438596 255 0 0
-0.466244 -0.108668 0.506985 127 0 127
0.491371 0.195762 -0.114410 204 51 127
0.022902 -0.461701 0.395276 255 0 0
0.191283 -0.089212 0.312241 127 0 127
0.196663 -0.134546 0.587884 127 0 127
0.144074 0.014076 -0.339911 255 0 0
-0.495926 0.241245 -0.069345 153 0 76
0.275003 0.351086 -0.439946 255 0 0
0.027947 0.187128 -0.421275 255 0 0
0.038130 -0.446494 0.281569 255 0 0
0.021927 -0.427269 0.319803 255 0 0
0.065929 -0.037805 -0.310419 255 0 0
-0.070449 -0.142158 -0.216922 127 0 127
0.510549 -0.040935 0.359369 204 51 127
-0.079860 -0.119697 0.038044 127 0 127
0.330290 -0.076403 0.435458 127 0 127
-0.367164 -0.084461 0.381501 127 0 127
0.085773 -0.461042 0.153376 127 0 127
-0.167257 0.074017 -0.364537 255 0 0
-0.247038 -0.476697 -0.125587 127 127 0
-0.034718 -0.031139 -0.313464 255 0 0
0.489516 0.128870 -0.057882 204 51 127
-0.124430 -0.112880 0.046231 127 0 127
0.523160 0.219277 0.125960 204 51 127
0.080496 -0.122622 -0.258326 255 0 0
-0.587506 0.344394 -0.201976 153 0 76
-0.069754 -0.083226 0.536827 127 0 127
0.535144 -0.526624 0.427590 0 127 127
0.489994 -0.080883 0.320730 127 0 127
0.131657 0.224971 -0.429476 255 0 0
0.129035 -0.142817 -0.100670 127 0 127
0.132668 -0.082631 0.459311 127 0 127
0.414244 -0.128422 -0.108436 127 0 127
-0.537344 0.337956 -0.331667 153 0 76
0.576114 0.355606 0.090453 204 51 127
0.348379 0.306064 -0.395579 255 0 0
-0.407864 -0.106919 0.124858 127 0 127
-0.169513 -0.075647 0.477618 127 0 127
0.485694 0.356864 -0.366744 204 51 127
0.489844 0.325223 -0.242243 204 51 127
0.528837 0.245206 0.195233 204 51 127
0.275176 -0.112239 0.104150 127 0 127
-0.168986 0.386101 -0.489482 255 0 0
0.012545 -0.571649 0.721025 0 0 255
-0.094729 -0.097135 0.564981 127 0 127
0.466261 0.082506 -0.204266 204 51 127
-0.517762 0.318122 0.088861 153 0 76
0.037004 -0.572205 0.719692 0 0 255
0.065442 -0.630709 0.763297 0 0 255
0.053690 -0.466344 0.570723 255 0 0
0.377992 0.325468 -0.387663 255 0 0
-0.169252 -0.131306 -0.161411 127 0 127
0.599311 0.335857 -0.196076 204 51 127
-0.110626 -0.091459 0.291315 127 0 127
0.524135 -0.615372 0.430162 0 255 0
0.447622 -0.487623 0.369390 0 127 127
0.104843 -0.403255 0.270461 0 127 127
0.510193 0.203620 0.082980 204 51 127
0.350936 0.036693 -0.303420 255 0 0
-0.446427 -0.616263 0.429896 153 0 76
0.157635 -0.129534 -0.074251 127 0 127
0.546148 0.244098 0.281924 204 51 127
-0.003471 0.074347 -0.361216 255 0 0
-0.272763 -0.094759 0.537791 127 0 127
0.124013 -0.109069 0.090000 127 0 127
0.114858 0.111762 -0.375508 255 0 0
0.468172 -0.098164 -0.142103 204 51 127
-0.000299 0.525576 -0.566079 255 0 0
-0.095345 0.470031 -0.541951 255 0 0
0.578217 0.350319 -0.043880 204 51 127
0.468377 -0.092296 0.464080 127 0 127
0.401333 -0.134245 -0.067038 127 0 127
-0.285223 -0.637975 -0.156121 153 76 0
0.061323 -0.101794 0.175245 127 0 127
0.419899 -0.092492 -0.209838 204 51 127
0.281822 -0.084846 0.430984 127 0 127
-0.262019 0.053128 -0.333628 255 0 0
-0.520967 -0.019011 0.231493 153 0 76
0.320261 -0.469269 0.320864 0 127 127
0.480970 0.307838 -0.174288 204 51 127
0.435866 -0.045096 -0.208852 204 51 127
-0.264464 -0.510779 -0.143273 127 127 0
0.434555 0.295479 -0.312246 255 0 0
-0.265320 -0.586576 -0.127688 76 0 153
0.248276 0.296660 -0.429572 255 0 0
0.052336 -0.455814 0.654046 255 0 0
-0.053404 -0.466374 0.287361 0 255 0
-0.523031 0.336642 -0.046715 153 0 76
-0.231049 -0.112805 0.556964 127 0 127
0.114201 -0.108928 0.565581 127 0 127
0.012191 0.480344 -0.554169 255 0 0
-0.046079 0.248217 -0.447502 255 0 0
0.120507 -0.421364 0.152666 127 0 127
0.066666 -0.114914 0.092783 127 0 127
-0.197086 0.345091 -0.460627 255 0 0
0.213178 -0.428283 0.287097 0 127 127
0.191830 -0.102086 0.236393 127 0 127
0.547770 -0.609093 0.381417 0 255 0
0.177166 -0.460274 0.080005 127 0 127
-0.185992 -0.108425 0.164306 127 0 127
-0.183295 -0.115767 0.081336 127 0 127
0.055220 -0.468480 0.734441 255 0 0
0.517153 0.058834 0.155793 204 51 127
0.365562 -0.114449 0.059707 127 0 127
0.001278 0.213356 -0.433356 255 0 0
0.448015 0.340891 -0.309482 255 0 0
0.051027 -0.440085 0.549588 255 0 0
0.400849 -0.485567 0.370030 0 127 127
-0.503933 -0.027026 0.046668 153 0 76
-0.448018 0.043305 -0.201730 153 0 76
-0.171110 0.351745 -0.474905 255 0 0
0.392110 -0.108331 0.068387 127 0 127
-0.350792 -0.120107 0.004112 127 0 127
0.001265 -0.406060 0.246825 153 0 76
0.154280 0.234760 -0.418378 255 0 0
-0.524298 0.193465 0.232154 153 0 76
0.482689 0.326811 -0.194088 204 51 127
0.458928 -0.114229 0.084278 204 51 127
0.492185 -0.071619 -0.050181 204 51 127
0.395676 -0.038049 -0.261685 255 0 0
0.484083 -0.098345 -0.043520 204 51 127
0.488480 -0.068084 0.402545 127 0 127
-0.095840 0.510546 -0.550619 255 0 0
