ply
format ascii 1.0
element vertex 1266
property float x
property float y
property float z
property uchar red
property uchar green
property uchar blue
end_header
-0.193592 -0.127796 -0.044656 76 0 153
0.035575 -0.127796 0.535674 76 0 153
-0.347833 -0.081275 -0.015635 76 0 153
0.410975 -0.126772 0.243609 76 0 153
-0.258715 -0.127709 -0.265438 76 0 153
0.301738 -0.081275 0.268144 76 0 153
0.375461 -0.449464 0.556011 153 0 76
0.414680 -0.486265 -0.219524 76 153 0
0.387954 -0.127796 0.273387 76 0 153
0.045719 0.577689 -0.235670 0 127 127
0.360316 -0.478548 0.500498 153 0 76
0.016575 0.538174 -0.239795 0 127 127
-0.350864 -0.488889 -0.250594 0 127 127
-0.277651 -0.081275 0.166085 76 0 153
-0.085568 -0.127796 -0.026753 76 0 153
0.416460 -0.449606 0.521996 153 0 76
-0.041582 -0.127796 0.467988 76 0 153
0.340586 -0.127796 0.164676 76 0 153
0.369880 -0.403679 0.490682 153 0 76
0.122597 -0.081275 -0.063648 76 0 153
-0.368484 0.325995 -0.220524 153 76 0
0.207119 -0.127796 0.137019 76 0 153
0.078849 -0.082274 0.385765 76 0 153
0.233822 0.142181 -0.221620 127 127 0
0.290857 -0.081275 0.198203 76 0 153
0.104452 0.095349 -0.239751 127 0 127
0.075950 -0.081275 -0.006687 76 0 153
-0.380941 -0.293400 0.549870 76 0 153
-0.236319 0.704333 -0.243780 0 0 255
0.281133 0.152861 -0.229047 0 255 0
-0.077154 -0.081275 0.455328 76 0 153
-0.185000 0.509907 -0.235971 153 0 76
-0.419285 -0.657244 -0.239445 0 127 127
0.221260 -0.127796 0.236377 76 0 153
0.234753 0.572072 -0.234793 127 127 0
0.234177 -0.127796 -0.029156 76 0 153
0.386850 0.500648 -0.204917 255 0 0
0.365385 -0.606021 0.535981 153 0 76
-0.341554 -0.127796 0.352942 76 0 153
-0.338906 -0.081275 0.305333 76 0 153
-0.182929 0.154805 -0.225514 153 0 76
0.424886 0.561076 -0.204841 255 0 0
-0.160255 -0.081275 0.188653 76 0 153
-0.090901 0.745328 -0.247231 0 0 255
0.110189 -0.081363 -0.189741 76 0 153
-0.230778 0.420583 -0.228284 153 0 76
-0.391773 0.109230 -0.202719 153 76 0
0.127552 -0.127796 0.174235 76 0 153
0.158560 -0.127796 0.254785 76 0 153
0.150363 0.744877 -0.239725 0 0 255
-0.134533 -0.081542 0.008417 76 0 153
-0.236933 -0.076565 -0.217983 153 0 76
0.184934 -0.127796 -0.094716 76 0 153
0.133531 -0.127796 -0.102510 76 0 153
0.214730 0.507622 -0.239903 127 127 0
0.268559 -0.082105 0.432445 76 0 153
0.144593 -0.127796 -0.151847 76 0 153
0.368228 -0.127796 -0.104179 76 0 153
0.426152 -0.088294 0.288677 76 0 153
0.142377 0.453219 -0.225539 127 0 127
0.076842 -0.077986 -0.234068 76 0 153
0.363183 -0.464792 -0.210994 76 153 0
-0.012525 0.612539 -0.218801 0 127 127
-0.343283 -0.127796 0.226377 76 0 153
-0.420047 -0.120637 0.490595 76 0 153
0.342367 -0.284524 -0.231286 76 153 0
0.029570 -0.127796 0.183027 76 0 153
0.418922 0.160770 -0.256206 255 0 0
0.278483 -0.127796 0.355639 76 0 153
0.100661 0.289025 -0.220339 127 0 127
0.139714 -0.127796 0.474181 76 0 153
0.064410 -0.127796 0.299740 76 0 153
0.373373 0.029333 -0.225656 255 0 0
-0.128720 -0.127796 -0.149268 76 0 153
-0.005374 0.708354 -0.216051 0 0 255
0.000559 0.097392 -0.227853 0 127 127
0.393014 -0.152173 0.473110 153 0 76
-0.214410 0.456060 -0.219010 153 0 76
-0.181871 0.404364 -0.229833 153 0 76
0.248431 -0.081275 0.372707 76 0 153
0.350730 -0.081275 -0.088672 76 0 153
-0.102747 -0.127796 -0.187704 76 0 153
0.388411 -0.576871 -0.217184 76 153 0
-0.136254 0.272436 -0.231492 76 153 0
-0.417849 -0.086035 -0.094502 76 0 153
0.404352 -0.166624 0.510332 153 0 76
-0.228235 0.180144 -0.222174 153 0 76
-0.356414 -0.560344 0.540337 76 0 153
-0.185875 -0.127796 0.143119 76 0 153
0.388618 -0.127796 0.204438 76 0 153
-0.072947 -0.081275 0.169008 76 0 153
0.277623 -0.081275 0.046191 76 0 153
0.142730 -0.082274 0.468432 76 0 153
-0.291964 -0.081275 0.356932 76 0 153
-0.420846 0.289530 -0.210598 153 76 0
0.427585 0.629463 -0.213379 255 0 0
0.400064 0.534996 -0.256807 255 0 0
0.265846 -0.082485 0.558846 76 0 153
-0.361547 -0.636327 0.527236 76 0 153
-0.133598 0.201046 -0.235717 76 153 0
-0.375014 -0.081275 -0.040375 76 0 153
-0.370560 0.522005 -0.248241 153 76 0
-0.106666 0.054197 -0.239887 76 153 0
0.383046 -0.081275 0.096910 76 0 153
-0.415421 -0.125520 -0.074698 76 0 153
0.161900 0.725064 -0.204075 0 0 255
0.009494 -0.082071 0.386169 76 0 153
0.125824 0.701543 -0.240940 127 0 127
0.024202 -0.127796 -0.157848 76 0 153
-0.283136 -0.014726 -0.222221 76 0 153
0.428150 0.222613 -0.235165 255 0 0
-0.184101 0.077058 -0.235214 153 0 76
-0.048818 -0.127796 0.212539 76 0 153
-0.320205 0.066850 -0.221037 76 0 153
0.383528 -0.370381 -0.202941 76 153 0
-0.206848 -0.127796 0.016949 76 0 153
-0.298352 -0.081275 -0.086747 76 0 153
0.356035 -0.162260 -0.258398 76 153 0
-0.294987 0.442877 -0.220072 76 0 153
0.412020 -0.561330 0.556731 153 0 76
-0.404299 0.561727 -0.201940 153 76 0
0.091781 -0.127796 0.275063 76 0 153
-0.040850 0.563208 -0.234003 0 127 127
0.283588 -0.048767 -0.233802 0 255 0
-0.021011 0.422887 -0.222280 0 127 127
-0.396916 -0.081274 0.261200 76 0 153
0.380471 -0.274854 -0.196269 76 153 0
0.008025 -0.081501 0.180885 76 0 153
-0.361136 -0.191766 -0.259686 0 127 127
0.408865 -0.081372 0.525146 76 0 153
-0.410384 -0.127635 0.180658 76 0 153
0.385059 -0.491612 -0.272497 76 153 0
-0.371145 -0.081275 0.400499 76 0 153
-0.214234 -0.127796 0.216601 76 0 153
-0.199099 -0.081275 0.451906 76 0 153
0.282420 0.255571 -0.231356 0 255 0
-0.386216 -0.070407 -0.197575 76 0 153
-0.406198 -0.355143 0.536633 76 0 153
0.269249 -0.127796 -0.237965 76 0 153
-0.390127 -0.686676 0.566709 76 0 153
0.051952 -0.127796 0.497646 76 0 153
-0.352317 -0.127796 0.113795 76 0 153
0.373806 -0.081275 0.415896 76 0 153
-0.352946 -0.081275 0.257731 76 0 153
0.138766 0.195276 -0.236200 127 0 127
-0.091663 0.259958 -0.222749 76 153 0
-0.207687 0.739109 -0.209933 0 0 255
-0.421932 0.223246 -0.230112 153 76 0
0.367588 -0.235715 -0.193500 76 153 0
0.300351 -0.127690 0.552975 76 0 153
-0.399592 -0.196962 -0.208814 0 127 127
-0.376032 -0.091859 -0.280652 76 0 153
0.003367 0.575806 -0.239856 0 127 127
0.415541 -0.431746 -0.225515 76 153 0
0.340655 -0.258849 0.505861 153 0 76
0.409878 -0.303617 0.523065 153 0 76
-0.379689 -0.081275 0.167417 76 0 153
-0.420867 -0.093442 0.448869 76 0 153
-0.264633 -0.127646 0.556164 76 0 153
0.374298 -0.239374 -0.261709 76 153 0
-0.419103 0.624882 -0.252367 153 76 0
-0.050975 -0.127796 0.417429 76 0 153
0.359907 -0.528975 -0.247166 76 153 0
-0.186987 -0.085840 -0.277900 76 0 153
-0.419757 0.014312 -0.250696 153 76 0
-0.060990 -0.081275 0.132046 76 0 153
0.227396 0.738294 -0.210448 0 0 255
-0.391757 -0.591786 0.562152 76 0 153
-0.367160 0.097992 -0.233951 153 76 0
0.226843 0.174894 -0.219264 127 127 0
0.306738 -0.081701 0.451029 76 0 153
0.326941 -0.081275 0.134160 76 0 153
-0.133620 0.161166 -0.235705 76 153 0
0.414198 0.113804 -0.201984 255 0 0
0.023475 0.733784 -0.254110 0 0 255
-0.367783 0.415833 -0.223702 153 76 0
0.397582 0.012918 -0.201933 255 0 0
0.406927 -0.081316 0.046511 76 0 153
0.108640 -0.127796 -0.071944 76 0 153
0.111693 -0.019533 -0.239864 127 0 127
0.171415 -0.127796 0.324094 76 0 153
0.383167 -0.127796 0.084668 76 0 153
0.246965 -0.081275 0.219232 76 0 153
-0.230223 0.666736 -0.226971 153 0 76
-0.250903 -0.081275 0.007399 76 0 153
-0.409923 -0.718835 -0.241123 0 127 127
-0.311407 -0.081275 -0.019500 76 0 153
-0.112420 0.356083 -0.239900 76 153 0
-0.388957 -0.081275 0.455748 76 0 153
-0.367479 -0.008941 -0.224851 153 76 0
-0.393841 -0.468123 -0.271420 0 127 127
-0.093004 -0.127796 0.048565 76 0 153
0.416317 -0.530468 -0.266407 76 153 0
-0.378383 0.591345 -0.254592 153 76 0
0.426643 -0.091950 0.229042 76 0 153
-0.358475 -0.592324 0.522133 76 0 153
0.398726 -0.081608 -0.043808 76 0 153
-0.132161 0.676994 -0.236339 76 153 0
-0.200460 -0.081275 -0.026226 76 0 153
0.413731 -0.390860 0.520984 153 0 76
-0.274271 -0.127796 0.054302 76 0 153
0.237017 0.607953 -0.228088 127 127 0
0.406349 -0.058826 -0.257504 255 0 0
0.152140 -0.127796 0.405511 76 0 153
0.244815 -0.079414 -0.249110 76 0 153
-0.356695 -0.310678 -0.198389 0 127 127
-0.289008 0.646192 -0.220382 76 0 153
0.165240 -0.081275 -0.115954 76 0 153
-0.031530 -0.080661 -0.258001 76 0 153
0.245286 -0.081275 0.147239 76 0 153
-0.329699 -0.192103 -0.242937 0 127 127
-0.135456 0.736868 -0.202914 0 0 255
0.392323 0.084439 -0.201971 255 0 0
-0.329320 -0.081275 0.497994 76 0 153
-0.013327 -0.081599 0.424427 76 0 153
-0.411381 -0.470659 0.530192 76 0 153
-0.276282 -0.081275 0.276606 76 0 153
-0.216499 0.113249 -0.239805 153 0 76
0.340645 -0.159714 0.540877 153 0 76
-0.115780 0.310393 -0.218989 76 153 0
-0.343298 -0.204696 0.476623 76 0 153
0.274258 -0.082274 0.492258 76 0 153
0.394839 -0.525259 -0.213608 76 153 0
0.373460 0.543783 -0.232814 255 0 0
0.286521 -0.127796 0.211600 76 0 153
-0.137661 0.511658 -0.229047 76 153 0
0.219110 0.290100 -0.218867 127 127 0
0.411515 0.709165 -0.244069 0 0 255
0.047007 -0.081275 0.155878 76 0 153
-0.386325 -0.611963 -0.219683 0 127 127
0.423759 -0.121876 0.468105 76 0 153
0.253940 -0.127796 0.053088 76 0 153
-0.089403 -0.099236 -0.281951 76 0 153
0.395544 -0.081275 0.493580 76 0 153
-0.166740 -0.081275 0.331889 76 0 153
-0.398980 -0.127795 0.011963 76 0 153
0.042714 0.413342 -0.220890 0 127 127
-0.342047 -0.127732 -0.155888 76 0 153
-0.346675 -0.430787 -0.253844 0 127 127
0.125680 -0.127796 0.070626 76 0 153
0.386497 -0.081275 0.384999 76 0 153
0.048808 0.683172 -0.225494 0 127 127
-0.399012 -0.181758 0.507788 76 0 153
-0.140545 0.705118 -0.221114 76 153 0
-0.100781 -0.081389 0.553027 76 0 153
0.035199 -0.127796 -0.035728 76 0 153
-0.356601 -0.569226 -0.255496 0 127 127
-0.021094 -0.081438 0.492286 76 0 153
-0.120645 0.573564 -0.239818 76 153 0
-0.166635 -0.127796 0.173923 76 0 153
0.416375 -0.600288 -0.221208 76 153 0
0.383885 -0.660789 0.509131 153 0 76
0.221884 -0.127796 0.496705 76 0 153
0.118968 -0.127796 0.385851 76 0 153
0.239749 -0.127796 0.300056 76 0 153
-0.344871 -0.081275 0.103216 76 0 153
-0.116396 -0.127796 0.136398 76 0 153
0.050662 -0.081275 0.093703 76 0 153
0.422320 0.351652 -0.254190 255 0 0
-0.253240 -0.127796 -0.056964 76 0 153
-0.185680 -0.081275 0.114585 76 0 153
-0.397701 -0.535148 -0.274260 0 127 127
-0.322507 -0.046066 -0.235590 76 0 153
-0.220270 -0.127796 0.157335 76 0 153
0.326435 -0.010106 -0.236847 0 255 0
0.360846 -0.107928 -0.281941 76 0 153
-0.187847 -0.081275 0.058718 76 0 153
0.305156 -0.074051 -0.246461 0 255 0
-0.145313 -0.081275 0.484718 76 0 153
0.346809 -0.346471 0.512135 153 0 76
-0.089230 0.558849 -0.231014 76 153 0
-0.391911 -0.081274 0.108126 76 0 153
-0.336946 -0.081275 -0.131065 76 0 153
-0.207253 -0.082842 0.559776 76 0 153
0.062528 -0.127796 0.062277 76 0 153
0.373459 0.605426 -0.232741 255 0 0
-0.043921 -0.081275 -0.088791 76 0 153
0.309495 0.114500 -0.239921 0 255 0
-0.221666 0.630508 -0.219649 153 0 76
0.049816 -0.081274 -0.174160 76 0 153
0.399021 -0.580324 0.503342 153 0 76
-0.376152 -0.125119 0.562502 76 0 153
0.381543 -0.410087 -0.269040 76 153 0
-0.221098 -0.127796 0.475684 76 0 153
0.292701 -0.081275 -0.089515 76 0 153
-0.104715 -0.081275 -0.118313 76 0 153
-0.115708 0.713582 -0.244883 0 0 255
0.018667 0.027811 -0.218797 0 127 127
-0.209490 -0.081275 0.491264 76 0 153
0.028575 -0.127796 0.362122 76 0 153
-0.208803 -0.081275 -0.129958 76 0 153
-0.368934 0.215856 -0.218375 153 76 0
0.383804 -0.717982 0.545873 153 0 76
-0.081972 -0.127796 0.476395 76 0 153
-0.114045 -0.127796 0.352769 76 0 153
-0.403545 -0.287852 0.526368 76 0 153
0.302628 -0.127796 0.100320 76 0 153
-0.223083 -0.127796 0.345390 76 0 153
0.117276 0.520608 -0.239915 127 0 127
-0.094501 -0.127243 0.558529 76 0 153
-0.318399 -0.081275 0.429833 76 0 153
-0.158277 0.743596 -0.227370 0 0 255
0.384444 -0.127796 0.359961 76 0 153
-0.358250 -0.173529 0.544736 76 0 153
-0.334903 -0.257430 0.509469 76 0 153
-0.400619 0.176269 -0.201894 153 76 0
0.373134 -0.297883 0.550064 153 0 76
0.121362 0.635709 -0.218845 127 0 127
0.403152 0.343122 -0.202400 255 0 0
-0.420918 -0.093692 -0.022465 76 0 153
-0.042607 0.364206 -0.231658 0 127 127
-0.280741 -0.127796 0.260770 76 0 153
-0.011381 -0.127796 0.478492 76 0 153
0.380142 -0.081275 0.271463 76 0 153
0.281451 0.222939 -0.229618 0 255 0
-0.303457 0.558999 -0.218808 76 0 153
0.355907 -0.127796 0.214916 76 0 153
-0.344368 -0.394152 -0.221912 0 127 127
0.406027 0.077683 -0.256844 255 0 0
-0.045675 -0.127796 0.143638 76 0 153
0.064996 -0.127796 0.021151 76 0 153
-0.413501 0.077467 -0.255669 153 76 0
0.281089 -0.081275 0.332022 76 0 153
-0.324005 0.455334 -0.229010 76 0 153
-0.421856 0.120221 -0.233904 153 76 0
0.143114 -0.127796 0.029810 76 0 153
0.417967 0.019035 -0.256660 255 0 0
-0.293390 -0.081351 0.550468 76 0 153
0.168159 -0.127796 0.528114 76 0 153
-0.294011 -0.127796 -0.113134 76 0 153
0.242894 0.734563 -0.246488 0 0 255
0.316530 0.055848 -0.218897 0 255 0
0.349712 -0.383366 0.536360 153 0 76
0.045192 0.471988 -0.221664 0 127 127
-0.411647 0.179815 -0.256673 153 76 0
-0.295877 0.172962 -0.239862 76 0 153
-0.367106 0.023974 -0.231613 153 76 0
0.218414 -0.127796 0.015783 76 0 153
0.411762 -0.347309 0.510726 153 0 76
0.019724 -0.081275 -0.129336 76 0 153
-0.362985 -0.127796 0.073127 76 0 153
-0.113364 0.409659 -0.239891 76 153 0
-0.370349 0.133433 -0.247851 153 76 0
0.040479 0.613510 -0.237715 0 127 127
0.220738 0.682989 -0.240214 127 127 0
0.224250 -0.081312 -0.182731 76 0 153
-0.402775 -0.271013 -0.219846 0 127 127
0.143714 -0.081275 0.170672 76 0 153
-0.171416 -0.127796 0.268466 76 0 153
0.156371 -0.127777 -0.260648 76 0 153
0.043338 -0.082274 0.256241 76 0 153
-0.412563 0.446172 -0.256222 153 76 0
-0.089985 0.164623 -0.235346 76 153 0
-0.408232 -0.396959 0.516453 76 0 153
0.111091 -0.081662 0.269580 76 0 153
-0.411561 -0.474676 -0.243518 0 127 127
0.428023 0.407766 -0.215088 255 0 0
0.387725 -0.652288 0.564837 153 0 76
-0.223937 0.561074 -0.220421 153 0 76
0.136603 0.082244 -0.220713 127 0 127
0.316024 -0.127757 0.447206 76 0 153
0.023592 0.560642 -0.218813 0 127 127
0.424413 -0.637074 0.523295 153 0 76
-0.362671 -0.635117 -0.275363 0 127 127
-0.002857 0.050457 -0.218806 0 127 127
-0.297128 -0.127722 -0.207799 76 0 153
0.392458 -0.370689 -0.267283 76 153 0
0.068132 -0.127796 0.185134 76 0 153
-0.339180 -0.297632 -0.258621 0 127 127
0.171468 -0.081275 0.004198 76 0 153
-0.129885 -0.081275 0.265500 76 0 153
-0.089458 0.665365 -0.232383 76 153 0
-0.001201 -0.127796 0.255599 76 0 153
0.375587 0.393000 -0.216817 255 0 0
0.094482 -0.127796 0.495060 76 0 153
0.175260 -0.082274 0.420696 76 0 153
0.413220 -0.126356 0.178073 76 0 153
0.313842 -0.081275 0.342270 76 0 153
0.420498 -0.083509 -0.088566 76 0 153
-0.269237 -0.081275 0.524713 76 0 153
-0.373244 0.463856 -0.209598 153 76 0
-0.315149 0.210509 -0.239641 76 0 153
-0.384993 0.507889 -0.203631 153 76 0
0.397849 -0.127795 -0.091821 76 0 153
0.093412 -0.081275 0.116026 76 0 153
0.427027 0.049712 -0.210130 255 0 0
0.421720 -0.574627 0.527789 153 0 76
0.175766 -0.127796 -0.156940 76 0 153
0.099916 -0.127796 0.115095 76 0 153
0.046754 -0.082274 0.345567 76 0 153
0.159049 -0.082274 0.367458 76 0 153
0.014906 -0.080237 -0.198458 76 0 153
-0.159888 -0.081608 -0.037947 76 0 153
0.237812 -0.082274 0.437472 76 0 153
0.336127 -0.174429 0.479960 153 0 76
0.043006 0.360049 -0.236984 0 127 127
-0.240078 -0.127796 0.397854 76 0 153
0.359785 -0.080355 -0.258774 76 0 153
-0.315371 0.348945 -0.239516 76 0 153
0.404239 -0.127795 -0.058038 76 0 153
-0.325663 -0.153288 0.504562 76 0 153
-0.088539 -0.127796 0.195434 76 0 153
-0.326574 -0.081275 0.535788 76 0 153
0.118897 -0.082274 0.419056 76 0 153
0.305070 -0.081275 0.104119 76 0 153
0.401211 -0.683823 -0.225134 76 153 0
-0.101978 -0.081275 0.516077 76 0 153
0.392522 0.680946 -0.202463 0 0 255
-0.390363 -0.579723 0.503318 76 0 153
0.428211 0.181013 -0.232187 255 0 0
0.313637 0.213852 -0.218860 0 255 0
-0.200954 0.215056 -0.218983 153 0 76
-0.302518 0.400521 -0.219132 76 0 153
0.107927 -0.127796 -0.219983 76 0 153
0.197945 -0.127796 0.441372 76 0 153
-0.404264 -0.409984 -0.266084 0 127 127
0.249179 -0.127796 0.531665 76 0 153
0.391052 0.433950 -0.203706 255 0 0
-0.018008 0.488361 -0.234761 0 127 127
-0.353783 -0.526004 -0.228324 0 127 127
-0.301233 0.090980 -0.218944 76 0 153
0.023008 0.137663 -0.230160 0 127 127
0.190467 0.574139 -0.235338 127 127 0
0.123360 -0.082274 0.496640 76 0 153
0.108253 0.147010 -0.239810 127 0 127
0.311988 -0.113863 -0.281839 76 0 153
-0.305117 -0.081275 0.302133 76 0 153
-0.196658 -0.127796 0.103919 76 0 153
0.032545 -0.094453 -0.281173 76 0 153
0.308465 0.676422 -0.216972 0 255 0
0.048534 0.041706 -0.225125 0 127 127
0.117885 -0.127796 0.222579 76 0 153
0.416786 -0.456097 -0.247064 76 153 0
0.254317 -0.127796 0.466310 76 0 153
-0.068226 -0.081347 0.041912 76 0 153
-0.089893 0.195258 -0.234802 76 153 0
-0.296181 -0.127768 -0.165192 76 0 153
-0.244047 0.732334 -0.207406 0 0 255
-0.167110 -0.127796 -0.192114 76 0 153
0.407302 -0.688694 -0.280937 76 153 0
-0.393426 0.485281 -0.256801 153 76 0
-0.377801 -0.127796 0.231014 76 0 153
-0.083395 -0.127796 0.091748 76 0 153
-0.049859 0.723617 -0.213519 0 0 255
-0.030293 0.673159 -0.239108 0 127 127
0.426405 -0.677077 -0.252227 76 153 0
0.391726 -0.081650 -0.169387 76 0 153
0.425514 -0.087036 0.439617 76 0 153
0.311304 0.163110 -0.239895 0 255 0
0.209321 0.348044 -0.239892 127 127 0
0.078315 -0.081275 0.155167 76 0 153
0.098305 -0.082274 0.301538 76 0 153
0.373563 0.118593 -0.237274 255 0 0
0.426948 -0.107314 0.071145 76 0 153
0.137902 -0.127796 -0.198858 76 0 153
0.403528 -0.127795 0.413004 76 0 153
0.004729 -0.081973 0.288655 76 0 153
-0.260106 -0.127796 0.133059 76 0 153
-0.402010 0.298351 -0.256811 153 76 0
0.411720 -0.126634 0.316668 76 0 153
-0.416566 -0.598465 0.537858 76 0 153
-0.410775 -0.081618 0.295195 76 0 153
0.313753 -0.081275 0.034552 76 0 153
-0.413830 -0.083011 0.051537 76 0 153
-0.125800 -0.081321 -0.186198 76 0 153
-0.267332 -0.081275 0.205636 76 0 153
0.014483 -0.127796 0.021547 76 0 153
-0.361622 -0.247338 0.547896 76 0 153
-0.300714 0.509928 -0.219355 76 0 153
0.018646 -0.009071 -0.218792 0 127 127
0.241073 -0.081275 -0.054520 76 0 153
-0.393378 0.609311 -0.202533 153 76 0
0.401226 -0.390318 0.553712 153 0 76
0.265943 -0.081275 -0.138607 76 0 153
-0.230782 -0.127796 0.504899 76 0 153
0.208162 -0.081275 -0.106569 76 0 153
0.420249 0.471057 -0.255419 255 0 0
0.375604 -0.040470 -0.210518 255 0 0
0.378960 0.371735 -0.252077 255 0 0
0.427287 -0.110252 0.503669 76 0 153
0.089060 -0.127796 0.436314 76 0 153
-0.212954 -0.127796 0.279911 76 0 153
-0.138253 -0.085369 0.563124 76 0 153
0.282501 0.626573 -0.225900 0 255 0
0.417676 -0.479592 0.518774 153 0 76
-0.136339 -0.081275 0.133238 76 0 153
0.095812 0.254206 -0.233333 127 0 127
0.340078 -0.251240 -0.226098 76 153 0
-0.162229 -0.081275 0.511072 76 0 153
0.174611 -0.082274 0.503546 76 0 153
-0.304170 -0.127796 0.401211 76 0 153
-0.335355 -0.081534 -0.190752 76 0 153
0.052344 -0.081275 -0.069201 76 0 153
0.200859 -0.056846 -0.240433 127 127 0
0.117866 0.037002 -0.218876 127 0 127
-0.079029 -0.077998 -0.242720 76 0 153
0.336765 -0.205221 0.524612 153 0 76
-0.050808 -0.127796 0.102660 76 0 153
-0.164127 -0.106110 -0.281943 76 0 153
-0.318547 -0.086881 -0.279256 76 0 153
0.365485 -0.077422 -0.227200 76 0 153
-0.394206 -0.661004 -0.223192 0 127 127
-0.332200 -0.222785 0.507717 76 0 153
-0.196838 0.673113 -0.219135 153 0 76
0.312925 0.306937 -0.218996 0 255 0
-0.261525 0.703803 -0.224329 0 0 255
0.203201 0.710178 -0.210323 0 0 255
0.301677 -0.127796 0.324271 76 0 153
-0.306288 0.291300 -0.239872 76 0 153
0.358017 -0.502930 0.531266 153 0 76
0.243842 -0.082274 0.519205 76 0 153
-0.383501 0.041085 -0.204062 153 76 0
0.393104 -0.081707 0.553982 76 0 153
0.208077 0.056223 -0.239877 127 127 0
-0.192489 -0.127796 -0.216346 76 0 153
-0.138201 -0.127796 0.082935 76 0 153
-0.394903 -0.019903 -0.256789 153 76 0
-0.323310 -0.081275 0.374419 76 0 153
0.308461 0.544854 -0.239925 0 255 0
-0.300350 0.598689 -0.219043 76 0 153
-0.138109 -0.081275 -0.065974 76 0 153
-0.183853 0.636143 -0.223201 153 0 76
0.209987 0.095402 -0.218822 127 127 0
-0.173331 -0.127796 0.377048 76 0 153
-0.185772 -0.127796 0.526636 76 0 153
-0.417556 -0.614920 -0.252181 0 127 127
-0.318001 -0.081275 0.116257 76 0 153
0.425348 -0.087172 -0.056100 76 0 153
0.333770 -0.146683 -0.189396 76 153 0
-0.091560 0.465519 -0.223294 76 153 0
0.271254 -0.127796 0.269093 76 0 153
-0.016597 -0.081275 -0.042057 76 0 153
0.148037 -0.081275 -0.046410 76 0 153
0.047617 0.514346 -0.233489 0 127 127
0.081064 -0.082274 0.453523 76 0 153
-0.384315 -0.687346 -0.280910 0 127 127
-0.348113 -0.081275 0.045009 76 0 153
0.388636 0.207866 -0.256247 255 0 0
-0.131002 -0.081275 0.339328 76 0 153
0.125490 -0.119456 0.566224 76 0 153
-0.127019 -0.081275 0.055962 76 0 153
0.249621 -0.127796 -0.194279 76 0 153
0.031579 -0.081275 0.117627 76 0 153
-0.041220 -0.127796 -0.242052 76 0 153
-0.232277 -0.127796 -0.200537 76 0 153
-0.023088 -0.127796 0.524682 76 0 153
0.243004 -0.127796 -0.137876 76 0 153
-0.303739 -0.081275 0.018432 76 0 153
-0.367104 -0.056236 -0.239590 153 76 0
0.201251 0.657016 -0.239794 127 127 0
0.139814 -0.081275 0.132236 76 0 153
-0.280550 -0.127796 -0.232697 76 0 153
0.207859 -0.081275 0.048404 76 0 153
-0.332957 -0.127796 0.167187 76 0 153
0.306528 0.427416 -0.239905 0 255 0
0.406330 -0.205538 -0.223504 76 153 0
-0.019056 -0.081275 -0.163768 76 0 153
-0.095560 -0.127796 -0.111465 76 0 153
0.348267 -0.081275 0.163917 76 0 153
0.012224 0.633454 -0.218792 0 127 127
0.051280 0.084693 -0.228818 0 127 127
0.239706 -0.127796 0.079778 76 0 153
0.326469 -0.127796 0.028917 76 0 153
0.402798 0.667485 -0.256830 0 0 255
0.147295 -0.086356 -0.278586 76 0 153
-0.112631 0.149041 -0.218824 76 153 0
0.187153 0.702242 -0.240211 0 0 255
-0.386973 -0.526078 0.559282 76 0 153
0.233038 -0.081275 0.083860 76 0 153
-0.128688 -0.093525 -0.280987 76 0 153
0.083801 -0.113104 -0.281934 76 0 153
-0.406021 0.399606 -0.256754 153 76 0
0.374391 -0.227577 0.478058 153 0 76
0.198557 0.609418 -0.239558 127 127 0
0.347979 -0.359850 -0.252100 76 153 0
-0.202735 0.714832 -0.251278 0 0 255
-0.421772 0.342004 -0.238126 153 76 0
0.079090 -0.127641 0.556529 76 0 153
-0.043110 0.074127 -0.226157 0 127 127
0.407471 -0.245750 0.509343 153 0 76
0.180463 -0.082572 -0.273555 76 0 153
-0.180172 -0.081275 0.028118 76 0 153
-0.341148 -0.346911 0.504912 76 0 153
0.405678 -0.127755 0.029569 76 0 153
0.308817 0.257945 -0.218798 0 255 0
-0.292341 -0.127796 0.326645 76 0 153
-0.401984 -0.251468 0.507800 76 0 153
-0.407686 0.634888 -0.201983 153 76 0
0.258763 0.707120 -0.226542 0 0 255
-0.368635 -0.515044 -0.273408 0 127 127
0.012193 -0.127796 0.051335 76 0 153
-0.091106 -0.081275 0.220844 76 0 153
-0.254169 -0.081275 0.430955 76 0 153
-0.421721 -0.110900 0.059606 76 0 153
0.143521 0.524132 -0.227510 127 0 127
-0.039971 0.473740 -0.222156 0 127 127
0.017658 -0.127796 -0.251221 76 0 153
-0.023759 -0.102177 -0.281972 76 0 153
0.137538 -0.081274 -0.177073 76 0 153
0.247912 -0.127796 0.181286 76 0 153
0.302394 0.405831 -0.218856 0 255 0
-0.390120 -0.081275 0.068468 76 0 153
0.328828 0.649934 -0.222698 0 255 0
-0.392860 -0.081274 0.508584 76 0 153
0.307354 -0.081360 -0.155064 76 0 153
-0.296594 0.729119 -0.216794 0 0 255
-0.118811 0.624697 -0.219003 76 153 0
-0.362435 -0.226904 0.478009 76 0 153
0.363483 -0.127796 -0.144166 76 0 153
0.080832 -0.081245 -0.198110 76 0 153
0.434298 0.663108 -0.228985 0 0 255
-0.333414 0.702919 -0.203648 0 0 255
0.043169 -0.082274 0.288701 76 0 153
0.074834 -0.127796 -0.124720 76 0 153
0.298627 0.729783 -0.238165 0 0 255
-0.381942 -0.352140 0.552390 76 0 153
-0.234369 -0.081275 0.376707 76 0 153
-0.368923 0.565511 -0.245217 153 76 0
-0.045415 -0.081275 0.211610 76 0 153
0.420792 0.590053 -0.255097 255 0 0
0.227321 -0.127646 0.556172 76 0 153
0.390128 -0.212394 0.546243 153 0 76
0.109547 -0.081275 -0.160403 76 0 153
-0.435473 0.676264 -0.228113 0 0 255
0.118960 0.462595 -0.239899 127 0 127
0.013955 -0.081275 -0.017884 76 0 153
0.251482 -0.127796 0.435815 76 0 153
0.297192 0.319617 -0.239809 0 255 0
-0.298481 0.044474 -0.219252 76 0 153
0.391898 0.171254 -0.256738 255 0 0
0.358539 -0.436867 -0.268267 76 153 0
0.428257 0.309978 -0.229906 255 0 0
-0.052766 -0.081373 0.551932 76 0 153
-0.388725 0.265836 -0.203080 153 76 0
0.382404 -0.328948 -0.200135 76 153 0
-0.099072 0.610391 -0.239777 76 153 0
0.270969 -0.081275 -0.110101 76 0 153
-0.419236 -0.050846 -0.252521 153 76 0
-0.115812 -0.127796 0.246223 76 0 153
-0.004156 -0.069273 -0.243467 0 127 127
-0.142561 -0.127796 0.439900 76 0 153
0.418795 -0.627415 -0.277754 76 153 0
0.352547 -0.081275 -0.058248 76 0 153
-0.216445 -0.127796 -0.106230 76 0 153
-0.206437 0.616666 -0.239924 153 0 76
0.117307 0.603925 -0.218809 127 0 127
-0.202867 -0.127796 -0.012737 76 0 153
0.383755 -0.132117 -0.172140 76 0 153
-0.035980 -0.127796 0.183894 76 0 153
-0.419646 -0.122209 -0.133535 76 0 153
-0.212654 -0.009350 -0.239851 153 0 76
0.281456 -0.081275 0.011486 76 0 153
-0.334706 -0.138848 0.466420 76 0 153
0.017141 -0.082230 0.352804 76 0 153
-0.379672 -0.340196 -0.266046 0 127 127
-0.238739 -0.115858 0.567194 76 0 153
-0.268482 -0.127796 0.200347 76 0 153
0.378686 0.716405 -0.219956 0 0 255
-0.156123 -0.081275 0.222665 76 0 153
-0.198310 -0.081275 0.421460 76 0 153
0.302005 -0.127796 -0.114963 76 0 153
-0.202470 -0.081275 0.146671 76 0 153
-0.421935 0.504615 -0.229961 153 76 0
-0.112941 0.106131 -0.239895 76 153 0
-0.277529 -0.081275 -0.106631 76 0 153
0.390490 -0.485707 0.557769 153 0 76
-0.065402 -0.081275 0.414805 76 0 153
0.193428 -0.081275 0.109214 76 0 153
-0.022214 0.126135 -0.236513 0 127 127
-0.221544 -0.081275 -0.006637 76 0 153
0.043410 0.743871 -0.207677 0 0 255
0.226450 -0.081275 0.013653 76 0 153
0.010473 -0.127796 -0.184866 76 0 153
0.396104 -0.081275 0.150028 76 0 153
-0.394254 -0.176348 0.478197 76 0 153
-0.190103 0.343093 -0.220407 153 0 76
0.338421 -0.127796 -0.063728 76 0 153
0.079728 -0.081811 0.556430 76 0 153
0.290234 0.122363 -0.220167 0 255 0
-0.033895 -0.127796 0.358942 76 0 153
0.405276 0.412513 -0.256850 255 0 0
0.416869 0.594946 -0.202018 255 0 0
-0.368531 -0.081275 -0.073150 76 0 153
-0.035308 -0.081275 0.329258 76 0 153
-0.145546 -0.081275 -0.146321 76 0 153
0.311735 0.351334 -0.239889 0 255 0
-0.140596 -0.127796 -0.245092 76 0 153
-0.337411 -0.174133 -0.188873 0 127 127
-0.042469 -0.081275 -0.016459 76 0 153
0.373363 0.333979 -0.228610 255 0 0
-0.137661 0.362951 -0.228307 76 153 0
0.201551 -0.081275 -0.017164 76 0 153
0.214503 0.243120 -0.239905 127 127 0
-0.150504 -0.127796 0.291820 76 0 153
-0.421704 -0.112188 0.233906 76 0 153
-0.015566 -0.127796 0.324332 76 0 153
-0.169877 -0.127796 0.500789 76 0 153
0.363263 -0.572809 0.534728 153 0 76
0.049742 -0.082274 0.405994 76 0 153
0.367718 -0.081275 0.308026 76 0 153
0.382526 -0.558324 -0.275311 76 153 0
-0.039349 -0.127796 -0.202367 76 0 153
-0.302200 -0.127796 0.149175 76 0 153
-0.034061 -0.081275 0.464215 76 0 153
-0.303310 -0.081275 0.485604 76 0 153
0.386524 -0.127796 0.301859 76 0 153
0.099130 -0.079823 -0.256036 76 0 153
-0.194886 -0.127796 0.420609 76 0 153
0.213597 0.551980 -0.239915 127 127 0
0.408269 -0.250414 -0.237177 76 153 0
-0.365595 -0.684994 0.516187 76 0 153
0.196688 -0.081275 -0.161964 76 0 153
-0.418672 -0.646609 0.555906 76 0 153
0.106748 -0.127796 0.468141 76 0 153
0.149812 -0.081275 0.272247 76 0 153
-0.070427 -0.081275 0.076013 76 0 153
0.326022 -0.073499 -0.210215 76 0 153
-0.034825 0.535641 -0.237353 0 127 127
0.428313 -0.096822 -0.227305 76 0 153
0.361672 -0.150254 -0.185503 76 153 0
0.322235 -0.127796 0.267235 76 0 153
-0.223678 -0.084167 -0.275673 76 0 153
0.052218 -0.127796 0.269486 76 0 153
0.023216 0.717157 -0.211936 0 0 255
0.067413 -0.127796 0.349021 76 0 153
-0.270279 -0.075426 -0.232527 76 0 153
0.428063 0.377968 -0.216805 255 0 0
-0.206090 0.289944 -0.239928 153 0 76
0.197473 -0.081275 0.187334 76 0 153
0.291413 0.697622 -0.248517 0 0 255
-0.024614 -0.066567 -0.215497 0 127 127
-0.040278 -0.081275 0.369377 76 0 153
-0.284846 -0.127796 0.224383 76 0 153
0.096836 0.509977 -0.221676 127 0 127
0.141425 0.691488 -0.219590 127 0 127
-0.070565 -0.127796 -0.126580 76 0 153
-0.336534 -0.081275 -0.161352 76 0 153
-0.029955 -0.127796 -0.102402 76 0 153
-0.402281 -0.014560 -0.201915 153 76 0
0.196667 -0.033956 -0.219742 127 127 0
-0.010159 -0.127796 0.148407 76 0 153
0.130184 0.360948 -0.218924 127 0 127
-0.373989 -0.341132 0.486164 76 0 153
-0.389827 -0.081275 0.138711 76 0 153
0.308687 0.194885 -0.239927 0 255 0
0.044104 -0.081275 0.190732 76 0 153
-0.421244 -0.115379 -0.206730 76 0 153
-0.308414 0.682572 -0.243283 76 0 153
0.178738 -0.081275 0.165134 76 0 153
0.296575 -0.127768 -0.231278 76 0 153
-0.374271 -0.462217 -0.209407 0 127 127
0.426463 0.206564 -0.208054 255 0 0
-0.111005 -0.127796 0.215391 76 0 153
0.113447 0.237845 -0.218829 127 0 127
0.023389 -0.082274 0.450959 76 0 153
0.015653 0.050431 -0.239924 0 127 127
-0.001157 0.713873 -0.243260 0 127 127
0.416610 -0.125727 -0.112612 76 0 153
-0.387154 0.425672 -0.256745 153 76 0
0.155140 -0.102542 0.567441 76 0 153
0.112183 -0.000953 -0.218847 127 0 127
0.350688 -0.127796 0.344819 76 0 153
0.373521 0.069620 -0.220107 255 0 0
-0.372940 -0.450085 0.556102 76 0 153
-0.178661 -0.079774 -0.198948 76 0 153
0.154244 -0.081824 0.320579 76 0 153
-0.293906 0.127573 -0.239842 76 0 153
-0.025258 -0.127796 -0.036027 76 0 153
-0.404495 -0.127719 0.082641 76 0 153
-0.135947 -0.127796 0.160354 76 0 153
-0.420130 -0.090457 0.558842 76 0 153
-0.389306 -0.081275 0.200047 76 0 153
-0.404939 0.697320 -0.256474 0 0 255
-0.064787 -0.127796 0.314075 76 0 153
0.120644 -0.127796 0.012849 76 0 153
-0.032157 -0.127796 0.062639 76 0 153
0.103532 -0.082274 0.369624 76 0 153
-0.014379 -0.127796 0.416824 76 0 153
0.305485 -0.081275 -0.035272 76 0 153
-0.303761 -0.127787 0.455761 76 0 153
0.305714 0.582752 -0.239896 0 255 0
-0.359097 0.718646 -0.234157 0 0 255
-0.351568 -0.496952 0.539020 76 0 153
-0.412280 -0.496849 0.541090 76 0 153
0.336201 -0.081549 0.473129 76 0 153
0.428015 -0.100831 0.263805 76 0 153
0.364580 -0.595374 -0.244575 76 153 0
0.305558 0.452568 -0.218828 0 255 0
-0.421895 0.619423 -0.223306 153 76 0
-0.332588 -0.127796 0.252885 76 0 153
-0.392139 -0.308765 0.484019 76 0 153
0.063836 -0.127796 0.092765 76 0 153
-0.306782 0.014399 -0.239864 76 0 153
0.108517 -0.127796 0.334519 76 0 153
0.418119 0.319643 -0.202384 255 0 0
0.003542 -0.081948 0.316469 76 0 153
0.422301 0.621615 -0.254140 255 0 0
-0.191840 0.705320 -0.213125 0 0 255
0.058170 -0.127796 0.222756 76 0 153
-0.355422 -0.178090 0.474520 76 0 153
-0.397929 -0.127795 0.388887 76 0 153
-0.236639 -0.081275 0.485266 76 0 153
0.427059 -0.109614 0.156613 76 0 153
-0.066931 -0.127796 -0.047371 76 0 153
0.397971 0.300696 -0.256789 255 0 0
0.381852 -0.441059 0.493309 153 0 76
-0.204784 -0.033119 -0.218841 153 0 76
0.427356 -0.094296 0.396860 76 0 153
-0.400871 -0.132530 0.540951 76 0 153
-0.109839 0.504855 -0.219127 76 153 0
0.407176 -0.242765 0.538062 153 0 76
-0.024475 -0.081275 0.029026 76 0 153
-0.386977 -0.128264 0.449609 76 0 153
0.293287 -0.081275 -0.060138 76 0 153
0.368153 -0.171617 0.474063 153 0 76
0.350140 -0.127796 0.138694 76 0 153
0.106435 -0.081909 0.548055 76 0 153
0.233873 -0.127796 0.327041 76 0 153
-0.343451 -0.209204 0.546137 76 0 153
-0.106531 -0.127795 -0.252715 76 0 153
-0.384800 -0.167221 -0.257398 0 127 127
0.171133 -0.127796 0.352037 76 0 153
-0.202817 0.389884 -0.219241 153 0 76
0.173526 -0.127796 0.204093 76 0 153
-0.206480 0.513787 -0.219121 153 0 76
-0.378513 -0.136517 -0.177779 76 0 153
0.042314 -0.127796 0.128716 76 0 153
-0.346967 -0.278793 -0.198446 0 127 127
0.258246 -0.081275 0.122925 76 0 153
-0.334749 -0.132288 -0.265431 76 0 153
0.341060 -0.081275 0.195450 76 0 153
-0.398994 -0.081274 -0.073820 76 0 153
-0.192859 -0.127796 0.070142 76 0 153
0.084408 -0.082274 0.489236 76 0 153
-0.299260 0.537989 -0.239896 76 0 153
0.189787 -0.081275 0.256764 76 0 153
-0.369362 -0.290311 -0.263909 0 127 127
0.100300 -0.081275 0.184087 76 0 153
-0.322310 -0.081275 -0.073252 76 0 153
0.379794 0.186407 -0.208921 255 0 0
0.426124 -0.113851 0.044458 76 0 153
-0.277620 -0.127796 0.491033 76 0 153
-0.285578 -0.081275 0.330226 76 0 153
0.138875 0.257026 -0.221381 127 0 127
-0.031988 0.727467 -0.250356 0 0 255
0.269637 -0.127796 0.381623 76 0 153
0.027052 -0.127796 -0.214470 76 0 153
0.131126 -0.127796 0.300460 76 0 153
-0.380573 -0.489369 0.496843 76 0 153
0.013309 0.747341 -0.232569 0 0 255
-0.274404 -0.081275 0.377973 76 0 153
0.417368 0.160192 -0.202023 255 0 0
0.208842 0.017213 -0.239886 127 127 0
0.200575 -0.081877 0.551318 76 0 153
0.390535 0.260951 -0.256726 255 0 0
-0.421800 -0.104855 0.157901 76 0 153
-0.251315 -0.127796 0.295689 76 0 153
0.340562 -0.081275 0.304817 76 0 153
0.124311 0.322376 -0.239846 127 0 127
-0.018304 0.152004 -0.225778 0 127 127
-0.402254 -0.081366 -0.042675 76 0 153
-0.367024 0.299724 -0.227927 153 76 0
-0.309535 0.644930 -0.239822 76 0 153
-0.302627 0.263652 -0.239928 76 0 153
-0.204012 0.137555 -0.239905 153 0 76
-0.034694 0.316786 -0.237956 0 127 127
-0.392535 -0.659811 -0.279738 0 127 127
0.307566 0.486370 -0.239915 0 255 0
0.347624 -0.129623 0.452482 76 0 153
-0.286972 -0.081608 -0.155270 76 0 153
-0.405096 -0.324856 -0.223559 0 127 127
0.356941 0.690222 -0.245743 0 0 255
0.064206 -0.127796 -0.015457 76 0 153
-0.382954 -0.618539 0.563802 76 0 153
-0.381149 0.683793 -0.256828 0 0 255
0.112277 0.202226 -0.218845 127 0 127
-0.156794 -0.081275 0.114528 76 0 153
-0.082167 -0.127796 0.154764 76 0 153
-0.007048 0.687467 -0.239931 0 127 127
-0.408027 0.662132 -0.201982 153 76 0
-0.409908 -0.436978 -0.225845 0 127 127
-0.113541 -0.005726 -0.218833 76 153 0
-0.212735 0.253762 -0.239850 153 0 76
-0.247280 -0.081275 0.245989 76 0 153
0.048271 -0.011666 -0.224771 0 127 127
-0.286614 -0.127570 -0.272122 76 0 153
-0.372606 -0.127796 0.342393 76 0 153
-0.162847 -0.127796 -0.090377 76 0 153
0.427487 -0.705212 0.545775 153 0 76
-0.417984 -0.624638 0.530399 76 0 153
-0.394851 -0.219916 0.539075 76 0 153
0.333397 -0.127796 -0.133243 76 0 153
0.356830 -0.273876 0.482009 153 0 76
0.225241 -0.127796 -0.083403 76 0 153
-0.406427 -0.127691 -0.049189 76 0 153
-0.232008 -0.081275 0.096681 76 0 153
0.364010 -0.351582 -0.201678 76 153 0
0.150062 -0.127796 0.086303 76 0 153
0.427839 -0.017985 -0.234509 255 0 0
-0.362486 -0.649903 -0.251288 0 127 127
-0.302559 0.616784 -0.239929 76 0 153
-0.099029 -0.081275 0.397318 76 0 153
0.336266 -0.198170 0.492978 153 0 76
0.135834 -0.127796 0.140095 76 0 153
0.143056 -0.081275 -0.007729 76 0 153
0.189842 0.516266 -0.233763 127 127 0
-0.386703 0.236698 -0.203306 153 76 0
-0.367591 0.619393 -0.238315 153 76 0
0.026996 -0.127796 0.154791 76 0 153
0.389956 0.109461 -0.256722 255 0 0
0.118645 0.411792 -0.239902 127 0 127
0.218179 0.658947 -0.218857 127 127 0
-0.333916 -0.248525 -0.251888 0 127 127
0.321341 -0.081275 -0.115626 76 0 153
-0.355072 -0.412864 -0.205693 0 127 127
0.427189 -0.111154 -0.136154 76 0 153
-0.370544 -0.075894 -0.257835 76 0 153
-0.403309 -0.282894 -0.244364 0 127 127
0.214631 -0.127796 0.210263 76 0 153
0.414750 0.473258 -0.201991 255 0 0
0.344429 -0.313405 0.518827 153 0 76
0.092137 0.746290 -0.230677 0 0 255
0.303477 0.080288 -0.218847 0 255 0
-0.178156 -0.081275 0.369678 76 0 153
-0.114845 0.027446 -0.218844 76 153 0
-0.105439 0.239058 -0.239869 76 153 0
-0.021096 0.378808 -0.224749 0 127 127
0.047322 -0.083669 0.560559 76 0 153
-0.419885 -0.088566 0.348361 76 0 153
-0.326815 -0.127796 0.105280 76 0 153
0.423981 -0.122117 0.564609 76 0 153
0.405373 -0.447168 0.554239 153 0 76
-0.388511 0.067656 -0.256757 153 76 0
0.188717 -0.127762 0.547672 76 0 153
0.196319 0.263800 -0.238451 127 127 0
0.038980 -0.081275 -0.033631 76 0 153
-0.323399 -0.081275 0.200273 76 0 153
0.003245 -0.127796 0.200883 76 0 153
-0.012859 -0.081609 0.197720 76 0 153
-0.268812 0.732996 -0.226958 0 0 255
0.257038 -0.127616 -0.272005 76 0 153
0.165764 -0.081111 -0.217466 76 0 153
-0.194719 -0.081275 0.317708 76 0 153
0.365694 -0.178695 0.544958 153 0 76
-0.132111 -0.075594 -0.245298 76 153 0
-0.243328 -0.127796 -0.126525 76 0 153
0.133129 0.725256 -0.251048 0 0 255
0.025147 -0.127796 0.424397 76 0 153
0.214576 -0.082274 0.402819 76 0 153
0.373662 0.310557 -0.241563 255 0 0
0.153363 -0.082274 0.405313 76 0 153
0.035634 -0.127796 -0.105092 76 0 153
0.223892 -0.081275 -0.135676 76 0 153
-0.234053 -0.127796 0.018732 76 0 153
0.031339 -0.082182 0.533617 76 0 153
-0.117006 0.252438 -0.218864 76 153 0
-0.172655 -0.127795 -0.257264 76 0 153
-0.368413 -0.488360 -0.272314 0 127 127
0.235631 -0.062557 -0.220623 76 0 153
0.119406 -0.061830 -0.216670 127 0 127
0.417782 -0.051909 -0.201737 255 0 0
0.410519 -0.316757 -0.256830 76 153 0
0.377639 0.560379 -0.212336 255 0 0
-0.108025 -0.081275 0.118310 76 0 153
0.349244 -0.081275 0.362134 76 0 153
-0.384738 -0.716221 -0.232773 0 127 127
-0.068570 -0.127796 0.523219 76 0 153
0.007462 -0.111839 0.567760 76 0 153
-0.158637 -0.127796 0.044517 76 0 153
0.400077 -0.623513 -0.220850 76 153 0
0.353612 -0.430805 0.545298 153 0 76
-0.421589 -0.097027 0.386561 76 0 153
0.357320 -0.127796 0.406798 76 0 153
-0.361386 -0.081275 -0.113423 76 0 153
-0.118370 0.456650 -0.219009 76 153 0
0.027205 0.081986 -0.239858 0 127 127
0.069998 -0.127796 -0.241944 76 0 153
-0.384065 0.578877 -0.203900 153 76 0
0.137483 0.624446 -0.236758 127 0 127
0.124572 0.396632 -0.218873 127 0 127
-0.048215 -0.081275 0.513094 76 0 153
-0.407139 0.325337 -0.256738 153 76 0
0.124972 -0.081275 -0.131751 76 0 153
0.324077 0.725519 -0.231779 0 0 255
-0.172466 -0.079068 -0.245971 76 0 153
0.110806 -0.081275 -0.003234 76 0 153
0.012495 0.617254 -0.239848 0 127 127
0.198859 -0.127796 0.075676 76 0 153
-0.186498 0.306667 -0.221401 153 0 76
-0.401298 0.369299 -0.202177 153 76 0
0.162175 -0.127796 -0.217683 76 0 153
-0.262705 -0.081275 0.138906 76 0 153
0.098742 0.173686 -0.236965 127 0 127
-0.273642 -0.081747 -0.267648 76 0 153
-0.286137 -0.127796 0.029286 76 0 153
-0.050138 -0.081275 -0.114559 76 0 153
-0.267731 -0.127796 0.346484 76 0 153
0.125308 0.128852 -0.218880 127 0 127
-0.256123 -0.081275 -0.052228 76 0 153
0.411057 -0.594787 -0.273730 76 153 0
0.428199 0.519640 -0.232768 255 0 0
-0.353782 -0.127796 -0.065827 76 0 153
-0.412597 -0.500927 -0.247647 0 127 127
0.309091 -0.127796 -0.080339 76 0 153
0.285875 0.704628 -0.206141 0 0 255
0.122555 0.070617 -0.239863 127 0 127
-0.379538 0.030278 -0.255079 153 76 0
-0.320797 0.508189 -0.236464 76 0 153
-0.008932 -0.037762 -0.239930 0 127 127
-0.362134 -0.642158 0.556061 76 0 153
-0.286795 0.392787 -0.239244 76 0 153
0.373447 0.467123 -0.226689 255 0 0
0.035135 -0.127796 0.249342 76 0 153
0.026191 0.522792 -0.220561 0 127 127
-0.051892 -0.111275 -0.281937 76 0 153
0.363301 -0.296456 -0.264112 76 153 0
-0.218543 0.400227 -0.239781 153 0 76
0.278852 -0.127796 0.436335 76 0 153
-0.406458 -0.357328 -0.246336 0 127 127
0.405906 -0.719501 -0.242642 76 153 0
0.428260 0.262655 -0.229761 255 0 0
-0.213138 0.682150 -0.239788 153 0 76
0.212600 0.456318 -0.218798 127 127 0
-0.384032 -0.116930 -0.281149 76 0 153
-0.100302 -0.081275 0.166090 76 0 153
0.027170 -0.055033 -0.218052 0 127 127
-0.292276 0.729550 -0.242725 0 0 255
-0.368861 -0.450422 0.493980 76 0 153
0.299808 -0.082274 0.526205 76 0 153
-0.250517 -0.081275 0.033659 76 0 153
-0.299270 0.341957 -0.219537 76 0 153
0.051125 0.243367 -0.228606 0 127 127
-0.035727 -0.021633 -0.237000 0 127 127
-0.366481 -0.218382 -0.191566 0 127 127
0.303870 0.523361 -0.218843 0 255 0
0.038259 0.715436 -0.242567 0 0 255
0.353885 -0.127796 0.187289 76 0 153
-0.353731 -0.526888 0.524763 76 0 153
0.382812 -0.269072 0.548820 153 0 76
0.405739 -0.199427 0.505269 153 0 76
0.274521 -0.081432 0.406915 76 0 153
-0.409873 -0.557832 -0.269265 0 127 127
-0.009802 -0.127796 -0.065839 76 0 153
-0.355830 -0.552130 -0.228095 0 127 127
-0.384025 -0.490011 -0.211166 0 127 127
0.135189 -0.127796 0.533926 76 0 153
0.427778 0.070942 -0.241835 255 0 0
0.200833 0.003709 -0.218926 127 127 0
-0.004949 -0.081275 0.158144 76 0 153
0.188778 -0.127796 0.155687 76 0 153
-0.368445 0.656170 -0.216398 153 76 0
0.166589 -0.127796 0.428080 76 0 153
0.411791 -0.620459 0.563497 153 0 76
0.112876 0.351454 -0.239882 127 0 127
0.171058 0.743728 -0.222782 0 0 255
-0.044466 0.191822 -0.227879 0 127 127
-0.124675 -0.127796 -0.047895 76 0 153
-0.113891 -0.025072 -0.239885 76 153 0
-0.156722 -0.081275 0.461203 76 0 153
-0.378033 -0.127796 0.291828 76 0 153
-0.089319 0.303197 -0.229007 76 153 0
0.232288 0.239754 -0.221102 127 127 0
0.197131 -0.127796 0.303276 76 0 153
-0.072105 -0.081275 0.319355 76 0 153
0.188904 0.171718 -0.226052 127 127 0
-0.132833 -0.125388 0.561729 76 0 153
0.127209 0.437530 -0.239818 127 0 127
-0.391605 -0.127795 0.127799 76 0 153
-0.399938 -0.632061 0.506982 76 0 153
-0.398955 -0.451102 0.555130 76 0 153
-0.414297 -0.080730 -0.189249 76 0 153
0.375224 0.672038 -0.251224 0 0 255
-0.398734 -0.719873 0.531636 76 0 153
0.215542 0.739402 -0.244263 0 0 255
0.208653 0.210848 -0.239884 127 127 0
0.167028 -0.081275 0.222574 76 0 153
0.225403 0.337348 -0.219087 127 127 0
0.121585 0.572182 -0.218847 127 0 127
0.211848 0.122758 -0.218801 127 127 0
0.330410 -0.081275 0.405563 76 0 153
-0.149433 -0.127796 0.110759 76 0 153
-0.231069 -0.127796 0.243036 76 0 153
0.266931 -0.127796 -0.048100 76 0 153
0.139668 -0.081275 0.219212 76 0 153
-0.156028 -0.127796 0.396394 76 0 153
-0.089410 0.404463 -0.228862 76 153 0
-0.208012 -0.081275 0.230974 76 0 153
0.272436 -0.077153 -0.239570 76 0 153
0.374079 -0.690348 -0.232295 76 153 0
0.251718 -0.127796 0.241186 76 0 153
-0.408693 -0.410334 0.539530 76 0 153
0.426998 -0.106604 0.121074 76 0 153
0.327401 0.116991 -0.221363 0 255 0
0.133510 -0.081275 0.043976 76 0 153
0.380814 -0.679284 -0.280396 76 153 0
-0.347656 -0.093446 -0.280971 76 0 153
-0.182555 0.198067 -0.226452 153 0 76
0.354345 -0.435812 -0.211599 76 153 0
0.235753 0.505035 -0.225064 127 127 0
-0.372756 -0.127796 0.178798 76 0 153
0.283988 -0.127796 0.513332 76 0 153
-0.112061 0.556678 -0.219096 76 153 0
-0.015882 -0.127796 -0.147586 76 0 153
0.426974 -0.106916 -0.013730 76 0 153
0.393881 0.439344 -0.256755 255 0 0
-0.117395 -0.127796 0.005391 76 0 153
0.390123 -0.127796 0.148565 76 0 153
0.427339 -0.109345 0.367087 76 0 153
-0.117750 0.134687 -0.239847 76 153 0
-0.421745 0.199182 -0.239499 153 76 0
-0.088546 -0.127796 0.268872 76 0 153
-0.089169 0.362410 -0.230625 76 153 0
-0.297424 -0.039763 -0.219376 76 0 153
-0.406483 0.082653 -0.201968 153 76 0
-0.404943 -0.130749 -0.260551 76 0 153
0.196569 -0.127796 -0.207423 76 0 153
-0.397280 -0.081274 0.018143 76 0 153
-0.346255 -0.386946 0.492363 76 0 153
-0.313703 -0.127796 -0.027715 76 0 153
0.249505 -0.081424 -0.187978 76 0 153
-0.331022 -0.127796 0.051370 76 0 153
0.377554 0.060875 -0.249478 255 0 0
-0.088286 -0.127796 -0.231799 76 0 153
0.292077 0.367399 -0.219741 0 255 0
0.203714 0.388517 -0.239824 127 127 0
-0.421927 -0.066688 -0.231228 76 0 153
0.051055 -0.081275 0.067935 76 0 153
-0.394271 -0.127795 0.423202 76 0 153
0.136418 -0.081275 0.069838 76 0 153
-0.339358 -0.081275 0.347036 76 0 153
-0.411769 -0.591340 -0.221923 0 127 127
-0.306166 0.307431 -0.219000 76 0 153
0.065193 -0.081275 -0.091498 76 0 153
-0.384263 -0.400916 0.554452 76 0 153
-0.370320 -0.127796 0.020066 76 0 153
-0.209510 -0.081275 -0.167783 76 0 153
0.376419 -0.030119 -0.247383 255 0 0
0.119314 0.672803 -0.218827 127 0 127
0.282861 0.652256 -0.225260 0 255 0
0.241760 -0.109629 0.567430 76 0 153
0.212901 0.419881 -0.239923 127 127 0
-0.102390 -0.127796 0.450079 76 0 153
0.056594 -0.127796 0.454690 76 0 153
-0.005647 -0.124446 -0.277542 76 0 153
0.350196 -0.081275 0.079649 76 0 153
-0.191697 -0.127796 -0.157100 76 0 153
0.406215 -0.303146 0.548443 153 0 76
0.238851 -0.081275 0.172045 76 0 153
-0.372493 -0.394321 0.489964 76 0 153
0.327546 0.256629 -0.236216 0 255 0
0.310107 0.287942 -0.239912 0 255 0
-0.415167 -0.574184 0.545838 76 0 153
-0.210638 -0.081275 0.120247 76 0 153
0.197695 0.144124 -0.219388 127 127 0
-0.421856 0.395520 -0.233942 153 76 0
-0.406587 -0.087061 -0.279442 76 0 153
-0.219769 0.163516 -0.239674 153 0 76
-0.381970 -0.306771 -0.197882 0 127 127
0.423839 -0.122185 0.528538 76 0 153
-0.421561 0.315920 -0.213222 153 76 0
0.403222 -0.081608 -0.068976 76 0 153
-0.227518 -0.081275 0.352078 76 0 153
0.373600 0.156729 -0.238876 255 0 0
-0.022190 0.027846 -0.218875 0 127 127
-0.395633 -0.255903 -0.195924 0 127 127
0.103900 0.041725 -0.239742 127 0 127
0.274784 -0.081275 0.301037 76 0 153
0.088223 -0.127796 -0.033125 76 0 153
-0.019119 0.659195 -0.218967 0 127 127
-0.295183 0.226414 -0.239855 76 0 153
-0.054436 -0.081275 0.187741 76 0 153
0.094867 0.645706 -0.228152 127 0 127
-0.232733 -0.082048 0.558724 76 0 153
0.409712 -0.375857 -0.206006 76 153 0
-0.135224 -0.081275 0.201092 76 0 153
0.144586 -0.127796 0.440986 76 0 153
0.080873 -0.081573 0.243129 76 0 153
0.297996 -0.081275 0.391691 76 0 153
0.168386 -0.082205 0.532495 76 0 153
0.242895 -0.127796 -0.228873 76 0 153
-0.187464 -0.127687 0.553181 76 0 153
0.331252 -0.150532 0.492227 153 0 76
0.121249 0.477662 -0.218844 127 0 127
0.392250 -0.081275 0.224268 76 0 153
-0.342517 -0.366464 -0.219044 0 127 127
-0.335017 0.719311 -0.249011 0 0 255
0.167208 -0.127796 0.110154 76 0 153
0.374124 -0.542774 0.558379 153 0 76
0.126570 -0.127796 0.355081 76 0 153
-0.279724 0.551443 -0.224065 76 0 153
-0.265261 -0.127796 -0.009552 76 0 153
-0.014383 0.598232 -0.239762 0 127 127
-0.367140 0.456175 -0.233056 153 76 0
-0.116019 0.651456 -0.218947 76 153 0
-0.023831 -0.127796 0.093529 76 0 153
0.373539 -0.081275 0.033907 76 0 153
-0.323672 -0.144697 -0.207501 76 0 153
0.373356 0.207484 -0.228313 255 0 0
0.424521 -0.693738 0.517920 153 0 76
-0.147317 -0.127796 -0.009647 76 0 153
-0.419893 -0.088602 0.506905 76 0 153
-0.246104 -0.081275 0.326049 76 0 153
0.154980 -0.081275 -0.082061 76 0 153
-0.337036 -0.289044 0.515069 76 0 153
0.092320 -0.127796 0.234592 76 0 153
-0.377188 -0.127796 -0.091501 76 0 153
-0.295380 -0.077805 -0.204112 76 0 153
0.377020 -0.127796 0.060079 76 0 153
0.222355 0.384281 -0.218901 127 127 0
-0.115110 0.092029 -0.218847 76 153 0
0.370104 -0.672645 0.534600 153 0 76
0.024494 0.430134 -0.227127 0 127 127
0.278643 -0.127796 -0.175722 76 0 153
-0.207353 0.155172 -0.218808 153 0 76
0.122612 0.505229 -0.218856 127 0 127
0.310586 0.616703 -0.218820 0 255 0
0.309922 0.022635 -0.239915 0 255 0
0.201477 -0.082274 0.456375 76 0 153
-0.040439 -0.127796 0.270063 76 0 153
-0.403693 -0.667925 0.509553 76 0 153
-0.301893 0.421937 -0.239922 76 0 153
0.035383 -0.127796 0.064458 76 0 153
0.223866 -0.127796 0.387645 76 0 153
0.168356 -0.127796 0.386163 76 0 153
-0.209311 0.026438 -0.218829 153 0 76
0.194796 -0.127796 -0.173494 76 0 153
0.037750 -0.081275 -0.152011 76 0 153
-0.114382 0.518443 -0.239880 76 153 0
-0.078312 -0.127796 -0.193861 76 0 153
0.098475 0.427286 -0.236812 127 0 127
-0.395022 0.571337 -0.256815 153 76 0
-0.295538 -0.127796 0.085427 76 0 153
0.345576 -0.251070 0.482431 153 0 76
0.338670 -0.081275 -0.000817 76 0 153
-0.397245 -0.081274 0.393414 76 0 153
0.272064 -0.127796 0.191015 76 0 153
-0.043526 -0.127796 -0.157615 76 0 153
0.088348 -0.127796 0.044429 76 0 153
-0.183256 0.450134 -0.233171 153 0 76
-0.210781 -0.127796 0.528955 76 0 153
0.182017 -0.081275 0.315987 76 0 153
-0.183457 -0.127796 -0.130007 76 0 153
0.067982 -0.082274 0.363120 76 0 153
0.245370 -0.127796 -0.167696 76 0 153
-0.331257 -0.081275 0.069961 76 0 153
0.238798 0.700387 -0.240483 127 127 0
-0.341435 -0.127796 -0.027326 76 0 153
0.402106 -0.136515 -0.257247 76 153 0
-0.391178 -0.140247 0.471216 76 0 153
0.387027 0.487708 -0.255571 255 0 0
-0.110825 -0.081275 0.082186 76 0 153
-0.143516 -0.081275 0.424936 76 0 153
-0.376217 0.361761 -0.253680 153 76 0
-0.205197 0.466321 -0.239919 153 0 76
-0.311071 -0.081275 0.251606 76 0 153
-0.355775 -0.357031 0.552351 76 0 153
0.090679 -0.086412 -0.278659 76 0 153
-0.217530 0.073426 -0.239793 153 0 76
0.175987 -0.127796 -0.071340 76 0 153
-0.003720 0.587531 -0.218909 0 127 127
-0.065134 -0.127796 0.343713 76 0 153
0.368071 -0.640576 0.517175 153 0 76
-0.207954 0.483527 -0.219100 153 0 76
-0.001855 -0.081761 0.532816 76 0 153
0.393273 -0.081275 0.181471 76 0 153
0.340018 0.705867 -0.255342 0 0 255
