ply
format ascii 1.0
element vertex 619
property float x
property float y
property float z
property float nx
property float ny
property float nz
property uchar red
property uchar green
property uchar blue
property float opacity
end_header
0.145496 -0.107637 -0.280127 0.315851 -0.137704 -0.938763 149 82 41 1.000000
-0.381715 -0.083383 -0.168344 -0.679056 0.733554 0.027959 148 83 39 1.000000
-0.308881 -0.125687 0.540137 0.000000 -1.000000 -0.000000 159 90 43 1.000000
0.263411 -0.125687 0.192161 0.000000 1.000000 0.000000 255 255 255 1.000000
0.275042 -0.125687 -0.060474 0.000000 -1.000000 -0.000000 152 82 42 1.000000
-0.110701 0.062311 -0.237823 0.074980 0.705116 -0.705116 158 88 48 1.000000
-0.089908 0.630428 -0.221251 -0.585299 -0.585299 -0.561115 255 255 255 1.000000
-0.276047 0.693679 -0.237638 -0.581559 -0.581559 0.568840 255 255 255 1.000000
0.316500 -0.083383 0.072735 -0.552107 -0.829618 -0.083132 255 255 255 1.000000
-0.393773 -0.125687 -0.086093 0.000000 -1.000000 -0.000000 163 97 49 1.000000
0.071182 -0.083383 0.047150 -0.251172 -0.684439 -0.684439 255 255 255 1.000000
0.238891 -0.083383 0.251237 0.147497 0.699373 0.699373 153 89 49 1.000000
0.022546 0.485229 -0.237823 -0.886738 -0.053189 -0.459201 158 91 48 1.000000
-0.406908 0.152346 -0.254744 0.541570 -0.000000 0.840656 255 255 255 1.000000
0.189300 0.465499 -0.223736 -0.639911 0.639911 0.425474 162 93 50 1.000000
0.203298 -0.125687 -0.223174 0.000000 -1.000000 -0.000000 148 78 38 1.000000
-0.322581 0.604464 -0.235473 -0.629729 0.629729 -0.454843 152 85 44 1.000000
0.425450 -0.700361 0.554064 -0.682079 0.616588 -0.393177 255 255 255 1.000000
0.164761 -0.125687 0.349795 0.000000 1.000000 0.000000 255 255 255 1.000000
0.160876 -0.125687 0.151788 0.000000 1.000000 0.000000 255 255 255 1.000000
-0.295877 0.121427 -0.220901 0.103873 0.703282 0.703282 155 90 46 1.000000
0.426204 0.018173 -0.234916 0.968132 0.000000 -0.250440 158 95 52 1.000000
-0.416832 -0.646801 -0.246352 -0.760101 -0.637635 0.125174 147 74 28 1.000000
0.000468 -0.125687 0.170216 0.000000 -1.000000 -0.000000 143 74 29 1.000000
0.426204 -0.100886 0.532793 0.729497 0.125842 0.672308 153 88 44 1.000000
-0.321982 0.461810 -0.237823 0.567311 -0.582305 0.582305 255 255 255 1.000000
0.372556 -0.532163 -0.216092 -0.457459 -0.469989 -0.754879 255 255 255 1.000000
-0.407689 -0.518182 0.500924 0.590969 0.439669 0.676349 255 255 255 1.000000
0.117624 0.436648 -0.220901 -0.056870 0.705962 0.705962 153 87 41 1.000000
-0.029472 -0.083383 0.141950 0.017244 0.938829 0.343952 162 92 52 1.000000
-0.380996 -0.083383 0.540363 -0.548338 0.603389 0.579005 148 79 34 1.000000
0.040266 -0.083383 -0.255690 -0.107114 -0.703039 0.703039 255 255 255 1.000000
0.079232 -0.083383 -0.001227 -0.030359 -0.881721 -0.470793 255 255 255 1.000000
-0.205365 -0.125687 -0.107786 0.000000 -1.000000 -0.000000 151 82 39 1.000000
-0.287269 0.031959 -0.237823 -0.343746 -0.664017 0.664017 255 255 255 1.000000
-0.083405 -0.125687 0.214446 0.000000 1.000000 0.000000 255 255 255 1.000000
0.141867 0.403639 -0.220901 -0.562209 -0.584774 -0.584774 255 255 255 1.000000
0.310212 -0.083383 -0.161429 -0.084144 0.704599 0.704599 152 89 46 1.000000
-0.160050 -0.083383 -0.179474 -0.394384 -0.649793 -0.649793 255 255 255 1.000000
0.375439 0.161967 -0.244483 0.844921 -0.231257 0.482317 255 255 255 1.000000
-0.114131 -0.083383 -0.220881 -0.029414 0.706801 0.706801 159 93 47 1.000000
0.006963 -0.125687 0.001465 0.000000 1.000000 0.000000 255 255 255 1.000000
0.235835 0.620484 -0.222596 -0.615514 -0.615514 -0.492224 255 255 255 1.000000
-0.116977 -0.083383 0.092585 0.331475 -0.893676 -0.302436 255 255 255 1.000000
0.344515 -0.285021 -0.198717 0.697807 0.161633 0.697811 255 255 255 1.000000
0.371037 -0.366462 0.550894 0.694766 -0.183140 0.695529 151 87 47 1.000000
0.375439 0.239462 -0.238752 0.899488 -0.330373 0.285962 255 255 255 1.000000
-0.258678 -0.083383 0.027898 -0.544424 0.811763 0.211289 144 77 36 1.000000
-0.295555 0.575850 -0.237823 -0.113502 -0.702537 0.702537 255 255 255 1.000000
0.365862 -0.083383 0.283843 0.512838 0.737396 0.439597 152 93 49 1.000000
0.376731 -0.083383 0.392321 -0.432946 -0.637400 -0.637400 255 255 255 1.000000
-0.352231 -0.414069 0.493487 0.591000 -0.394326 -0.703723 148 82 34 1.000000
-0.369641 0.683338 -0.254744 0.571656 0.574547 -0.585752 160 94 45 1.000000
-0.418329 -0.687061 -0.278803 0.605372 0.516764 0.605376 255 255 255 1.000000
0.049696 0.194710 -0.237706 0.580011 0.580011 -0.571992 149 87 50 1.000000
-0.253609 -0.083383 0.274315 0.484276 -0.759296 -0.434680 255 255 255 1.000000
0.353518 -0.277359 0.483722 0.698561 -0.155813 -0.698380 145 80 38 1.000000
0.360102 -0.083570 -0.280127 -0.514037 -0.603824 0.609231 255 255 255 1.000000
0.412679 -0.125687 0.358431 -0.318573 0.947880 -0.005860 255 255 255 1.000000
0.403009 -0.125687 0.515414 0.051575 -0.998586 0.012895 142 69 23 1.000000
-0.404908 -0.368583 0.525857 0.942792 0.305445 -0.133590 255 255 255 1.000000
-0.296651 0.489452 -0.237823 -0.080653 -0.704803 0.704803 255 255 255 1.000000
0.026765 0.532474 -0.220901 -0.795996 0.067448 0.601533 158 93 51 1.000000
-0.056132 -0.125687 0.097703 0.000000 -1.000000 -0.000000 151 82 37 1.000000
-0.050474 -0.125687 -0.134348 0.000000 -1.000000 -0.000000 150 80 42 1.000000
-0.051396 -0.125687 -0.279698 -0.079863 -0.715122 -0.694422 150 80 40 1.000000
0.282369 -0.027117 -0.225224 0.668281 -0.668281 -0.326803 255 255 255 1.000000
0.203862 -0.083383 -0.080843 0.562526 0.784589 -0.260739 154 87 46 1.000000
0.322819 -0.083383 0.462022 0.528180 0.664869 0.528180 148 84 45 1.000000
-0.190741 -0.083383 0.367396 0.371018 -0.760241 -0.533272 255 255 255 1.000000
-0.408869 -0.461002 -0.266823 0.700004 0.309335 0.643667 255 255 255 1.000000
-0.391691 -0.083383 0.059508 0.670064 -0.711361 -0.212087 255 255 255 1.000000
0.208718 0.524107 -0.220901 -0.116183 0.702318 0.702318 151 86 44 1.000000
0.242790 -0.125687 -0.140235 0.000000 -1.000000 -0.000000 154 83 39 1.000000
-0.102729 -0.125687 0.268404 0.000000 1.000000 0.000000 255 255 255 1.000000
-0.369116 0.527634 -0.228471 -0.798464 -0.601970 0.009308 255 255 255 1.000000
0.043344 -0.125687 0.147194 0.000000 -1.000000 -0.000000 153 84 39 1.000000
0.027641 0.230874 -0.226091 0.981506 -0.024913 -0.189805 255 255 255 1.000000
0.094844 -0.125687 -0.008495 0.000000 -1.000000 -0.000000 154 83 43 1.000000
0.376079 0.715251 -0.229636 0.421286 -0.906562 -0.025782 255 255 255 1.000000
0.322645 0.285560 -0.220901 -0.459187 -0.628151 -0.628151 255 255 255 1.000000
-0.369116 0.665485 -0.227185 0.719990 0.691712 0.056120 148 87 47 1.000000
-0.008472 0.563774 -0.234441 -0.952817 0.097398 0.287495 255 255 255 1.000000
0.426204 0.371185 -0.229418 -0.991768 -0.000000 0.128047 255 255 255 1.000000
0.426095 -0.715423 -0.253058 -0.597691 0.534930 0.597173 255 255 255 1.000000
0.234032 0.674871 -0.237823 0.546348 0.592243 -0.592243 149 78 34 1.000000
0.237367 -0.125687 0.521745 0.000000 1.000000 0.000000 255 255 255 1.000000
0.401983 -0.083383 0.387753 -0.539487 -0.595380 -0.595380 255 255 255 1.000000
-0.222681 -0.125687 0.007454 0.000000 -1.000000 -0.000000 145 78 37 1.000000
-0.419881 0.547619 -0.232172 -0.999983 0.000000 -0.005783 156 90 44 1.000000
0.100893 -0.125687 0.104010 0.000000 -1.000000 -0.000000 145 75 37 1.000000
0.364636 -0.566715 -0.256873 0.629058 0.455727 0.629761 255 255 255 1.000000
0.023140 -0.034223 -0.220901 0.536155 -0.385744 -0.750826 255 255 255 1.000000
0.175952 -0.083383 0.372570 0.262310 0.787272 0.558029 137 73 33 1.000000
-0.439230 0.687141 -0.229753 0.981527 0.190705 0.015401 255 255 255 1.000000
-0.227160 -0.125687 0.268999 0.000000 -1.000000 -0.000000 141 75 36 1.000000
-0.337596 -0.083383 -0.179295 -0.023259 -0.999459 -0.023259 255 255 255 1.000000
0.399137 -0.704167 -0.279536 0.009820 0.686794 0.726785 255 255 255 1.000000
0.184315 -0.083383 0.418158 0.280148 0.758905 0.587861 143 79 39 1.000000
0.360320 -0.506286 0.518569 0.827377 -0.464625 -0.315549 255 255 255 1.000000
-0.281051 -0.003683 -0.237823 -0.485283 -0.618264 0.618264 255 255 255 1.000000
-0.224213 -0.125687 0.038161 0.000000 1.000000 0.000000 255 255 255 1.000000
-0.317781 -0.083383 -0.034767 -0.615581 0.774648 0.144848 149 84 42 1.000000
-0.186679 -0.083383 0.522936 -0.316124 0.693883 0.646986 150 83 40 1.000000
-0.259790 0.731853 -0.238807 0.415021 -0.846519 0.333412 255 255 255 1.000000
0.343787 -0.236908 0.545342 0.706089 -0.036325 0.707191 175 105 65 1.000000
0.215623 0.455567 -0.220901 0.092459 0.704078 0.704078 154 89 47 1.000000
0.209127 -0.083383 0.293309 0.464804 0.626082 0.626082 155 92 47 1.000000
-0.369116 0.142958 -0.216466 0.879010 0.221821 0.422063 150 89 49 1.000000
-0.364329 -0.650931 0.538862 0.725601 -0.684967 0.065753 156 87 42 1.000000
0.133219 0.144131 -0.237823 0.384861 0.652641 -0.652641 152 82 42 1.000000
-0.359016 -0.576554 0.518445 -0.713416 0.592383 0.374326 255 255 255 1.000000
-0.394962 0.155556 -0.203979 0.076509 -0.257426 -0.963265 255 255 255 1.000000
-0.172410 -0.083383 -0.258267 0.059212 0.964184 -0.258540 160 94 46 1.000000
0.276320 -0.083383 0.432141 -0.415637 -0.711909 -0.566067 255 255 255 1.000000
-0.416935 -0.649201 0.520541 0.682778 0.593135 0.426620 255 255 255 1.000000
-0.250403 -0.125687 0.426618 0.000000 -1.000000 -0.000000 160 90 43 1.000000
-0.246667 -0.083383 0.178862 -0.499865 0.790775 0.353284 147 82 36 1.000000
0.426204 -0.120395 -0.260721 0.673198 -0.475787 -0.566066 155 94 53 1.000000
0.142765 0.533707 -0.235170 0.636121 0.636121 -0.436691 158 95 52 1.000000
-0.083446 -0.125687 0.300995 0.000000 1.000000 0.000000 255 255 255 1.000000
0.387339 0.448621 -0.203979 0.390234 -0.376006 -0.840439 255 255 255 1.000000
-0.386716 0.301268 -0.203979 0.211507 0.398536 0.892431 147 80 39 1.000000
0.344887 -0.125687 -0.151931 0.000000 -1.000000 -0.000000 156 87 42 1.000000
-0.182977 0.040350 -0.231684 -0.694153 -0.694153 0.190533 255 255 255 1.000000
0.382088 0.709390 -0.254744 -0.359991 0.583024 -0.728347 145 78 35 1.000000
-0.019571 0.180728 -0.236988 -0.910773 -0.040583 0.410908 255 255 255 1.000000
-0.301646 0.224671 -0.220901 -0.070699 0.705337 0.705337 160 94 48 1.000000
0.290782 -0.100294 0.565958 -0.554676 -0.163553 -0.815834 255 255 255 1.000000
-0.231907 -0.083383 0.260675 -0.459837 0.776728 0.430399 158 92 46 1.000000
-0.202178 0.503212 -0.220901 -0.122638 -0.701769 -0.701769 255 255 255 1.000000
0.393140 -0.614075 -0.221943 -0.023166 -0.596434 -0.802328 255 255 255 1.000000
0.368408 -0.339676 -0.263915 -0.278449 -0.285181 -0.917136 148 79 36 1.000000
-0.339421 -0.252997 -0.260201 0.705535 0.053908 0.706622 255 255 255 1.000000
0.154041 -0.125687 0.204654 0.000000 1.000000 0.000000 255 255 255 1.000000
-0.066397 -0.083383 0.257716 -0.200348 0.858395 0.472249 147 78 33 1.000000
0.100403 0.349700 -0.237823 -0.501920 0.611587 -0.611587 162 91 47 1.000000
-0.297809 -0.083383 0.372323 -0.510135 0.701815 0.497209 148 79 36 1.000000
0.256210 0.731754 -0.254744 -0.176690 -0.623062 0.761954 255 255 255 1.000000
0.373289 -0.334584 -0.201979 -0.133707 -0.256022 -0.957379 255 255 255 1.000000
-0.410368 -0.495970 0.554788 0.683978 0.343064 -0.643803 255 255 255 1.000000
-0.040658 0.461194 -0.220901 0.473650 -0.595711 -0.648679 255 255 255 1.000000
0.140483 0.054634 -0.220901 -0.537701 -0.596187 -0.596187 255 255 255 1.000000
-0.194467 -0.083383 0.009430 0.466120 -0.860595 -0.205202 255 255 255 1.000000
0.421064 -0.598011 0.508333 -0.632349 0.497533 0.593798 255 255 255 1.000000
0.134431 -0.083383 0.402902 0.196476 0.783500 0.589513 150 83 40 1.000000
-0.136443 0.477560 -0.234780 -0.644144 0.644144 -0.412500 162 93 50 1.000000
-0.322832 -0.125687 0.401466 0.000000 1.000000 0.000000 255 255 255 1.000000
0.072301 -0.125687 0.237599 0.000000 -1.000000 -0.000000 145 78 39 1.000000
-0.017726 -0.125687 -0.181110 0.000000 1.000000 0.000000 255 255 255 1.000000
0.175262 -0.083383 -0.148457 0.609322 0.640390 -0.467577 154 89 45 1.000000
0.199922 -0.083383 0.167673 0.162382 0.697722 0.697722 156 91 49 1.000000
0.419147 -0.553282 0.555446 0.684429 -0.415614 0.599018 158 89 44 1.000000
0.307641 0.319059 -0.220901 0.060790 0.705799 0.705799 150 87 44 1.000000
-0.024823 -0.083383 0.262556 0.123238 -0.867093 -0.482661 255 255 255 1.000000
-0.390571 0.510005 -0.203979 0.002341 -0.496899 -0.867805 255 255 255 1.000000
-0.301058 0.147981 -0.220901 -0.052920 0.706116 0.706116 157 92 48 1.000000
0.402449 -0.125687 -0.217980 0.038016 -0.998554 -0.038016 144 74 34 1.000000
-0.134296 -0.083383 0.378834 0.280626 -0.779753 -0.559673 255 255 255 1.000000
-0.330344 -0.175144 -0.220226 -0.993622 -0.018634 0.111212 255 255 255 1.000000
-0.322581 0.554147 -0.237377 -0.587486 0.587486 -0.556525 156 90 44 1.000000
0.109227 -0.083383 0.224832 -0.310197 -0.672227 -0.672227 255 255 255 1.000000
0.211730 0.716568 -0.215956 0.039204 -0.867091 0.496605 142 78 39 1.000000
-0.000978 -0.083383 -0.277220 0.064872 0.772773 -0.631358 155 89 43 1.000000
-0.078095 -0.125687 0.123446 0.000000 -1.000000 -0.000000 155 86 43 1.000000
0.400318 0.364401 -0.254744 0.093659 0.425185 -0.900247 157 88 45 1.000000
0.155849 -0.083383 0.306491 -0.399671 -0.805917 -0.436762 255 255 255 1.000000
0.013348 0.637202 -0.220901 -0.555263 -0.082965 0.827527 157 92 48 1.000000
0.304721 0.416063 -0.237823 0.027805 -0.706833 0.706833 255 255 255 1.000000
0.106438 -0.083383 -0.145170 -0.293958 -0.951722 0.088394 255 255 255 1.000000
-0.404724 -0.364273 -0.255779 -0.802285 -0.233311 -0.549458 151 82 39 1.000000
0.378268 -0.448015 0.554389 0.680034 -0.272280 0.680748 147 88 46 1.000000
0.339805 0.720953 -0.206546 0.404481 0.651917 0.641404 151 81 41 1.000000
0.395539 -0.366401 0.490082 -0.683509 0.258399 0.682675 255 255 255 1.000000
-0.404576 -0.125687 -0.170217 0.263787 0.957676 0.115207 255 255 255 1.000000
-0.237078 -0.125687 0.378837 0.000000 -1.000000 -0.000000 142 73 28 1.000000
0.303680 0.596616 -0.237823 -0.059368 0.705860 -0.705860 157 88 45 1.000000
0.064997 0.744428 -0.250495 -0.501733 -0.660724 0.558309 255 255 255 1.000000
0.354740 -0.428165 -0.211836 0.672042 0.310874 0.672099 255 255 255 1.000000
-0.277812 -0.083383 -0.020886 0.572927 -0.803220 -0.163073 255 255 255 1.000000
0.301612 -0.083383 -0.092868 -0.348982 0.728776 0.589149 155 91 51 1.000000
0.339450 -0.125687 -0.113546 0.000000 -1.000000 -0.000000 155 86 43 1.000000
0.192422 -0.125687 0.437892 0.000000 -1.000000 -0.000000 156 87 42 1.000000
0.129665 -0.125687 0.023856 0.000000 1.000000 0.000000 255 255 255 1.000000
0.003123 -0.083383 0.468256 0.021202 -0.762184 -0.647013 255 255 255 1.000000
-0.288100 -0.125687 0.094021 0.000000 -1.000000 -0.000000 165 96 51 1.000000
0.096791 -0.125687 -0.141397 0.000000 -1.000000 -0.000000 156 85 43 1.000000
0.415322 -0.083383 0.262587 0.524203 0.759818 0.384561 154 90 50 1.000000
-0.034686 -0.083383 0.542603 -0.068716 0.718568 0.692054 152 83 36 1.000000
0.426204 0.125351 -0.211924 -0.877486 0.000000 -0.479603 255 255 255 1.000000
-0.111280 -0.083383 -0.170071 0.191948 -0.926188 -0.324549 255 255 255 1.000000
0.361344 -0.125687 0.212152 0.000000 1.000000 0.000000 255 255 255 1.000000
-0.195575 0.477135 -0.220901 0.308453 0.672628 0.672628 147 81 35 1.000000
-0.306596 0.380177 -0.220901 -0.216085 0.690401 0.690401 157 92 48 1.000000
-0.285619 0.652231 -0.237823 -0.384253 -0.652821 0.652821 255 255 255 1.000000
-0.215276 -0.125687 -0.258124 0.090477 -0.991780 -0.090477 157 88 45 1.000000
0.131659 0.317773 -0.220901 0.346660 0.663260 0.663260 155 89 43 1.000000
0.370526 -0.083383 0.026721 0.550566 0.829278 -0.095785 162 99 56 1.000000
-0.348336 -0.375863 0.551297 0.627954 -0.285520 0.723984 159 93 45 1.000000
-0.419881 0.196183 -0.228486 0.988284 0.000000 -0.152626 255 255 255 1.000000
0.378528 -0.394534 0.552097 0.690169 -0.215471 0.690825 148 84 44 1.000000
0.200671 0.277044 -0.237823 0.340004 -0.664980 0.664980 255 255 255 1.000000
-0.402321 -0.308224 -0.204842 -0.744654 -0.212268 0.632797 138 72 33 1.000000
0.310972 -0.083383 0.507283 0.459313 0.657549 0.597211 157 93 53 1.000000
-0.021994 0.277790 -0.221340 -0.903552 -0.006748 -0.428426 255 255 255 1.000000
0.222338 -0.125687 -0.273767 -0.471737 0.744935 0.471737 255 255 255 1.000000
-0.234470 -0.083383 0.320883 -0.446231 0.755069 0.480363 157 91 45 1.000000
0.156084 -0.125687 0.021711 0.000000 1.000000 0.000000 255 255 255 1.000000
0.402109 -0.155733 0.520894 0.938507 0.007577 0.345178 149 84 38 1.000000
0.341322 -0.125687 0.142990 0.000000 -1.000000 -0.000000 147 80 39 1.000000
0.126618 -0.083383 -0.191319 0.106855 -0.703058 -0.703058 255 255 255 1.000000
0.336504 -0.172866 0.537699 0.764092 0.029757 0.644421 255 255 255 1.000000
-0.228646 -0.125687 0.311865 0.000000 -1.000000 -0.000000 139 74 32 1.000000
0.049696 0.583371 -0.237421 0.586493 0.586493 -0.558615 146 82 43 1.000000
0.085627 -0.125687 0.064587 0.000000 1.000000 0.000000 255 255 255 1.000000
-0.022465 -0.125687 0.411094 0.000000 1.000000 0.000000 255 255 255 1.000000
0.375439 0.471221 -0.232750 -0.829294 0.556207 -0.053904 160 91 48 1.000000
0.412643 -0.083383 0.351131 -0.465526 -0.758337 -0.456301 255 255 255 1.000000
-0.319027 0.663751 -0.237823 -0.513921 0.606583 -0.606583 153 86 43 1.000000
-0.419881 0.483869 -0.230748 0.998779 0.000000 -0.049398 255 255 255 1.000000
0.328904 0.333440 -0.221612 -0.593506 -0.593506 -0.543600 255 255 255 1.000000
0.175692 -0.083383 -0.189849 0.205052 0.973096 -0.105061 156 91 47 1.000000
0.345029 -0.163537 0.475592 0.706626 -0.039855 -0.706464 152 85 42 1.000000
-0.159320 -0.083383 -0.012542 0.166584 0.971854 0.166584 153 84 39 1.000000
0.087147 -0.083383 -0.219440 0.403031 -0.815843 -0.414688 255 255 255 1.000000
0.447523 0.695996 -0.211629 -0.796559 -0.355039 -0.489328 255 255 255 1.000000
0.375250 -0.125687 0.340443 0.000000 1.000000 0.000000 255 255 255 1.000000
-0.091251 0.152538 -0.220901 0.554487 0.588449 0.588449 167 101 55 1.000000
-0.108793 -0.083383 -0.022153 0.370945 0.656658 0.656658 156 87 42 1.000000
-0.133692 -0.125687 0.298925 0.000000 1.000000 0.000000 255 255 255 1.000000
0.380389 0.111602 -0.203979 0.622285 -0.105180 -0.775693 255 255 255 1.000000
-0.211662 -0.125687 0.512438 0.000000 -1.000000 -0.000000 142 73 30 1.000000
-0.400472 -0.125687 -0.137142 -0.149089 -0.988169 0.035973 163 99 50 1.000000
0.340939 -0.234946 -0.197266 0.702755 0.110503 0.702797 255 255 255 1.000000
0.003651 -0.125687 0.220558 0.000000 1.000000 0.000000 255 255 255 1.000000
-0.239051 -0.083383 -0.173752 0.483680 0.618891 0.618891 148 83 37 1.000000
0.351611 -0.384356 0.504674 0.827167 -0.301440 -0.474266 255 255 255 1.000000
-0.043373 0.321020 -0.221565 0.592442 -0.592442 -0.545917 255 255 255 1.000000
0.189300 0.694459 -0.221424 -0.589242 0.589242 0.552801 147 80 37 1.000000
-0.057364 -0.125687 0.335812 0.000000 1.000000 0.000000 255 255 255 1.000000
0.089337 -0.125687 0.469838 0.000000 -1.000000 -0.000000 165 95 48 1.000000
-0.027054 0.583156 -0.237823 -0.484352 -0.320671 0.813986 255 255 255 1.000000
-0.405414 -0.081151 -0.203979 -0.395647 0.002163 0.918400 154 89 43 1.000000
0.104907 0.574984 -0.220901 -0.405361 0.646406 0.646406 160 95 51 1.000000
-0.338355 -0.267611 0.483026 -0.671220 0.237577 0.702154 255 255 255 1.000000
-0.117446 0.207979 -0.237823 -0.128721 0.701224 -0.701224 149 81 44 1.000000
-0.185000 0.340475 -0.237823 0.542406 0.594052 -0.594052 157 91 52 1.000000
-0.178016 -0.125687 0.549485 -0.119023 0.965918 -0.229859 255 255 255 1.000000
0.401376 -0.708547 -0.228691 0.046797 -0.677394 -0.734131 255 255 255 1.000000
-0.232227 -0.083383 0.370980 -0.428276 0.738019 0.521447 154 87 44 1.000000
0.377947 -0.129376 0.473152 -0.707385 0.016845 0.706627 255 255 255 1.000000
-0.108252 0.713894 -0.237823 0.147965 0.699323 -0.699323 145 75 37 1.000000
0.234850 0.335207 -0.237823 -0.560724 -0.585486 0.585486 255 255 255 1.000000
-0.106356 -0.125687 0.316703 0.000000 -1.000000 -0.000000 150 81 38 1.000000
-0.077331 -0.083383 -0.204734 0.643449 0.643449 0.414665 163 94 51 1.000000
0.401398 -0.596349 0.560746 0.638753 -0.428360 0.639142 147 86 46 1.000000
0.207811 0.384675 -0.237823 -0.143051 0.699834 -0.699834 159 88 44 1.000000
-0.034525 -0.125687 0.367514 0.000000 -1.000000 -0.000000 156 87 40 1.000000
-0.015459 0.105310 -0.237823 -0.888644 -0.070211 0.453192 255 255 255 1.000000
0.311127 0.570505 -0.237823 0.164582 0.697464 -0.697464 153 84 41 1.000000
-0.415899 -0.625038 0.510499 -0.624041 -0.523124 -0.580444 150 80 40 1.000000
-0.376895 -0.516899 -0.215001 0.647012 0.404103 -0.646588 255 255 255 1.000000
-0.394931 -0.717946 -0.279890 0.597822 0.539464 0.592948 255 255 255 1.000000
-0.398554 0.534912 -0.203979 -0.369076 0.373575 0.851014 143 80 37 1.000000
0.015796 0.040481 -0.236482 0.917276 -0.090371 0.387863 255 255 255 1.000000
0.235473 0.264103 -0.220901 0.571331 0.580337 0.580337 159 93 47 1.000000
-0.387453 -0.125687 0.240688 0.000000 1.000000 0.000000 255 255 255 1.000000
0.367638 -0.608744 0.509800 -0.639000 0.498663 0.585674 161 92 47 1.000000
0.416084 -0.481815 0.550547 -0.726643 0.351051 -0.590553 255 255 255 1.000000
0.108087 0.725423 -0.205969 -0.347301 -0.683261 0.642291 155 89 50 1.000000
0.225682 0.737523 -0.208571 0.439583 -0.721373 -0.535152 255 255 255 1.000000
-0.212219 -0.125687 -0.073105 0.000000 -1.000000 -0.000000 150 81 38 1.000000
0.107490 0.090028 -0.220901 -0.342815 0.664258 0.664258 152 86 40 1.000000
0.057276 -0.083383 -0.147343 -0.276261 -0.679588 -0.679588 255 255 255 1.000000
0.045346 -0.103605 0.565958 0.099131 0.043684 0.994115 149 82 39 1.000000
0.330114 0.720986 -0.254744 -0.258197 -0.594881 0.761216 255 255 255 1.000000
-0.346750 -0.083383 0.277966 0.588506 -0.700156 -0.404280 255 255 255 1.000000
-0.064427 -0.125687 0.439378 0.000000 1.000000 0.000000 255 255 255 1.000000
0.046663 -0.125687 0.338043 0.000000 -1.000000 -0.000000 156 87 42 1.000000
0.424004 -0.125687 0.335170 -0.629632 0.733107 -0.257133 255 255 255 1.000000
-0.287699 -0.083383 0.545130 0.444053 -0.644084 -0.622874 255 255 255 1.000000
0.120624 -0.125687 0.438763 0.000000 1.000000 0.000000 255 255 255 1.000000
0.210018 -0.000421 -0.237823 -0.077254 0.704994 -0.704994 151 82 39 1.000000
-0.034776 -0.125687 0.208801 0.000000 -1.000000 -0.000000 149 80 33 1.000000
-0.167374 -0.083383 0.124394 -0.403393 0.855976 0.323387 156 90 44 1.000000
-0.124005 0.146216 -0.237823 -0.312626 0.671664 -0.671664 153 84 41 1.000000
-0.400913 0.336146 -0.254744 0.447121 -0.000000 0.894473 255 255 255 1.000000
0.014442 -0.083383 -0.127653 0.451900 -0.630788 -0.630788 255 255 255 1.000000
0.233461 -0.125687 -0.189912 0.000000 1.000000 0.000000 255 255 255 1.000000
0.364513 -0.083383 -0.011178 0.567917 0.802564 -0.182651 159 96 53 1.000000
-0.241451 -0.125687 0.473723 0.000000 1.000000 0.000000 255 255 255 1.000000
-0.385942 0.629250 -0.203979 -0.151701 -0.565244 -0.810855 255 255 255 1.000000
-0.095548 0.072811 -0.220901 0.472214 0.623303 0.623303 162 96 50 1.000000
-0.419881 -0.124359 0.324638 -0.697153 -0.643919 0.315192 143 73 35 1.000000
-0.413746 -0.574800 0.509533 0.666484 0.491527 0.560535 255 255 255 1.000000
-0.162631 -0.083383 0.169019 -0.385197 0.846500 0.367507 160 94 48 1.000000
0.402497 0.083801 -0.203979 0.133868 -0.000000 0.990999 155 92 49 1.000000
0.404460 -0.210584 -0.241711 -0.707087 0.022105 0.706781 255 255 255 1.000000
-0.079320 -0.083383 0.060329 -0.234585 -0.943366 -0.234585 255 255 255 1.000000
0.191889 0.343381 -0.220901 -0.532085 0.598701 0.598701 169 103 57 1.000000
-0.144418 -0.083383 0.260650 -0.331819 0.825145 0.457200 160 94 48 1.000000
-0.194128 -0.125687 0.002099 0.000000 -1.000000 -0.000000 159 90 47 1.000000
-0.211881 -0.083383 0.480137 -0.365916 0.703227 0.609572 156 89 46 1.000000
-0.143383 -0.125687 0.413125 0.000000 -1.000000 -0.000000 160 91 46 1.000000
0.294283 0.704861 -0.244527 0.214958 0.820969 0.528964 255 255 255 1.000000
0.049140 0.321146 -0.237823 0.559088 0.581406 -0.591091 153 83 43 1.000000
-0.181118 -0.125687 0.276034 0.000000 1.000000 0.000000 255 255 255 1.000000
-0.011386 -0.083383 0.237025 0.104866 -0.881385 -0.460613 255 255 255 1.000000
-0.281088 -0.083383 -0.260539 0.004535 0.989515 -0.144361 146 81 37 1.000000
-0.295663 0.533025 -0.220901 0.110279 0.702794 0.702794 150 87 40 1.000000
-0.065376 -0.083383 -0.001616 -0.585043 -0.802367 0.118035 255 255 255 1.000000
0.426204 0.427212 -0.215765 -0.971137 0.000000 -0.238522 255 255 255 1.000000
-0.298001 -0.083383 0.264513 -0.540047 0.734560 0.410818 153 88 46 1.000000
0.051130 -0.083383 0.427831 -0.055063 -0.783950 -0.618377 255 255 255 1.000000
0.399536 0.422026 -0.203979 -0.134187 -0.186022 -0.973339 255 255 255 1.000000
-0.319866 0.305629 -0.220901 0.529741 -0.599739 -0.599739 255 255 255 1.000000
-0.376713 -0.125687 0.079202 0.000000 -1.000000 -0.000000 162 96 50 1.000000
-0.136528 -0.083383 -0.081305 0.602863 0.730378 -0.321098 160 91 46 1.000000
0.318266 0.700518 -0.227021 -0.254534 -0.964102 0.075631 145 79 40 1.000000
0.315840 -0.109382 0.565958 -0.584544 0.181225 -0.790864 255 255 255 1.000000
0.189300 0.093851 -0.229101 0.706939 -0.706939 -0.021755 255 255 255 1.000000
-0.284232 -0.125687 0.361616 0.000000 -1.000000 -0.000000 149 81 32 1.000000
-0.021026 -0.125687 0.083720 0.000000 1.000000 0.000000 255 255 255 1.000000
0.364205 -0.083383 0.101810 0.493352 0.615062 0.615062 156 92 52 1.000000
-0.113391 0.689135 -0.237823 0.006570 -0.707092 0.707092 255 255 255 1.000000
0.107408 0.616296 -0.237823 -0.344877 0.663724 -0.663724 154 85 42 1.000000
0.426204 -0.095489 -0.085571 -0.895315 -0.437587 0.083237 255 255 255 1.000000
0.422665 -0.635387 0.539366 -0.776477 0.621489 -0.104091 255 255 255 1.000000
0.381182 -0.453445 -0.268791 0.092266 0.435519 0.895438 255 255 255 1.000000
-0.419881 0.503414 -0.247800 0.938454 -0.000000 0.345404 255 255 255 1.000000
0.157093 0.722024 -0.250568 -0.023587 -0.768771 -0.639089 151 85 46 1.000000
0.161608 -0.083383 0.201611 -0.243058 -0.770906 -0.588750 255 255 255 1.000000
-0.115594 0.239622 -0.220901 -0.073305 0.705204 0.705204 153 87 41 1.000000
-0.342576 0.694971 -0.225450 -0.228424 -0.970899 0.071960 153 84 41 1.000000
0.400339 -0.025062 -0.203979 0.001326 -0.000000 0.999999 150 86 46 1.000000
0.398837 -0.125687 0.141276 0.000000 -1.000000 -0.000000 156 82 41 1.000000
-0.002105 -0.125687 0.364783 0.000000 -1.000000 -0.000000 152 83 38 1.000000
-0.091481 0.744938 -0.232641 -0.288973 -0.949754 0.120260 255 255 255 1.000000
-0.369116 0.190366 -0.219816 0.910543 0.281248 0.303003 143 81 44 1.000000
0.205943 -0.038775 -0.237823 0.197369 -0.693198 0.693198 255 255 255 1.000000
-0.058524 -0.083383 -0.153420 -0.301087 -0.674295 -0.674295 255 255 255 1.000000
0.053145 -0.125687 0.084579 0.000000 1.000000 0.000000 255 255 255 1.000000
-0.405329 0.444850 -0.203979 0.575262 -0.229816 -0.785022 255 255 255 1.000000
-0.410177 -0.491527 -0.214668 0.666418 0.394908 -0.632404 255 255 255 1.000000
-0.304939 0.296710 -0.237823 -0.168516 0.696994 -0.696994 151 82 39 1.000000
0.340255 -0.083383 -0.132118 0.643605 0.643605 0.414179 152 89 46 1.000000
0.371499 -0.662792 0.514030 -0.620593 0.549244 0.559639 154 85 40 1.000000
0.243040 -0.125687 0.049173 0.000000 -1.000000 -0.000000 153 82 38 1.000000
0.198722 -0.083383 0.512810 0.308472 0.701177 0.642803 159 92 49 1.000000
0.279704 -0.125687 0.240045 0.000000 1.000000 0.000000 255 255 255 1.000000
-0.171623 -0.125687 0.414004 0.000000 1.000000 0.000000 255 255 255 1.000000
0.268652 -0.083383 0.384649 -0.629784 -0.665616 -0.400409 255 255 255 1.000000
-0.419881 -0.111121 0.544833 -0.702496 -0.213098 0.679035 159 93 45 1.000000
0.186137 -0.125687 0.362734 0.000000 1.000000 0.000000 255 255 255 1.000000
-0.388262 -0.502016 0.499769 -0.171883 -0.539028 -0.824563 160 91 44 1.000000
-0.283616 0.604601 -0.237823 0.430577 0.638202 -0.638202 160 94 48 1.000000
-0.009914 0.008713 -0.237823 -0.850443 -0.148345 0.504719 255 255 255 1.000000
0.426204 0.073187 -0.227857 -0.999881 -0.000000 0.015452 255 255 255 1.000000
0.426204 -0.085774 -0.047964 0.738758 0.667074 0.096172 155 88 47 1.000000
-0.057041 0.745007 -0.203979 0.451537 -0.622327 -0.639393 255 255 255 1.000000
0.227063 -0.083383 0.051261 -0.278135 -0.679206 -0.679206 255 255 255 1.000000
-0.382093 -0.125687 0.194145 0.000000 1.000000 0.000000 255 255 255 1.000000
-0.249672 -0.083383 0.457776 0.424343 -0.695677 -0.579626 255 255 255 1.000000
0.243468 -0.125687 0.231003 0.000000 -1.000000 -0.000000 146 76 36 1.000000
0.398569 0.021925 -0.203979 0.054789 0.000000 -0.998498 255 255 255 1.000000
0.078200 -0.125687 0.514054 0.000000 1.000000 0.000000 255 255 255 1.000000
-0.030171 -0.083383 0.302821 0.122365 -0.846805 -0.517638 255 255 255 1.000000
0.290233 -0.083383 -0.004710 -0.707013 -0.707013 0.016282 255 255 255 1.000000
-0.297666 -0.083383 0.118109 0.572499 -0.768966 -0.284492 255 255 255 1.000000
0.410146 -0.083383 0.104860 -0.482672 -0.836591 -0.259119 255 255 255 1.000000
-0.249777 0.711996 -0.203979 0.269707 0.661342 -0.699917 255 255 255 1.000000
-0.043373 0.639259 -0.222029 0.602898 -0.602898 -0.522520 255 255 255 1.000000
0.347200 -0.322612 0.548245 -0.709648 0.131258 -0.692222 154 88 40 1.000000
0.288893 -0.125687 0.395058 0.000000 -1.000000 -0.000000 152 86 40 1.000000
0.307474 -0.083383 0.537307 0.454298 0.644318 0.615197 155 91 51 1.000000
0.412578 -0.400026 0.513434 -0.889467 0.357030 0.285268 255 255 255 1.000000
0.424625 0.358199 -0.254744 -0.808241 -0.018842 0.588550 255 255 255 1.000000
-0.361853 -0.616266 0.526249 0.724177 -0.649369 -0.232136 140 71 26 1.000000
-0.276047 0.274463 -0.237790 -0.578085 -0.578085 0.575878 255 255 255 1.000000
0.379285 -0.425310 0.494290 0.671806 -0.313041 -0.671329 153 84 41 1.000000
0.392289 -0.083383 -0.207007 0.000000 1.000000 0.000000 255 255 255 1.000000
-0.229157 0.358835 -0.237823 0.571436 -0.580285 0.580285 255 255 255 1.000000
0.342321 -0.083383 -0.050498 0.428692 0.638836 0.638836 160 96 56 1.000000
-0.154555 -0.125687 0.136100 0.000000 -1.000000 -0.000000 156 87 42 1.000000
-0.142234 -0.125687 0.454654 0.000000 -1.000000 -0.000000 151 82 37 1.000000
0.110000 0.062508 -0.220901 -0.277314 0.679374 0.679374 152 86 40 1.000000
0.397052 0.590895 -0.203979 0.055529 0.434649 0.898887 152 88 48 1.000000
-0.043310 0.404590 -0.237823 0.575336 -0.577816 0.578893 255 255 255 1.000000
0.013467 -0.125687 0.049647 0.000000 -1.000000 -0.000000 151 82 37 1.000000
-0.280623 -0.083383 0.139895 0.549254 -0.776628 -0.308495 255 255 255 1.000000
0.375439 0.405517 -0.219448 -0.808777 0.469793 0.353801 161 92 49 1.000000
-0.243739 -0.100819 -0.280127 -0.498361 0.149995 -0.853896 150 83 40 1.000000
-0.339593 -0.125687 -0.019831 0.000000 -1.000000 -0.000000 148 82 36 1.000000
0.375439 -0.067645 -0.228538 -0.999204 0.016588 0.036288 151 84 43 1.000000
-0.179926 -0.084962 0.565958 -0.302750 0.647297 0.699535 160 91 46 1.000000
0.039263 -0.125687 0.258821 0.000000 -1.000000 -0.000000 156 87 42 1.000000
0.271874 -0.083383 -0.082333 -0.698040 -0.698040 0.159623 255 255 255 1.000000
-0.226306 0.408172 -0.220901 0.520563 -0.603744 -0.603744 255 255 255 1.000000
0.272461 -0.083383 -0.212535 0.370159 -0.839619 -0.397520 255 255 255 1.000000
-0.369116 0.120134 -0.226235 0.972615 0.219438 0.076591 150 89 48 1.000000
-0.321316 0.087025 -0.237823 0.555847 -0.587807 0.587807 255 255 255 1.000000
0.328362 0.388110 -0.220901 0.568285 0.581830 0.581830 161 96 52 1.000000
0.197792 0.728670 -0.254744 -0.556856 0.095062 0.825151 255 255 255 1.000000
-0.245577 -0.092339 0.565958 0.453885 -0.445073 -0.771945 255 255 255 1.000000
-0.108790 0.596621 -0.237823 -0.132107 -0.700909 0.700909 255 255 255 1.000000
0.196038 0.177161 -0.237823 0.448891 -0.631861 0.631861 255 255 255 1.000000
-0.315821 0.502884 -0.220901 -0.448390 0.632039 0.632039 148 85 42 1.000000
0.354127 -0.419592 0.542743 -0.807700 0.290506 -0.513056 152 83 38 1.000000
0.201011 -0.125687 0.126726 0.000000 1.000000 0.000000 255 255 255 1.000000
-0.276047 0.254443 -0.222933 0.622896 0.622896 0.473287 142 81 38 1.000000
-0.412823 0.176220 -0.203979 0.661127 -0.093778 -0.744390 255 255 255 1.000000
-0.395587 -0.264181 -0.196950 0.698880 0.156846 -0.697829 255 255 255 1.000000
-0.418797 -0.083838 0.565958 0.580502 -0.569474 -0.581994 255 255 255 1.000000
0.426204 0.278372 -0.205774 0.830646 -0.000000 0.556801 142 81 41 1.000000
-0.034698 -0.083383 0.219634 0.153010 -0.884008 -0.441720 255 255 255 1.000000
0.426204 -0.052852 -0.210510 0.811404 -0.000000 0.584486 155 91 42 1.000000
0.282369 0.302227 -0.235920 -0.620088 0.620088 -0.480605 155 86 43 1.000000
-0.151402 -0.083383 0.057782 0.394204 -0.881214 -0.260893 255 255 255 1.000000
-0.367561 -0.696175 0.531317 0.672590 -0.712261 -0.200765 148 79 34 1.000000
0.062190 -0.125687 0.107980 0.000000 -1.000000 -0.000000 151 82 37 1.000000
-0.273890 -0.083383 0.461784 0.453949 -0.682540 -0.572774 255 255 255 1.000000
-0.063763 -0.125687 0.412680 0.000000 1.000000 0.000000 255 255 255 1.000000
0.375214 -0.132401 -0.255032 0.226752 0.031481 -0.973444 153 86 45 1.000000
-0.367748 -0.292873 0.547740 0.048316 -0.217152 0.974941 156 91 45 1.000000
-0.096165 0.420109 -0.237823 0.459224 0.628137 -0.628137 150 83 42 1.000000
0.137032 -0.065520 -0.237823 -0.470260 -0.624042 0.624042 255 255 255 1.000000
-0.192524 -0.125687 0.348401 0.000000 1.000000 0.000000 255 255 255 1.000000
-0.016319 -0.125687 -0.133714 0.000000 1.000000 0.000000 255 255 255 1.000000
-0.069879 -0.083383 0.290520 -0.197374 0.842675 0.500941 142 73 28 1.000000
-0.076605 -0.085981 0.565958 0.140348 -0.652892 -0.744335 255 255 255 1.000000
-0.113839 0.510331 -0.220901 -0.020177 0.706963 0.706963 141 78 35 1.000000
-0.369116 0.415138 -0.221018 -0.841318 -0.501844 -0.200838 255 255 255 1.000000
-0.206975 0.242875 -0.220901 0.022193 -0.706933 -0.706933 255 255 255 1.000000
-0.139657 -0.083383 0.306239 0.310966 -0.809220 -0.498461 255 255 255 1.000000
-0.192134 0.706229 -0.220901 0.394120 0.649873 0.649873 158 93 51 1.000000
0.375179 -0.714313 -0.259083 -0.574916 -0.581646 -0.575465 140 69 25 1.000000
-0.353313 -0.496710 0.520432 -0.809888 0.542005 0.224304 255 255 255 1.000000
0.209391 0.112948 -0.237823 -0.096078 0.703836 -0.703836 150 80 40 1.000000
0.224127 -0.083383 0.172952 0.442893 0.633974 0.633974 150 87 44 1.000000
-0.363841 -0.083383 0.024918 0.651069 -0.735174 -0.188753 255 255 255 1.000000
-0.110040 0.264310 -0.220901 0.094847 0.703919 0.703919 147 82 38 1.000000
0.146471 -0.083383 -0.115500 -0.316900 0.670662 0.670662 161 94 53 1.000000
0.289894 0.445865 -0.220901 0.431580 -0.637863 -0.637863 255 255 255 1.000000
0.425236 0.462564 -0.203979 -0.842492 0.000000 -0.538709 255 255 255 1.000000
0.370437 -0.505349 -0.214176 0.471774 0.439767 0.764221 152 82 35 1.000000
-0.354619 0.716837 -0.230404 -0.828205 0.559655 -0.029353 255 255 255 1.000000
-0.334204 -0.083383 -0.212943 0.025806 0.999334 0.025806 150 85 43 1.000000
-0.145283 -0.084279 0.565958 0.245668 -0.670438 -0.700114 255 255 255 1.000000
0.200766 -0.125687 0.074241 0.000000 -1.000000 -0.000000 157 86 42 1.000000
0.366019 -0.477686 -0.269830 -0.527792 -0.413406 -0.741978 151 82 39 1.000000
0.178312 -0.125687 0.103607 0.000000 1.000000 0.000000 255 255 255 1.000000
0.420281 -0.125687 0.454655 0.513799 -0.784666 0.346857 149 79 32 1.000000
-0.419881 -0.085524 0.390398 -0.651504 0.588766 0.478431 152 85 42 1.000000
-0.339214 -0.299315 0.523103 0.936326 -0.298865 0.184319 156 91 45 1.000000
0.204067 0.214781 -0.220901 0.250124 -0.684631 -0.684631 255 255 255 1.000000
0.141222 -0.083383 0.445168 -0.213020 -0.757595 -0.616987 255 255 255 1.000000
-0.156392 -0.125687 0.259023 0.000000 -1.000000 -0.000000 150 81 36 1.000000
0.216335 -0.083383 0.244181 0.618105 0.618105 0.485688 152 88 48 1.000000
0.161626 -0.125687 0.481824 0.000000 -1.000000 -0.000000 155 89 40 1.000000
-0.070725 -0.083383 0.168097 -0.232533 0.892522 0.386437 158 89 44 1.000000
0.415653 -0.471760 0.503548 0.717155 -0.394255 -0.574675 149 80 35 1.000000
0.021034 0.571444 -0.220901 -0.831690 0.003470 0.555229 152 87 43 1.000000
0.245606 -0.125687 0.129509 0.000000 1.000000 0.000000 255 255 255 1.000000
0.028435 0.306748 -0.232689 0.981200 0.003518 0.192961 255 255 255 1.000000
-0.394909 -0.564655 -0.273557 0.648628 0.397601 0.648995 255 255 255 1.000000
0.292669 -0.125687 -0.204502 0.000000 1.000000 0.000000 255 255 255 1.000000
-0.310849 -0.125687 -0.017716 0.000000 -1.000000 -0.000000 157 91 43 1.000000
-0.314737 -0.103818 -0.280127 0.600526 -0.027070 0.799147 255 255 255 1.000000
-0.186539 0.738852 -0.231140 -0.366606 0.927943 -0.067249 154 90 50 1.000000
-0.229512 0.509364 -0.227613 -0.699670 0.699670 0.144647 159 90 47 1.000000
-0.229512 0.309236 -0.222987 0.624066 -0.624066 -0.470194 255 255 255 1.000000
-0.419881 0.244381 -0.240121 0.972722 -0.000000 0.231976 255 255 255 1.000000
0.104747 -0.125687 -0.268517 -0.371523 0.850847 0.371523 255 255 255 1.000000
-0.351485 -0.471114 -0.246056 -0.895607 -0.422077 -0.140497 255 255 255 1.000000
-0.419881 0.049700 -0.230220 -0.999578 -0.000000 0.029051 145 78 39 1.000000
0.100533 -0.083383 -0.018183 -0.005654 -0.707096 -0.707096 255 255 255 1.000000
0.026654 0.202565 -0.225004 0.967757 -0.035038 -0.249438 255 255 255 1.000000
0.148388 -0.108320 0.565958 -0.320140 0.166865 -0.932559 255 255 255 1.000000
0.233241 -0.083383 0.428082 0.355258 0.733793 0.579085 158 94 54 1.000000
-0.239760 -0.083383 -0.011356 -0.527885 0.830494 0.177809 151 84 43 1.000000
0.350216 -0.083383 0.156494 0.009311 0.725858 0.687782 155 91 51 1.000000
0.222581 -0.083383 0.395830 -0.337719 -0.755825 -0.560958 255 255 255 1.000000
-0.204800 -0.083383 0.093091 0.464108 -0.838876 -0.284413 255 255 255 1.000000
0.031849 -0.125687 -0.166847 0.000000 1.000000 0.000000 255 255 255 1.000000
0.389497 -0.464279 0.497073 0.661494 -0.354493 -0.660879 152 83 40 1.000000
-0.341080 -0.325439 0.544604 0.738421 -0.241595 0.629576 148 83 37 1.000000
0.008041 -0.125687 0.488112 0.000000 -1.000000 -0.000000 148 79 34 1.000000
-0.207290 0.144241 -0.220901 0.031762 -0.706750 -0.706750 255 255 255 1.000000
-0.417917 -0.672114 -0.233268 -0.647503 -0.596022 0.474866 153 79 32 1.000000
0.265611 -0.083383 0.022856 0.177341 -0.695899 -0.695899 255 255 255 1.000000
-0.350738 -0.460653 -0.212298 0.677355 0.348121 -0.648076 150 81 36 1.000000
-0.304382 -0.083383 -0.138886 -0.014625 -0.998575 -0.051317 255 255 255 1.000000
-0.419881 0.143603 -0.227131 0.983665 0.000000 -0.180007 255 255 255 1.000000
-0.380656 -0.125687 -0.216506 0.000000 1.000000 0.000000 255 255 255 1.000000
-0.385812 0.215906 -0.254744 -0.269801 -0.057101 0.961221 255 255 255 1.000000
-0.147432 -0.083383 -0.226362 -0.445315 0.843895 0.299225 164 96 47 1.000000
0.101063 -0.103124 0.565958 -0.224991 -0.064829 -0.972202 255 255 255 1.000000
-0.229512 0.449083 -0.225939 0.679832 -0.679832 -0.275057 255 255 255 1.000000
0.409091 -0.353272 -0.264498 -0.677948 0.185958 0.711200 255 255 255 1.000000
0.363076 -0.083383 0.070416 -0.545488 -0.592639 -0.592639 255 255 255 1.000000
0.122536 0.212217 -0.237823 0.091951 0.704111 -0.704111 149 82 43 1.000000
-0.409124 -0.466945 0.505076 0.737912 0.396951 0.545817 255 255 255 1.000000
0.397258 -0.348109 0.550107 0.696561 -0.170990 0.696825 156 92 52 1.000000
0.154036 -0.125687 0.528313 0.000000 -1.000000 -0.000000 153 87 39 1.000000
0.401581 -0.125687 0.313454 -0.017494 0.999694 0.017494 255 255 255 1.000000
-0.229527 0.713366 -0.251448 0.512462 -0.625342 -0.588498 150 81 38 1.000000
0.356484 -0.416963 -0.267228 -0.634913 -0.324871 -0.700960 150 81 36 1.000000
-0.330118 -0.171982 0.482037 0.763304 -0.148868 -0.628653 146 81 35 1.000000
0.217486 -0.083383 -0.201043 -0.003483 -0.707102 -0.707102 255 255 255 1.000000
-0.012993 -0.125687 -0.214425 0.000000 -1.000000 -0.000000 151 86 44 1.000000
0.225846 -0.123537 0.565958 -0.364625 0.622277 -0.692690 255 255 255 1.000000
0.314890 0.136596 -0.220901 -0.270708 -0.680704 -0.680704 255 255 255 1.000000
-0.381374 0.308957 -0.254744 -0.413264 -0.225184 0.882329 255 255 255 1.000000
-0.363277 -0.125687 0.456093 0.000000 -1.000000 -0.000000 156 87 40 1.000000
-0.097376 -0.125687 -0.094516 0.000000 1.000000 0.000000 255 255 255 1.000000
0.314823 0.072166 -0.237823 0.268907 0.681061 -0.681061 147 78 35 1.000000
0.188889 -0.083383 0.019437 -0.027543 -0.861777 -0.506539 255 255 255 1.000000
-0.292195 0.633164 -0.220901 -0.211459 -0.691117 -0.691117 255 255 255 1.000000
0.328904 0.432430 -0.236014 -0.618020 -0.618020 0.485904 255 255 255 1.000000
-0.236946 -0.125687 -0.069008 0.000000 -1.000000 -0.000000 151 84 41 1.000000
0.184246 -0.125687 0.513073 0.000000 1.000000 0.000000 255 255 255 1.000000
-0.248427 -0.083383 0.424184 -0.433337 0.709438 0.555803 163 94 49 1.000000
0.170858 -0.125687 0.056858 0.000000 1.000000 0.000000 255 255 255 1.000000
-0.322581 0.006653 -0.226808 -0.691529 0.691529 0.208746 143 76 37 1.000000
0.212214 0.194079 -0.237823 -0.010743 0.707066 -0.707066 150 80 42 1.000000
0.357265 -0.125687 0.546691 0.151286 -0.976844 0.151286 158 88 41 1.000000
0.214697 0.153428 -0.220901 0.064591 0.705630 0.705630 159 94 52 1.000000
-0.347797 -0.419489 -0.237784 0.930484 0.364957 -0.031725 153 84 41 1.000000
0.131823 0.742265 -0.235548 0.545439 0.812542 -0.205601 151 86 44 1.000000
-0.299880 -0.125687 -0.113758 0.000000 -1.000000 -0.000000 154 88 40 1.000000
-0.141873 -0.125687 0.104374 0.000000 1.000000 0.000000 255 255 255 1.000000
0.312113 -0.083383 -0.207195 -0.143803 -0.699757 -0.699757 255 255 255 1.000000
-0.134460 0.344538 -0.220901 -0.543126 0.593723 0.593723 150 85 41 1.000000
0.341665 0.700648 -0.254744 0.432160 -0.554259 -0.711362 155 91 51 1.000000
0.026483 0.745195 -0.254364 0.230711 -0.695525 0.680454 255 255 255 1.000000
0.407960 -0.292273 -0.237626 -0.703258 0.107257 0.702797 255 255 255 1.000000
0.425659 -0.083383 -0.151966 -0.701089 -0.711974 -0.039587 255 255 255 1.000000
-0.365338 -0.471683 0.555403 -0.396112 0.433787 -0.809274 255 255 255 1.000000
0.158668 -0.083383 0.495397 0.246155 0.724004 0.644381 167 100 57 1.000000
0.383134 -0.106380 -0.280127 -0.666817 0.064778 0.742401 255 255 255 1.000000
0.401532 0.134172 -0.203979 0.115098 -0.000000 0.993354 157 94 51 1.000000
-0.318531 0.043664 -0.220901 -0.504318 0.610600 0.610600 153 88 46 1.000000
0.375439 0.135964 -0.231541 0.971107 -0.236086 0.034857 255 255 255 1.000000
-0.360151 -0.125687 -0.155331 0.000000 1.000000 0.000000 255 255 255 1.000000
-0.038115 -0.083383 -0.061563 0.313002 0.945628 0.088410 146 79 36 1.000000
-0.152894 -0.125687 0.314610 0.000000 -1.000000 -0.000000 158 89 44 1.000000
-0.202203 0.628840 -0.237823 -0.121914 -0.701832 0.701832 255 255 255 1.000000
0.279003 -0.083383 0.501630 -0.419499 -0.674877 -0.607092 255 255 255 1.000000
-0.396377 -0.083383 0.203084 0.650677 -0.685094 -0.327516 255 255 255 1.000000
-0.271790 -0.083383 -0.077294 -0.447775 0.886809 0.114311 166 99 56 1.000000
-0.397076 -0.125687 0.044178 0.061031 0.996268 -0.061031 255 255 255 1.000000
0.337480 -0.122853 -0.280127 -0.512846 0.562009 0.648949 255 255 255 1.000000
-0.105195 0.460758 -0.237823 0.235690 0.687186 -0.687186 152 86 50 1.000000
-0.376080 -0.125687 0.409358 0.000000 1.000000 0.000000 255 255 255 1.000000
-0.419881 -0.119101 -0.214445 0.729530 0.460759 0.505457 255 255 255 1.000000
-0.091989 0.580040 -0.220901 0.541350 0.594533 0.594533 155 92 45 1.000000
0.406709 -0.074653 -0.254744 -0.228301 -0.008949 0.973549 255 255 255 1.000000
-0.268936 -0.083383 0.054342 -0.551961 0.800461 0.233666 152 85 44 1.000000
-0.419881 -0.094008 -0.161257 0.866131 -0.493722 0.077818 255 255 255 1.000000
-0.311691 -0.083383 -0.240794 0.512642 -0.667786 0.539685 255 255 255 1.000000
-0.010508 -0.125687 0.287789 0.000000 -1.000000 -0.000000 151 82 37 1.000000
0.174400 -0.083383 0.109191 -0.197975 -0.693111 -0.693111 255 255 255 1.000000
0.131653 -0.125687 0.230772 0.000000 1.000000 0.000000 255 255 255 1.000000
-0.182977 0.203598 -0.236889 -0.598518 -0.598518 0.532497 255 255 255 1.000000
-0.240612 -0.083383 0.230020 -0.479428 0.780721 0.400778 155 90 44 1.000000
-0.027634 0.694666 -0.220901 -0.220206 0.434398 0.873388 145 82 39 1.000000
0.425010 -0.125687 -0.124707 -0.610540 0.662731 0.433623 255 255 255 1.000000
-0.369116 -0.036416 -0.239256 -0.925727 -0.046390 0.375337 255 255 255 1.000000
-0.353945 -0.497444 -0.270677 -0.669630 -0.318972 -0.670711 164 95 48 1.000000
0.325065 -0.083383 0.245352 0.309633 0.750690 0.583602 150 89 49 1.000000
-0.318832 0.723606 -0.249096 -0.122483 0.779998 -0.613678 147 83 43 1.000000
-0.197446 0.177532 -0.237823 -0.258311 -0.683109 0.683109 255 255 255 1.000000
0.016588 -0.125687 0.093192 0.000000 1.000000 0.000000 255 255 255 1.000000
0.254376 -0.125687 0.028926 0.000000 -1.000000 -0.000000 153 82 38 1.000000
0.287605 0.340346 -0.237823 0.480570 -0.620102 0.620102 255 255 255 1.000000
-0.388854 0.382971 -0.203979 -0.109321 -0.481181 -0.869778 255 255 255 1.000000
-0.019685 0.745842 -0.236849 0.314497 0.910988 -0.266821 157 93 53 1.000000
0.426204 -0.089104 0.507807 -0.662823 -0.483539 -0.571713 255 255 255 1.000000
0.084567 -0.125687 0.341349 0.000000 -1.000000 -0.000000 153 84 41 1.000000
0.275835 -0.083383 0.160594 -0.498401 -0.613024 -0.613024 255 255 255 1.000000
-0.182977 -0.036111 -0.221030 -0.580284 -0.580284 -0.571438 255 255 255 1.000000
-0.089908 0.536755 -0.228270 0.704183 0.704183 0.090844 158 95 52 1.000000
-0.183286 0.429809 -0.220901 0.572213 0.579902 0.579902 148 83 39 1.000000
0.349817 -0.316602 0.486525 0.693543 -0.195132 -0.693485 138 72 33 1.000000
-0.419881 -0.106428 -0.097950 -0.984484 0.011442 -0.175103 158 85 41 1.000000
0.262456 -0.125687 0.307845 0.000000 1.000000 0.000000 255 255 255 1.000000
0.115231 -0.125687 0.382393 0.000000 -1.000000 -0.000000 150 79 37 1.000000
0.348950 -0.347108 0.514756 0.949208 -0.267469 -0.165722 255 255 255 1.000000
0.404306 -0.083383 -0.105946 -0.425423 -0.901353 -0.081109 255 255 255 1.000000
0.111791 -0.106934 -0.280127 -0.247226 0.109205 0.962784 255 255 255 1.000000
0.375439 0.657292 -0.208425 -0.623367 0.588104 0.515312 147 78 33 1.000000
-0.092129 0.725999 -0.219187 -0.024934 0.929354 -0.368347 255 255 255 1.000000
0.358597 -0.083383 0.252861 -0.522880 -0.755530 -0.394678 255 255 255 1.000000
-0.372140 -0.247593 0.545800 0.153517 0.138355 -0.978412 255 255 255 1.000000
0.047027 0.110681 -0.237823 -0.475716 -0.595449 0.647406 255 255 255 1.000000
0.394914 -0.150523 0.474662 0.706991 -0.042216 -0.705961 153 86 47 1.000000
-0.177666 -0.125687 0.456407 0.000000 1.000000 0.000000 255 255 255 1.000000
0.203371 -0.083383 0.074701 0.524582 0.842319 0.123746 151 84 41 1.000000
0.369013 -0.140309 -0.188102 -0.036830 -0.038114 0.998594 150 84 46 1.000000
0.056440 0.741199 -0.203979 -0.397263 -0.463671 -0.791954 255 255 255 1.000000
0.306613 -0.083383 0.158591 0.067715 0.705484 0.705484 150 86 46 1.000000
-0.065086 -0.125687 0.256489 0.000000 1.000000 0.000000 255 255 255 1.000000
0.280577 -0.125687 0.076508 0.000000 1.000000 0.000000 255 255 255 1.000000
0.411249 -0.368994 -0.243637 -0.694253 0.191381 0.693820 255 255 255 1.000000
0.323614 0.249540 -0.220901 -0.479458 -0.620532 -0.620532 255 255 255 1.000000
-0.335846 -0.252174 -0.200359 0.748302 0.130503 -0.650395 152 85 42 1.000000
0.365354 -0.576765 -0.224515 0.628806 0.457265 0.628898 255 255 255 1.000000
-0.022892 0.496898 -0.237823 0.790442 0.088990 -0.606038 164 89 48 1.000000
-0.167586 -0.125687 -0.073635 0.000000 1.000000 0.000000 255 255 255 1.000000
0.026245 -0.120253 0.565958 0.043756 -0.595881 0.801880 155 88 45 1.000000
-0.064774 -0.125687 0.060994 0.000000 -1.000000 -0.000000 152 83 38 1.000000
0.009675 0.715669 -0.220901 -0.104469 -0.440860 -0.891475 255 255 255 1.000000
-0.419881 -0.101610 -0.013609 0.969898 -0.228880 -0.083143 255 255 255 1.000000
0.394445 -0.500574 -0.270811 0.224029 -0.468604 -0.854530 147 77 37 1.000000
-0.246105 -0.125687 -0.167144 0.000000 1.000000 0.000000 255 255 255 1.000000
0.202385 -0.125687 0.030167 0.000000 1.000000 0.000000 255 255 255 1.000000
-0.151946 -0.083383 -0.061909 -0.164039 -0.697528 -0.697528 255 255 255 1.000000
0.053593 -0.083383 -0.035053 -0.240230 -0.945049 -0.221747 255 255 255 1.000000
0.307013 0.367280 -0.237823 0.041790 0.706489 -0.706489 148 83 41 1.000000
