ply
format ascii 1.0
element vertex 1257
property float x
property float y
property float z
property uchar red
property uchar green
property uchar blue
end_header
-0.448991 0.235080 0.074262 153 0 76
0.477731 0.631509 -0.340438 204 51 127
-0.365379 -0.180008 -0.265130 76 153 0
-0.399656 0.444571 -0.304824 204 51 127
0.444388 -0.748229 0.489210 76 0 153
-0.398676 -0.039606 -0.318260 153 0 76
-0.398516 -0.428531 -0.361057 76 0 153
-0.507862 0.194078 -0.207540 153 0 76
-0.399747 0.224840 -0.008273 153 0 76
0.424024 0.082322 -0.368603 76 0 153
0.208995 -0.104995 -0.239414 153 0 76
0.086648 0.527496 -0.346799 204 51 127
-0.408019 -0.215458 -0.301339 76 153 0
-0.507565 0.225803 0.294707 153 0 76
-0.402763 -0.104331 -0.080002 76 153 0
-0.469030 -0.725912 0.436846 153 0 76
0.378766 0.597766 -0.334640 204 51 127
0.397930 0.182027 -0.149516 0 0 255
-0.218424 -0.050608 0.178419 153 76 0
-0.417301 0.172346 0.425045 153 0 76
-0.427579 -0.102830 0.373722 76 0 153
-0.365669 -0.068590 0.356893 76 153 0
0.399086 -0.079864 -0.112496 0 127 127
-0.093928 -0.077651 0.438504 76 0 153
-0.324946 -0.048020 -0.162994 153 76 0
-0.034484 -0.082343 0.438828 76 0 153
-0.401107 0.554439 -0.352055 204 51 127
0.465203 0.107862 0.385470 204 51 127
0.468981 0.211938 -0.255700 0 0 255
0.399085 -0.089449 -0.067612 0 127 127
-0.123960 -0.036660 0.007452 153 76 0
-0.206992 -0.069819 -0.096304 153 76 0
-0.154211 -0.089193 -0.196795 153 0 76
-0.373247 0.284052 -0.303420 204 51 127
-0.161975 0.567972 -0.354686 204 51 127
-0.222057 -0.059298 0.054150 153 76 0
0.168231 -0.024621 0.181251 153 76 0
0.419208 0.350368 -0.354545 76 0 153
0.504121 0.202472 0.028457 0 0 255
-0.403429 0.501248 -0.341682 204 51 127
0.300100 0.409192 -0.323731 204 51 127
-0.354176 0.277493 -0.298170 204 51 127
-0.462584 0.109286 -0.297115 153 0 76
-0.395069 0.247235 0.389557 153 0 76
0.139056 -0.120412 -0.198408 153 0 76
0.054393 -0.029511 0.106041 153 76 0
0.411727 0.137815 0.054398 0 0 255
-0.186806 -0.025193 0.177767 153 76 0
0.445417 -0.579974 0.407087 76 0 153
0.493383 0.255599 0.417248 0 0 255
0.465503 -0.190994 0.402140 0 127 127
0.289548 -0.030738 0.098995 153 76 0
0.047252 -0.057868 0.074580 153 76 0
-0.108802 0.636529 -0.341143 204 51 127
-0.381781 -0.245198 -0.383982 76 153 0
-0.261133 -0.208503 -0.229700 153 0 76
-0.458351 -0.529961 0.472518 153 0 76
-0.468956 0.062537 -0.356350 153 0 76
0.441769 0.034779 0.434617 204 51 127
0.492885 0.199813 0.103785 0 0 255
0.074245 0.440439 -0.329866 204 51 127
0.111669 -0.133686 -0.234940 153 0 76
0.503769 0.208508 -0.192209 0 0 255
0.401648 0.002494 0.441157 204 51 127
0.383881 0.442553 -0.337718 76 0 153
-0.402761 -0.182770 0.116599 76 153 0
-0.480780 0.502307 -0.341645 204 51 127
-0.447398 -0.533467 -0.400753 76 0 153
-0.457591 -0.604768 0.409807 153 0 76
0.465201 0.013275 0.393787 204 51 127
-0.100029 0.258933 -0.268019 204 51 127
0.293566 0.555965 -0.352352 204 51 127
-0.365238 -0.078036 0.244323 153 76 0
0.283353 -0.041457 -0.054899 153 76 0
0.389502 0.506942 -0.315937 204 51 127
0.304291 0.332860 -0.283061 204 51 127
0.033579 -0.035679 0.022791 153 76 0
-0.469207 -0.315508 -0.362534 76 0 153
0.076295 -0.059863 0.046046 153 76 0
0.393718 -0.053806 -0.322710 76 0 153
0.276577 0.587339 -0.332684 204 51 127
0.171109 -0.232308 -0.201509 153 0 76
-0.247324 -0.087515 -0.250245 153 0 76
-0.462107 0.000241 -0.369620 153 0 76
0.436586 0.455395 -0.305912 204 51 127
-0.465093 0.674971 -0.360393 204 51 127
-0.483933 0.215326 0.399467 153 0 76
-0.418586 -0.293111 0.457695 153 0 76
-0.404678 0.238551 0.143001 153 0 76
-0.060567 -0.048570 0.207341 153 76 0
-0.469185 -0.178334 0.439705 76 0 153
0.348704 -0.075787 -0.032973 153 76 0
-0.469231 -0.618300 0.445455 153 0 76
-0.180426 0.495291 -0.314122 204 51 127
-0.402763 -0.078524 0.097198 76 153 0
-0.417369 0.149198 0.254853 153 0 76
-0.317397 0.335256 -0.309336 204 51 127
0.219388 -0.199046 -0.192822 153 0 76
-0.470613 0.236505 0.094636 153 0 76
0.365295 -0.086446 -0.333508 0 127 127
-0.507782 0.203765 -0.076611 153 0 76
-0.143973 -0.133846 0.442429 76 0 153
-0.469132 -0.569159 -0.383426 76 0 153
0.130499 0.372251 -0.316639 204 51 127
0.394757 0.177517 -0.232856 0 0 255
0.176466 -0.034028 0.051347 153 76 0
-0.469230 -0.233122 -0.354428 76 153 0
-0.132717 0.622215 -0.338340 204 51 127
0.312235 -0.014018 0.324327 153 76 0
0.463264 -0.109814 0.383950 0 127 127
-0.297957 0.590247 -0.332209 204 51 127
0.033653 0.486455 -0.313062 204 51 127
-0.399584 -0.273442 -0.377069 76 0 153
0.411250 0.607951 -0.336493 204 51 127
-0.115368 -0.028660 0.130351 153 76 0
0.290590 -0.149580 0.481100 76 0 153
0.473103 0.214129 0.435801 0 0 255
-0.388525 -0.097659 0.477471 76 0 153
0.170568 -0.048491 0.208294 153 76 0
-0.365316 -0.099984 0.238643 76 153 0
0.382406 -0.052610 -0.220983 153 76 0
0.308646 -0.037431 0.366794 153 76 0
-0.079120 -0.042285 0.297434 153 76 0
-0.408868 0.161950 -0.233262 153 0 76
0.465199 -0.762039 0.468907 76 0 153
0.398627 -0.100272 0.003206 0 127 127
-0.078696 0.361670 -0.287950 204 51 127
-0.402763 -0.131192 -0.113700 76 153 0
0.361599 -0.206881 -0.273318 0 127 127
0.310581 -0.062708 0.003428 153 76 0
0.014558 -0.040091 0.328791 153 76 0
0.368703 -0.086082 -0.354366 0 127 127
-0.433445 0.220604 -0.127979 153 0 76
0.178961 -0.069501 -0.091784 153 76 0
-0.365282 -0.132022 0.203035 76 153 0
-0.216734 -0.027129 0.150062 153 76 0
-0.038895 -0.227481 -0.225220 153 0 76
-0.137958 0.662003 -0.347889 204 51 127
0.395089 -0.245994 0.392541 76 0 153
0.060518 0.371021 -0.289965 204 51 127
-0.153260 0.327879 -0.281886 204 51 127
-0.197765 -0.014440 0.333033 153 76 0
-0.145560 -0.067896 -0.068817 153 76 0
-0.402765 -0.117575 0.193831 76 153 0
0.424881 -0.308597 0.458572 76 0 153
-0.413897 0.156464 -0.149380 153 0 76
-0.398595 -0.295501 -0.339451 76 0 153
0.393213 0.325512 -0.331942 76 0 153
0.419180 -0.451320 0.398030 76 0 153
-0.393381 0.208292 -0.169331 153 0 76
-0.408035 0.190891 0.137961 153 0 76
-0.316614 -0.042379 0.296102 153 76 0
-0.422236 -0.367243 0.392172 153 0 76
0.287860 -0.139953 -0.197100 153 0 76
0.399070 -0.128981 0.148801 0 127 127
0.196617 0.613138 -0.366632 204 51 127
0.394917 -0.252107 0.438536 76 0 153
-0.162971 -0.059660 0.476558 153 76 0
-0.394960 0.011536 0.414621 76 0 153
0.361672 -0.208907 -0.363029 0 127 127
-0.237652 -0.030742 0.093209 153 76 0
-0.408534 -0.201330 0.454218 153 0 76
0.177676 -0.039546 0.336580 153 76 0
0.357509 0.478860 -0.337359 204 51 127
-0.421806 0.211216 -0.361638 153 0 76
0.201431 0.280793 -0.298854 204 51 127
-0.433142 -0.505766 0.401840 153 0 76
0.354908 -0.079643 -0.264497 153 0 76
0.128761 -0.097926 -0.243251 153 0 76
-0.402763 -0.114308 0.061605 76 153 0
0.162661 0.454261 -0.332581 204 51 127
-0.403213 0.670937 -0.384525 204 51 127
0.116389 -0.035668 0.391874 153 76 0
0.188245 -0.186224 -0.231244 153 0 76
-0.489567 0.482014 -0.316643 204 51 127
-0.438498 0.248040 -0.359922 153 0 76
-0.473249 0.222347 -0.107819 153 0 76
-0.255931 -0.047158 0.518514 153 76 0
-0.402764 -0.078544 0.180414 76 153 0
0.437820 0.098857 -0.289280 76 0 153
0.361593 -0.115890 -0.324320 0 127 127
0.133141 0.626525 -0.375917 204 51 127
-0.069979 -0.093545 -0.245620 153 0 76
-0.402764 -0.148237 0.008308 76 153 0
-0.219016 -0.066973 -0.261639 153 0 76
0.399554 -0.546572 -0.398917 153 76 0
-0.468951 -0.470997 0.412532 153 0 76
-0.402763 -0.131965 -0.229186 76 153 0
0.436300 -0.268574 0.455772 76 0 153
-0.399119 -0.720903 -0.395982 76 0 153
0.161490 -0.065649 -0.036695 153 76 0
-0.288821 -0.017469 0.288220 153 76 0
0.383906 0.373748 -0.291058 204 51 127
-0.153125 -0.123364 0.479268 76 0 153
0.399562 -0.201875 -0.282973 0 127 127
0.395139 0.105375 -0.354561 76 0 153
-0.498395 0.216613 0.330980 153 0 76
-0.409029 0.203159 0.307529 153 0 76
0.293816 -0.028307 0.134921 153 76 0
-0.476361 0.204448 0.211104 153 0 76
-0.209903 -0.185737 0.465092 76 0 153
0.261081 -0.195860 -0.230571 153 0 76
-0.386277 -0.194274 0.341532 76 153 0
-0.309713 -0.067563 -0.064042 153 76 0
0.404140 0.222626 -0.097596 0 0 255
-0.167296 -0.022441 0.217105 153 76 0
-0.006320 0.625313 -0.374949 204 51 127
-0.199920 -0.167073 0.444919 76 0 153
0.399065 -0.134056 0.324152 0 127 127
-0.079437 -0.003342 0.518559 153 76 0
0.356963 -0.049664 -0.172697 153 76 0
0.470872 0.214926 -0.213310 0 0 255
0.361586 -0.124333 0.232321 0 127 127
0.483469 0.359902 -0.315477 204 51 127
-0.402765 -0.081925 0.250500 76 153 0
0.092960 -0.039145 0.342312 153 76 0
-0.398519 -0.414143 0.435537 153 0 76
-0.283375 -0.020687 0.242199 153 76 0
0.094315 -0.044807 -0.114901 153 76 0
0.395998 -0.481516 0.458917 76 0 153
-0.116883 -0.185201 0.468362 76 0 153
0.050928 -0.070273 -0.261394 153 0 76
-0.450750 0.512408 -0.343847 204 51 127
-0.302440 -0.079472 -0.187953 153 0 76
-0.284226 0.264000 -0.295485 204 51 127
0.361586 -0.098553 0.293598 0 127 127
0.432333 -0.412388 0.395279 76 0 153
-0.402763 -0.095739 -0.114958 76 153 0
0.319542 0.433043 -0.302078 204 51 127
0.082080 -0.046741 0.231717 153 76 0
0.392944 0.220530 -0.017851 0 0 255
0.429944 0.201408 0.429331 0 0 255
-0.026625 -0.005114 0.462029 153 76 0
-0.248989 -0.050935 0.173743 153 76 0
-0.466439 -0.294983 -0.324581 76 0 153
0.394842 -0.268321 0.414033 76 0 153
-0.074209 0.383776 -0.292096 204 51 127
0.355895 -0.067909 0.150576 0 127 127
0.459506 -0.045313 -0.371026 76 0 153
0.165901 -0.057821 0.075241 153 76 0
0.395079 0.112294 0.378172 204 51 127
0.454469 -0.274760 -0.386055 153 76 0
-0.424839 0.255886 0.377503 153 0 76
0.189764 -0.071792 -0.124545 153 76 0
0.419390 0.059646 0.432962 204 51 127
-0.274400 0.454974 -0.332719 204 51 127
-0.233638 -0.020577 0.243757 153 76 0
0.338339 0.341734 -0.284844 204 51 127
0.394944 -0.391220 0.408452 76 0 153
0.207701 -0.159713 -0.195584 153 0 76
-0.317315 -0.023595 0.200625 153 76 0
0.277005 -0.070654 -0.108280 153 76 0
-0.164522 -0.049661 0.191948 153 76 0
0.193254 -0.207791 -0.192210 153 0 76
0.407676 -0.789105 -0.343913 153 76 0
0.461159 -0.719959 -0.341959 153 76 0
-0.368307 -0.103875 0.477905 76 0 153
-0.234868 -0.044965 0.259113 153 76 0
0.244457 -0.039235 0.341014 153 76 0
0.486932 0.453225 -0.310089 204 51 127
-0.076814 -0.034916 0.034296 153 76 0
0.183807 -0.127506 -0.197970 153 0 76
0.383266 -0.024532 0.181645 153 76 0
-0.276098 -0.041519 0.308395 153 76 0
0.394959 -0.575597 0.464012 76 0 153
0.503968 0.234319 0.272206 0 0 255
-0.435905 0.249223 0.281304 153 0 76
-0.279847 0.505371 -0.342478 204 51 127
-0.365282 -0.127089 0.168319 76 153 0
-0.399203 -0.215286 -0.031718 76 153 0
0.344120 -0.042515 0.529548 153 76 0
-0.285908 -0.047299 0.509735 153 76 0
0.466390 0.386002 -0.339937 76 0 153
-0.108952 -0.206112 -0.192328 153 0 76
-0.365373 -0.079607 0.199407 76 153 0
-0.453649 -0.396716 0.394307 153 0 76
0.399067 -0.148044 0.288191 0 127 127
-0.011756 -0.053563 0.136155 153 76 0
-0.103985 -0.046956 -0.147612 153 76 0
-0.400956 0.214706 -0.271389 153 0 76
0.432956 0.631116 -0.379410 204 51 127
-0.423508 0.222203 -0.105244 153 0 76
0.361586 -0.167479 0.255965 0 127 127
-0.475090 0.229719 -0.002370 153 0 76
-0.257286 0.243156 -0.271925 204 51 127
-0.026850 0.344997 -0.284530 204 51 127
-0.253909 -0.117523 -0.235853 153 0 76
-0.026741 -0.074650 -0.165406 153 76 0
-0.158309 -0.064342 -0.018389 153 76 0
0.011504 -0.047339 0.518000 153 76 0
-0.100175 -0.057371 0.081702 153 76 0
0.394889 0.069614 0.394441 204 51 127
-0.106656 -0.064819 -0.024883 153 76 0
-0.418374 0.491371 -0.313962 204 51 127
0.161877 0.433385 -0.328440 204 51 127
0.465301 -0.168510 -0.359854 0 127 127
-0.192960 -0.165162 -0.232728 153 0 76
-0.398524 -0.277947 0.429205 153 0 76
0.382528 0.404633 -0.329519 76 0 153
0.442391 -0.780859 -0.343201 153 76 0
-0.449024 0.441869 -0.347408 153 0 76
0.447438 0.466468 -0.338369 76 0 153
0.155947 0.593891 -0.333913 204 51 127
-0.422339 -0.493778 -0.398719 76 0 153
-0.262779 -0.064748 -0.023863 153 76 0
0.284043 -0.072413 -0.261234 153 0 76
-0.402763 -0.200498 -0.239695 76 153 0
-0.187068 0.643827 -0.342618 204 51 127
0.117676 -0.024676 0.171502 153 76 0
0.448797 0.150846 -0.046946 0 0 255
-0.271909 -0.121498 0.441566 76 0 153
0.253950 -0.039901 -0.032643 153 76 0
0.448861 0.140519 -0.193510 0 0 255
-0.398682 -0.775820 -0.364798 76 0 153
0.035127 -0.046734 0.231811 153 76 0
0.267673 -0.053084 0.142970 153 76 0
-0.398952 -0.756205 0.480501 153 0 76
-0.469443 0.323733 -0.337108 153 0 76
-0.428790 -0.167394 -0.381685 76 153 0
0.021496 -0.152844 -0.196265 153 0 76
-0.272850 -0.023752 0.198373 153 76 0
0.381079 -0.049294 -0.173071 153 76 0
-0.049534 0.302424 -0.276338 204 51 127
0.394851 -0.722832 0.436382 76 0 153
0.011342 -0.015112 0.321883 153 76 0
0.410940 -0.618279 -0.334728 153 76 0
0.456854 0.180132 -0.021681 0 0 255
-0.397306 0.192410 -0.064251 153 0 76
-0.250621 -0.003151 0.517911 153 76 0
0.458555 0.556007 -0.352359 204 51 127
-0.010150 0.655755 -0.345541 204 51 127
-0.022873 -0.089661 -0.248725 153 0 76
0.465306 -0.544222 -0.348862 153 76 0
0.287707 -0.109266 0.477905 76 0 153
-0.279707 -0.065972 -0.041299 153 76 0
-0.021243 -0.045719 0.247197 153 76 0
0.213573 -0.025606 0.171806 153 76 0
0.219845 0.545111 -0.350242 204 51 127
0.361586 -0.146317 0.296821 0 127 127
-0.507114 0.187973 -0.286899 153 0 76
0.241834 0.339221 -0.310110 204 51 127
0.361587 -0.136134 0.130633 0 127 127
-0.068133 0.459555 -0.333612 204 51 127
0.502180 0.189509 -0.088292 0 0 255
0.378159 -0.003121 0.369737 204 51 127
0.242886 -0.055401 0.109847 153 76 0
0.260820 -0.033426 0.059955 153 76 0
-0.469040 -0.528523 0.454482 153 0 76
0.239368 -0.008729 0.411212 153 76 0
0.408204 -0.234728 -0.385197 0 127 127
-0.415151 0.148783 0.045162 153 0 76
-0.011049 0.436750 -0.303244 204 51 127
-0.050013 0.494614 -0.314620 204 51 127
-0.140717 0.507830 -0.316107 204 51 127
0.411269 -0.638526 -0.335775 153 76 0
0.189044 -0.170143 -0.194843 153 0 76
-0.393523 0.239004 0.269208 153 0 76
0.411639 0.148854 0.086456 0 0 255
0.099358 0.651593 -0.390561 204 51 127
0.136625 -0.179638 -0.231705 153 0 76
0.100875 0.642489 -0.343116 204 51 127
-0.272985 -0.051557 0.482263 153 76 0
0.072839 -0.046506 -0.140170 153 76 0
0.201340 0.647492 -0.389608 204 51 127
0.185670 -0.005162 0.464163 153 76 0
-0.354441 -0.078922 -0.099003 153 76 0
0.449971 -0.603489 0.408802 76 0 153
-0.123049 -0.031381 0.080251 153 76 0
0.332416 0.507577 -0.342909 204 51 127
-0.127791 -0.038732 -0.028678 153 76 0
-0.399748 0.467748 -0.338309 204 51 127
0.411527 0.169027 0.309378 0 0 255
-0.368739 0.263734 -0.296997 204 51 127
0.051801 -0.041815 0.304137 153 76 0
-0.096762 -0.051730 0.162363 153 76 0
-0.195466 0.256484 -0.267763 204 51 127
0.394819 -0.548652 0.436148 76 0 153
-0.342400 -0.044411 -0.109476 153 76 0
0.461988 0.325696 -0.281637 204 51 127
0.465534 -0.099105 0.415154 0 127 127
-0.269725 -0.060292 0.039930 153 76 0
0.435236 -0.237656 0.453515 76 0 153
0.073033 -0.051465 -0.212325 153 76 0
0.399067 -0.105707 0.268704 0 127 127
0.361587 -0.186430 -0.019738 0 127 127
-0.096317 -0.082000 -0.192505 153 0 76
0.397285 0.208410 -0.252496 0 0 255
-0.434844 -0.297543 -0.317687 76 0 153
0.306930 -0.035100 0.036011 153 76 0
-0.464671 0.066506 -0.302991 153 0 76
0.306879 -0.054059 0.129024 153 76 0
0.504145 0.194660 -0.274289 0 0 255
-0.441512 0.334950 -0.355358 153 0 76
0.244317 0.292960 -0.301226 204 51 127
-0.415242 0.144052 -0.172400 153 0 76
-0.472309 0.201037 0.156908 153 0 76
-0.115720 0.496652 -0.314119 204 51 127
0.375097 -0.027631 0.138282 153 76 0
-0.295019 -0.038778 -0.030837 153 76 0
-0.359777 -0.068554 0.122236 153 76 0
0.426472 0.583957 -0.331284 204 51 127
-0.340461 0.332704 -0.282994 204 51 127
0.094179 0.597682 -0.360344 204 51 127
-0.014193 -0.040069 -0.049334 153 76 0
0.398949 -0.182535 0.218966 0 127 127
-0.078751 0.422683 -0.299763 204 51 127
-0.399796 0.639569 -0.386105 204 51 127
0.485841 0.242869 0.190514 0 0 255
-0.307874 -0.075207 -0.259952 153 0 76
0.166602 -0.093460 0.476473 76 0 153
0.348980 -0.053922 -0.238181 153 76 0
-0.148761 0.623597 -0.373631 204 51 127
0.448875 0.161334 0.157005 0 0 255
0.447530 -0.262206 0.384897 76 0 153
-0.228131 -0.165045 0.444736 76 0 153
-0.238431 -0.053664 0.134720 153 76 0
0.339482 0.408781 -0.297630 204 51 127
-0.402764 -0.171446 0.241867 76 153 0
-0.056510 0.609280 -0.335859 204 51 127
0.432446 -0.315356 0.388494 76 0 153
0.465390 -0.476353 0.445308 76 0 153
0.361683 -0.160554 -0.164754 0 127 127
-0.421258 -0.653404 0.482749 153 0 76
0.227786 -0.003072 0.488449 153 76 0
0.381545 0.604907 -0.363069 204 51 127
-0.168373 0.557952 -0.325896 204 51 127
0.411317 -0.578630 -0.403126 153 76 0
0.471044 0.221563 -0.297946 204 51 127
0.461783 -0.196662 -0.320280 0 127 127
0.113909 -0.065784 -0.261731 153 0 76
0.317283 0.255974 -0.268111 204 51 127
0.199148 -0.075995 -0.259356 153 0 76
0.368763 0.379329 -0.320182 204 51 127
-0.276740 0.313798 -0.278872 204 51 127
-0.051794 0.632826 -0.380823 204 51 127
0.221636 -0.045031 -0.104954 153 76 0
-0.054764 -0.184567 0.451658 76 0 153
-0.505617 0.209073 -0.234903 153 0 76
0.009002 0.452952 -0.306457 204 51 127
-0.430254 -0.802169 0.483146 153 0 76
-0.152847 0.538511 -0.348955 204 51 127
-0.017701 0.253743 -0.267281 204 51 127
0.199519 -0.056368 0.096015 153 76 0
0.039708 -0.010838 0.383002 153 76 0
0.458280 -0.581315 -0.335426 153 76 0
0.022922 -0.055368 0.110337 153 76 0
-0.468333 -0.670263 0.466736 153 0 76
-0.378575 -0.022917 0.211747 153 76 0
-0.334654 -0.171698 0.482328 76 0 153
-0.442536 -0.428157 0.467225 153 0 76
-0.469215 -0.149934 -0.341606 76 153 0
0.415703 -0.802951 -0.360778 153 76 0
0.038345 -0.043040 0.286622 153 76 0
-0.393520 0.229746 0.227757 153 0 76
-0.443989 0.134094 0.355926 76 0 153
-0.157794 -0.039491 0.337389 153 76 0
0.447695 0.236954 0.105988 0 0 255
0.429830 -0.690025 -0.338253 153 76 0
-0.415540 0.158245 0.171907 153 0 76
0.464799 -0.697990 0.431102 76 0 153
0.328509 -0.230190 -0.223592 153 0 76
0.028022 0.315110 -0.305514 204 51 127
0.448419 0.162595 -0.014441 0 0 255
0.389498 0.214041 0.069831 0 0 255
0.258969 -0.012084 0.352754 153 76 0
0.400423 -0.089923 0.349212 0 127 127
0.281915 -0.012572 0.345752 153 76 0
-0.469223 -0.698033 -0.377265 76 0 153
0.395079 -0.560308 -0.384963 153 76 0
0.354728 0.555561 -0.326432 204 51 127
0.414169 0.142073 0.143125 0 0 255
-0.395717 0.197748 -0.001332 153 0 76
-0.375957 -0.031932 0.069487 153 76 0
-0.431262 -0.801860 0.434163 153 0 76
-0.451663 -0.182775 0.379323 76 0 153
0.454377 0.192062 0.160386 0 0 255
0.399085 -0.108684 -0.058515 0 127 127
-0.358207 -0.021627 0.228770 153 76 0
-0.007678 -0.045472 0.428054 76 0 153
0.312946 -0.030637 0.100655 153 76 0
-0.127073 0.359394 -0.314105 204 51 127
-0.469015 -0.468421 -0.346111 76 0 153
-0.430409 0.254102 0.351043 153 0 76
-0.003417 -0.033310 0.050906 153 76 0
0.483657 0.175732 -0.232564 0 0 255
0.363602 -0.230555 -0.325155 0 127 127
0.406601 0.396123 -0.295500 204 51 127
-0.439353 0.461655 -0.339554 153 0 76
0.449974 -0.298726 -0.319131 153 76 0
-0.289988 0.377484 -0.317654 204 51 127
0.418636 0.007893 -0.372480 76 0 153
-0.468928 -0.124998 -0.320914 76 153 0
0.451671 0.174693 0.054520 0 0 255
0.276702 0.523237 -0.320120 204 51 127
-0.288703 -0.098421 -0.242801 153 0 76
-0.145373 -0.047452 -0.154903 153 76 0
0.209887 -0.006864 0.527822 153 76 0
0.335693 -0.063790 0.473965 76 0 153
0.300573 -0.031914 0.081564 153 76 0
0.460484 -0.205056 0.448824 76 0 153
0.375969 -0.200414 0.256602 0 127 127
0.317391 -0.176920 0.480427 76 0 153
-0.478787 0.177276 -0.192271 153 0 76
0.031131 0.589809 -0.358821 204 51 127
0.139629 -0.128209 0.479541 76 0 153
0.117357 -0.067132 -0.057905 153 76 0
-0.421118 -0.131545 -0.379807 76 153 0
0.439067 0.483527 -0.311400 204 51 127
-0.399322 -0.038724 0.083050 76 153 0
-0.443039 0.107577 -0.269851 153 0 76
0.465440 -0.383671 -0.366783 153 76 0
0.296562 -0.068649 -0.079603 153 76 0
0.416777 -0.391331 0.464428 76 0 153
0.094790 -0.018523 0.273101 153 76 0
-0.495713 0.234736 0.072389 153 0 76
-0.371291 -0.002881 0.482536 153 76 0
-0.155561 -0.028430 0.133493 153 76 0
0.034217 -0.186132 0.458936 76 0 153
0.048310 -0.060297 0.039858 153 76 0
-0.014508 0.588082 -0.358487 204 51 127
0.034121 -0.016849 0.297046 153 76 0
0.284059 -0.135558 -0.234809 153 0 76
0.236176 0.317626 -0.280106 204 51 127
0.456380 -0.438354 -0.395335 153 76 0
-0.001653 -0.119186 -0.198813 153 0 76
0.163722 -0.061419 0.023052 153 76 0
-0.452544 0.174494 0.157822 153 0 76
0.414899 0.229135 -0.009091 0 0 255
0.398545 -0.078028 0.001452 0 127 127
0.446198 0.125887 -0.141805 0 0 255
0.361587 -0.172394 0.074289 0 127 127
-0.146092 0.487745 -0.339078 204 51 127
-0.121709 -0.150133 0.481139 76 0 153
0.447773 0.257367 0.428051 0 0 255
0.483344 0.600653 -0.357599 204 51 127
-0.225917 -0.093687 -0.198804 153 0 76
0.396516 -0.085809 0.475780 76 0 153
-0.384073 -0.199859 0.261466 76 153 0
-0.041897 -0.198955 -0.192828 153 0 76
0.431338 0.214501 -0.214263 0 0 255
0.270705 0.355865 -0.313389 204 51 127
-0.249155 -0.023765 0.198177 153 76 0
0.311234 0.284148 -0.273643 204 51 127
0.407487 0.199457 0.427851 0 0 255
0.410110 0.152328 -0.192333 0 0 255
0.076697 0.500086 -0.315651 204 51 127
-0.035367 -0.035005 0.535986 153 76 0
-0.469115 -0.569029 0.430512 153 0 76
-0.234435 0.272389 -0.270887 204 51 127
-0.469066 0.237393 -0.333254 153 0 76
-0.467228 -0.147014 0.385795 76 0 153
0.155760 -0.050549 0.179239 153 76 0
-0.469230 -0.263249 -0.358033 76 0 153
-0.421378 0.346686 -0.285767 204 51 127
0.142366 0.458973 -0.333498 204 51 127
-0.507000 0.188432 -0.151101 153 0 76
-0.483009 0.315849 -0.307189 153 0 76
-0.022757 -0.028754 0.118760 153 76 0
-0.219301 -0.019515 0.537102 153 76 0
0.452639 0.168862 -0.153279 0 0 255
0.465548 -0.434839 -0.358179 153 76 0
-0.255472 -0.048505 0.208148 153 76 0
0.273851 -0.019354 0.258364 153 76 0
0.465504 -0.096319 -0.348692 0 127 127
-0.333006 -0.065497 -0.011794 153 76 0
0.373096 -0.212606 0.079742 0 127 127
0.447393 0.253060 0.354059 0 0 255
-0.402764 -0.148806 0.083282 76 153 0
0.399084 -0.069537 -0.073896 0 127 127
0.446033 0.219301 -0.150847 0 0 255
-0.461266 0.214324 -0.211257 153 0 76
-0.399299 -0.412113 -0.330984 76 0 153
0.340339 -0.206728 -0.230379 153 0 76
-0.163783 -0.213038 -0.229269 153 0 76
0.409405 0.234916 0.072615 0 0 255
0.477254 0.387463 -0.293330 204 51 127
0.471140 0.165606 -0.295463 0 0 255
0.075381 -0.024858 0.168178 153 76 0
-0.051869 -0.103495 -0.239869 153 0 76
0.370404 -0.012200 0.533739 153 76 0
0.419487 0.376551 -0.353177 76 0 153
0.066320 0.540631 -0.323501 204 51 127
0.465198 0.275751 -0.327859 76 0 153
-0.093660 -0.036610 0.005656 153 76 0
0.225255 -0.056467 0.094605 153 76 0
0.117569 -0.050456 0.180575 153 76 0
-0.468931 -0.292994 0.445105 153 0 76
-0.402764 -0.136878 0.054878 76 153 0
0.346248 -0.184445 0.448319 76 0 153
-0.367120 -0.191109 0.318907 76 153 0
0.461288 -0.649428 0.415373 76 0 153
0.134808 0.290143 -0.273790 204 51 127
0.178676 -0.070240 0.438041 76 0 153
0.377181 -0.036968 0.004498 153 76 0
-0.438900 -0.661850 -0.407586 76 0 153
-0.448662 0.149758 0.296184 153 0 76
0.133161 -0.029562 0.117411 153 76 0
-0.039611 0.521322 -0.345589 204 51 127
-0.445702 -0.152089 -0.310232 76 153 0
0.044532 0.353785 -0.312964 204 51 127
-0.402757 -0.129025 -0.278996 76 153 0
-0.407383 0.181355 0.013514 153 0 76
0.477981 0.175702 -0.212709 0 0 255
0.359285 0.655172 -0.345574 204 51 127
-0.426647 0.125386 -0.008676 153 0 76
-0.365346 -0.192138 -0.285009 76 153 0
-0.227825 -0.090746 -0.247766 153 0 76
-0.009605 -0.013243 0.350787 153 76 0
0.503905 0.188323 -0.190301 0 0 255
-0.416429 0.108992 0.359001 76 0 153
-0.399967 0.169543 0.368306 76 0 153
-0.399631 -0.469012 0.405927 153 0 76
0.145612 0.641523 -0.387677 204 51 127
-0.482234 0.225136 -0.067863 153 0 76
0.019741 -0.012302 0.363581 153 76 0
0.222483 -0.060290 0.039943 153 76 0
0.242895 -0.035996 0.023210 153 76 0
0.465198 0.077353 0.381666 204 51 127
-0.230101 0.445399 -0.304478 204 51 127
-0.402763 -0.085531 -0.151733 76 153 0
0.314162 -0.061282 0.025252 153 76 0
0.464867 -0.658917 0.457847 76 0 153
0.009051 0.310078 -0.277756 204 51 127
-0.317587 -0.223088 -0.227856 153 0 76
0.401086 0.246562 0.274452 0 0 255
-0.272290 -0.059994 0.436485 76 0 153
0.235781 0.506994 -0.316963 204 51 127
0.325599 -0.191311 -0.230885 153 0 76
-0.263656 -0.077698 -0.184958 153 0 76
0.055182 -0.044500 -0.110574 153 76 0
0.290883 -0.046365 -0.122942 153 76 0
0.047860 -0.202177 -0.193272 153 0 76
-0.489440 0.248579 0.268590 153 0 76
0.436078 0.016389 -0.372056 76 0 153
-0.400864 -0.796460 0.463812 153 0 76
0.096455 -0.182913 -0.231476 153 0 76
-0.294384 0.337564 -0.283655 204 51 127
-0.402764 -0.166800 0.017853 76 153 0
-0.398870 -0.255158 0.392233 153 0 76
0.389642 0.204993 -0.161869 0 0 255
-0.436182 0.559037 -0.327135 204 51 127
-0.468920 0.138465 0.373013 76 0 153
-0.098839 -0.053251 0.140615 153 76 0
0.157682 0.475034 -0.310842 204 51 127
-0.430855 0.226390 -0.045246 153 0 76
0.221379 -0.050971 -0.194070 153 76 0
-0.393113 0.217583 0.048403 153 0 76
-0.355757 -0.081466 -0.163622 76 153 0
-0.002381 -0.054761 0.119021 153 76 0
0.237177 0.242317 -0.285028 204 51 127
0.303718 0.615789 -0.366525 204 51 127
-0.331818 -0.021291 0.233555 153 76 0
-0.399546 -0.787934 0.434189 153 0 76
-0.437943 0.000481 -0.302074 153 0 76
-0.246606 -0.159300 -0.233147 153 0 76
0.401439 -0.761365 0.423322 76 0 153
-0.116399 -0.163936 0.444636 76 0 153
-0.190632 0.611239 -0.336207 204 51 127
-0.449521 0.144411 0.174664 153 0 76
0.274530 -0.036780 0.011995 153 76 0
0.399895 0.567533 -0.328511 204 51 127
0.088567 0.481897 -0.312176 204 51 127
0.361758 -0.186162 0.150445 0 127 127
0.275786 -0.005947 0.452482 153 76 0
0.285987 -0.002484 0.509758 153 76 0
-0.232053 -0.003483 0.473879 153 76 0
-0.438880 0.055224 0.433388 76 0 153
0.002590 0.591288 -0.333424 204 51 127
0.191335 -0.002175 0.508892 153 76 0
-0.295089 -0.070227 -0.102137 153 76 0
-0.399021 -0.783031 -0.405446 76 0 153
0.192175 0.336979 -0.283940 204 51 127
-0.092420 0.465951 -0.308820 204 51 127
0.136691 -0.087177 -0.195500 153 0 76
-0.195158 -0.135170 0.442522 76 0 153
-0.398766 -0.052410 -0.362417 153 0 76
0.226968 -0.081767 -0.192501 153 0 76
-0.172631 -0.073610 -0.150524 153 76 0
0.367799 -0.001820 0.502613 153 76 0
0.438681 0.254309 0.371149 0 0 255
0.231918 -0.072851 -0.139684 153 76 0
0.246379 -0.013261 0.534303 153 76 0
-0.106817 -0.059080 0.057258 153 76 0
0.392481 -0.034488 0.087847 153 76 0
-0.119077 -0.045758 0.246582 153 76 0
-0.398589 -0.324863 -0.342771 76 0 153
-0.191564 -0.053559 0.136208 153 76 0
0.280990 -0.021991 0.537179 153 76 0
0.452881 0.232084 0.031990 0 0 255
0.465000 -0.430980 -0.337139 153 76 0
0.125827 -0.151639 -0.196250 153 0 76
0.142636 -0.068101 -0.071754 153 76 0
0.298128 0.480615 -0.311927 204 51 127
-0.445857 0.059064 -0.299323 153 0 76
-0.188247 0.387015 -0.292986 204 51 127
-0.437980 -0.230730 0.453334 153 0 76
-0.002376 -0.211998 -0.229368 153 0 76
0.310444 -0.039530 0.420344 76 0 153
-0.286348 -0.028367 0.134255 153 76 0
0.150281 -0.028426 0.133499 153 76 0
-0.364245 -0.186050 0.460965 76 0 153
-0.469231 -0.537123 -0.369138 76 0 153
-0.399321 -0.670157 0.460089 153 0 76
-0.398991 0.114555 0.388626 76 0 153
0.488387 0.237783 0.114661 0 0 255
-0.197996 -0.036784 -0.002327 153 76 0
0.461932 -0.162480 0.475148 0 127 127
0.398194 -0.073152 0.044550 0 127 127
-0.306306 -0.040004 -0.048366 153 76 0
-0.432324 -0.627304 -0.405776 76 0 153
0.503536 0.196317 -0.007168 0 0 255
-0.228344 -0.050560 -0.199335 153 76 0
0.399051 -0.132686 -0.255322 0 127 127
0.389641 0.216457 0.128807 0 0 255
-0.394103 0.185284 -0.195715 153 0 76
0.211625 0.522927 -0.320060 204 51 127
-0.154963 -0.053603 0.135583 153 76 0
-0.039334 -0.066036 -0.042214 153 76 0
0.406735 -0.775309 -0.413388 153 76 0
0.399066 -0.066163 0.318332 0 127 127
-0.063806 -0.222265 -0.228351 153 0 76
0.398298 -0.169682 0.016168 0 127 127
0.446687 0.132536 -0.052025 0 0 255
-0.107224 -0.104455 -0.239348 153 0 76
0.281921 -0.003921 0.481909 153 76 0
-0.469039 -0.530617 0.426066 153 0 76
0.398800 -0.085853 -0.252149 0 127 127
0.361723 -0.209445 -0.118067 0 127 127
-0.435727 0.134087 0.116374 153 0 76
-0.315725 -0.037577 0.414907 153 76 0
-0.361994 -0.169291 -0.173354 76 153 0
-0.452593 0.139925 -0.147550 153 0 76
0.402726 0.112594 0.360670 204 51 127
-0.061088 -0.071501 -0.120365 153 76 0
0.189148 0.437004 -0.329171 204 51 127
-0.444625 0.284433 -0.273566 204 51 127
0.464721 -0.719475 0.442645 76 0 153
-0.211211 0.466917 -0.309162 204 51 127
-0.010213 -0.068939 -0.261492 153 0 76
0.451837 -0.802058 0.435151 76 0 153
-0.018040 -0.050403 -0.197119 153 76 0
0.135182 -0.034729 0.041335 153 76 0
0.504240 0.193571 -0.254000 0 0 255
-0.425722 -0.724076 0.487957 153 0 76
-0.125663 -0.047074 0.508393 153 76 0
0.137026 -0.110572 0.440802 76 0 153
-0.183869 -0.011942 0.367935 153 76 0
0.394919 -0.649666 -0.357150 153 76 0
-0.132877 0.341582 -0.310565 204 51 127
0.236821 -0.044427 0.266769 153 76 0
-0.198924 -0.189717 -0.193474 153 0 76
0.361588 -0.114366 -0.105074 0 127 127
0.311496 -0.040127 0.328235 153 76 0
-0.226696 -0.113219 0.440987 76 0 153
0.041470 -0.096959 -0.243775 153 0 76
0.399084 -0.111067 -0.170331 0 127 127
0.361586 -0.138948 0.177355 0 127 127
-0.072093 -0.049332 -0.181794 153 76 0
-0.016475 -0.038939 0.345269 153 76 0
-0.469056 0.101694 -0.319264 153 0 76
0.304863 -0.052976 -0.222131 153 76 0
-0.222722 -0.073019 -0.142076 153 76 0
0.055002 -0.039481 -0.036415 153 76 0
0.114158 0.358515 -0.313928 204 51 127
-0.434468 0.112840 -0.183485 153 0 76
-0.236655 -0.068080 -0.071438 153 76 0
-0.018414 0.279525 -0.271724 204 51 127
0.060487 -0.047394 0.490585 153 76 0
-0.396922 -0.027610 0.152561 153 76 0
0.461426 -0.387476 -0.325731 153 76 0
-0.124006 -0.051914 -0.218712 153 76 0
-0.375915 -0.044098 -0.105538 153 76 0
0.394958 -0.779389 -0.392993 153 76 0
-0.404948 0.245677 0.251572 153 0 76
0.395122 -0.487681 -0.385038 153 76 0
-0.419747 0.152187 0.313292 153 0 76
0.402334 0.420092 -0.349574 76 0 153
-0.397085 -0.024814 0.215646 153 76 0
-0.167566 0.423521 -0.300248 204 51 127
0.238619 -0.047080 -0.133165 153 76 0
-0.468822 -0.015832 0.377314 153 76 0
0.341754 0.407895 -0.323487 204 51 127
0.442642 -0.484134 -0.398235 153 76 0
0.399033 0.232392 0.041892 0 0 255
-0.472728 0.651226 -0.344462 204 51 127
-0.201842 -0.133597 0.479983 76 0 153
-0.496247 0.200931 0.110945 153 0 76
0.239331 -0.011553 0.363290 153 76 0
0.095467 -0.034781 0.040602 153 76 0
-0.398577 -0.711619 0.456805 153 0 76
-0.369746 0.264156 -0.269613 204 51 127
-0.280585 0.299845 -0.302560 204 51 127
0.426988 0.226225 0.470666 0 0 255
0.035813 0.355711 -0.286589 204 51 127
-0.407086 -0.252458 -0.313297 76 0 153
-0.318678 -0.180830 -0.194103 153 0 76
-0.218025 -0.035187 0.398591 153 76 0
-0.340042 0.649678 -0.390115 204 51 127
-0.409914 0.226209 -0.360296 153 0 76
0.486273 0.241116 0.161455 0 0 255
-0.413516 0.159514 -0.128920 153 0 76
0.080243 0.569431 -0.354969 204 51 127
0.464068 0.622832 -0.373046 204 51 127
0.026743 -0.093944 0.476517 76 0 153
0.170253 -0.051914 -0.218762 153 76 0
0.448900 -0.233472 -0.385035 153 76 0
0.463399 -0.620482 -0.342679 153 76 0
-0.427414 0.213697 -0.225546 153 0 76
0.394892 0.140976 0.398116 204 51 127
0.399071 -0.144315 -0.067392 0 127 127
-0.458244 0.171186 -0.170230 153 0 76
0.445942 -0.065788 -0.306360 76 0 153
0.283438 -0.065619 -0.036272 153 76 0
-0.177256 -0.054320 -0.246655 153 76 0
-0.180904 -0.059229 0.055125 153 76 0
-0.398586 0.105593 -0.349313 153 0 76
0.347285 -0.120081 -0.243756 0 127 127
0.398733 -0.188232 0.278865 0 127 127
-0.414724 -0.171775 0.482331 76 0 153
0.418095 0.503632 -0.315296 204 51 127
0.397572 -0.672943 -0.341298 153 76 0
0.131601 -0.146918 0.443343 76 0 153
-0.063735 -0.046794 -0.144925 153 76 0
-0.365282 -0.121116 0.138544 76 153 0
0.399068 -0.150779 0.219202 0 127 127
-0.063747 -0.077288 0.438482 76 0 153
0.206984 -0.067595 -0.064530 153 76 0
0.361387 -0.131521 0.406099 0 127 127
0.327949 0.543995 -0.350025 204 51 127
0.403205 -0.088855 -0.290618 0 127 127
0.218433 0.404486 -0.297129 204 51 127
-0.428390 -0.046656 -0.304545 153 0 76
0.432820 0.109715 0.358772 204 51 127
0.427887 0.228037 -0.026372 0 0 255
-0.409289 0.186809 0.083352 153 0 76
0.221956 0.427217 -0.327233 204 51 127
0.251472 -0.164159 -0.232800 153 0 76
0.177572 -0.072797 -0.138921 153 76 0
-0.182073 -0.072312 -0.131962 153 76 0
0.455356 -0.562192 0.407899 76 0 153
-0.469042 -0.779439 -0.364357 76 0 153
-0.365283 -0.150982 0.402901 76 153 0
-0.058324 -0.070027 -0.099289 153 76 0
-0.457479 0.158599 -0.264778 153 0 76
0.433869 -0.223324 0.382058 76 0 153
-0.057714 -0.055375 0.110240 153 76 0
0.332779 -0.073202 -0.130636 153 76 0
-0.446476 0.094564 -0.292826 153 0 76
0.446941 -0.358251 0.462177 76 0 153
0.394821 -0.756669 0.456588 76 0 153
0.303089 0.649381 -0.390054 204 51 127
0.091647 -0.230814 -0.222366 153 0 76
0.484765 0.210486 0.267413 0 0 255
0.210353 0.391511 -0.320384 204 51 127
0.305117 0.579910 -0.356954 204 51 127
0.407927 0.236247 0.092927 0 0 255
0.231873 -0.065142 -0.029483 153 76 0
0.393160 0.237804 0.232955 0 0 255
-0.400107 0.238870 0.177066 153 0 76
-0.252760 -0.185069 0.468741 76 0 153
0.259065 -0.065169 -0.029872 153 76 0
0.015032 -0.035303 0.396965 153 76 0
-0.135019 0.242282 -0.276014 204 51 127
0.413036 0.059434 -0.299178 76 0 153
0.431449 -0.456201 -0.396816 153 76 0
0.242044 -0.056196 -0.252658 153 76 0
0.108870 -0.161218 0.481379 76 0 153
-0.507771 0.205500 0.005472 153 0 76
0.111526 -0.135020 0.442511 76 0 153
0.319408 0.410216 -0.323928 204 51 127
0.402122 -0.189222 0.462264 76 0 153
0.041060 -0.009299 0.405003 153 76 0
-0.394601 -0.054792 -0.228774 153 76 0
0.465022 -0.107615 -0.369634 0 127 127
-0.469230 0.020705 -0.339896 153 0 76
-0.402763 -0.141021 -0.140014 76 153 0
-0.339265 -0.068400 0.475329 76 0 153
0.214144 -0.071075 -0.114285 153 76 0
0.472101 0.189794 0.003484 0 0 255
-0.435294 -0.459781 -0.397000 76 0 153
0.167318 -0.036020 0.022874 153 76 0
-0.346774 -0.149164 0.481072 76 0 153
0.464865 -0.563335 0.429156 76 0 153
-0.457485 -0.714473 -0.408800 76 0 153
0.183250 0.585761 -0.358050 204 51 127
0.394877 -0.533819 -0.362153 153 76 0
-0.213939 -0.042891 0.528539 153 76 0
0.070339 -0.042554 0.529040 153 76 0
-0.144971 0.440130 -0.329803 204 51 127
0.085654 -0.185029 0.452622 76 0 153
-0.298196 -0.046015 0.428819 76 0 153
-0.449065 -0.607005 0.479157 153 0 76
0.461463 -0.005448 0.369330 204 51 127
-0.230426 -0.101041 0.477707 76 0 153
0.171883 0.510315 -0.343439 204 51 127
-0.235149 -0.036955 0.411714 153 76 0
-0.300303 0.406647 -0.323250 204 51 127
0.225115 -0.046927 0.229005 153 76 0
-0.430912 -0.573051 0.406515 153 0 76
-0.398546 -0.389686 -0.367588 76 0 153
-0.256030 0.607319 -0.335445 204 51 127
0.115617 0.588972 -0.358659 204 51 127
-0.365414 -0.104699 -0.319505 76 153 0
-0.422095 -0.791999 -0.344933 76 0 153
0.210092 -0.110536 0.440799 76 0 153
-0.036006 -0.192156 -0.230829 153 0 76
0.369303 -0.045985 -0.121585 153 76 0
-0.161023 -0.142257 0.443017 76 0 153
-0.024134 0.448407 -0.331444 204 51 127
-0.105438 -0.073122 -0.143545 153 76 0
-0.141703 -0.185382 0.467839 76 0 153
-0.140890 -0.040600 0.321527 153 76 0
-0.300503 -0.048695 -0.172645 153 76 0
-0.192996 -0.023486 0.202164 153 76 0
0.053378 -0.230267 -0.223547 153 0 76
0.379958 -0.185799 0.464512 76 0 153
0.402537 0.148689 -0.364178 76 0 153
-0.450341 -0.103516 -0.378156 76 153 0
-0.006074 -0.009450 0.402857 153 76 0
0.436517 -0.442192 0.397363 76 0 153
0.040841 -0.048287 -0.166873 153 76 0
0.254850 0.249698 -0.267374 204 51 127
0.401866 -0.183539 0.364189 0 127 127
-0.393251 0.200660 -0.097972 153 0 76
0.465324 -0.380413 0.411158 76 0 153
0.002974 0.596916 -0.360196 204 51 127
-0.447250 0.095923 -0.367823 153 0 76
-0.472154 0.239951 0.143918 153 0 76
0.420554 0.125410 -0.019539 0 0 255
0.463667 0.039632 0.371350 204 51 127
-0.005566 -0.040191 0.327371 153 76 0
0.447135 -0.802459 0.482070 76 0 153
0.139379 0.350873 -0.286481 204 51 127
0.395002 0.038512 -0.350366 76 0 153
-0.365597 -0.139853 -0.117894 76 153 0
-0.402387 -0.091502 -0.261486 76 153 0
-0.195249 -0.045068 -0.118605 153 76 0
0.437736 0.235066 -0.360493 76 0 153
0.398848 -0.199666 0.045874 0 127 127
0.417735 0.247547 0.477538 0 0 255
0.364686 0.319929 -0.306172 204 51 127
-0.365369 -0.097925 -0.039994 76 153 0
-0.203080 -0.110806 -0.199480 153 0 76
0.439531 -0.645076 0.482406 76 0 153
0.361587 -0.178910 0.042661 0 127 127
0.376298 -0.026241 0.157237 153 76 0
-0.365176 -0.110568 -0.269194 76 153 0
-0.398859 -0.617252 0.435424 153 0 76
-0.241504 -0.132119 -0.197647 153 0 76
-0.216110 -0.037836 0.361065 153 76 0
-0.414622 0.087339 -0.297055 153 0 76
-0.324456 -0.031507 0.077708 153 76 0
-0.398629 -0.348283 0.408183 153 0 76
-0.104855 -0.002462 0.488773 153 76 0
-0.469229 -0.130638 -0.339713 76 153 0
-0.093958 0.494366 -0.340356 204 51 127
0.425101 -0.631104 0.481458 76 0 153
-0.345122 -0.183722 0.472613 76 0 153
-0.441900 0.469221 -0.309707 204 51 127
0.381234 0.669122 -0.385858 204 51 127
0.403650 -0.716207 -0.408420 153 76 0
0.398470 -0.062555 0.024232 0 127 127
-0.180336 -0.026461 0.159626 153 76 0
-0.441209 0.638335 -0.341871 204 51 127
-0.402644 -0.185387 0.201488 76 153 0
-0.399052 0.205354 0.155904 153 0 76
0.086810 -0.215907 -0.192171 153 0 76
-0.366784 -0.207492 0.061832 76 153 0
-0.169901 -0.176638 0.446332 76 0 153
0.460576 0.001244 -0.307330 76 0 153
0.433201 0.233925 0.057855 0 0 255
0.429406 -0.611110 -0.404931 153 76 0
-0.412996 -0.135090 -0.298309 76 153 0
-0.402115 -0.051120 -0.016678 76 153 0
0.410537 -0.592998 0.408155 76 0 153
0.292978 -0.203402 -0.230058 153 0 76
0.361598 -0.184903 -0.357752 0 127 127
-0.395325 0.201274 -0.255006 153 0 76
-0.359378 -0.054052 -0.245191 153 76 0
-0.458653 0.249267 0.281310 153 0 76
0.201941 -0.053319 0.433389 76 0 153
0.016587 -0.068221 -0.073466 153 76 0
0.150056 -0.047951 -0.157759 153 76 0
0.307739 -0.043246 0.283658 153 76 0
-0.044220 -0.059274 0.476613 153 76 0
0.385595 0.345015 -0.323570 76 0 153
-0.400922 -0.056678 -0.130073 76 153 0
0.101077 -0.063818 0.473967 76 0 153
0.016663 -0.039880 -0.046632 153 76 0
-0.398526 -0.745765 0.465120 153 0 76
0.122008 -0.082278 -0.254596 153 0 76
0.459055 -0.514093 -0.397922 153 76 0
0.472948 0.247130 0.253913 0 0 255
-0.031536 0.279950 -0.298681 204 51 127
0.179382 -0.017204 0.277620 153 76 0
0.275827 0.479747 -0.311758 204 51 127
-0.434731 -0.402214 -0.323169 76 0 153
-0.182536 -0.225768 -0.226248 153 0 76
0.335500 -0.115175 -0.198832 153 0 76
-0.388903 0.548867 -0.325099 204 51 127
-0.295785 -0.025725 0.170171 153 76 0
0.437186 -0.439529 -0.325139 153 76 0
0.293130 -0.016520 0.292166 153 76 0
0.201468 -0.007743 0.427243 153 76 0
-0.276941 -0.172822 0.445438 76 0 153
-0.326669 -0.142024 -0.196966 153 0 76
-0.326455 0.676759 -0.372149 204 51 127
0.465004 -0.140951 -0.366990 0 127 127
-0.304211 -0.053709 -0.241309 153 76 0
-0.398861 0.190597 0.366954 153 0 76
0.284583 0.539882 -0.349224 204 51 127
0.395120 0.250234 -0.342518 76 0 153
-0.154593 -0.024531 0.187222 153 76 0
-0.469153 -0.268366 0.414463 153 0 76
0.412718 0.115270 -0.264173 0 0 255
-0.262275 -0.096361 -0.243740 153 0 76
0.399057 -0.153322 0.060652 0 127 127
-0.232133 -0.017034 0.294428 153 76 0
-0.394808 0.312548 -0.323670 204 51 127
-0.069479 -0.116734 -0.199515 153 0 76
0.452639 -0.057257 0.371684 0 127 127
-0.294189 0.658244 -0.346284 204 51 127
0.449278 0.133590 -0.365825 76 0 153
-0.237380 -0.186203 0.455069 76 0 153
-0.461927 0.103480 0.426451 76 0 153
0.387028 -0.102384 -0.378156 0 127 127
0.368377 -0.194203 0.338985 0 127 127
0.132820 0.263948 -0.295477 204 51 127
0.398646 -0.091479 0.123302 0 127 127
-0.100407 -0.042179 -0.079504 153 76 0
-0.428290 -0.059697 0.370816 76 0 153
-0.458195 0.224657 -0.070493 153 0 76
-0.424471 -0.450515 0.397947 153 0 76
0.414319 0.546651 -0.350542 204 51 127
-0.402301 -0.049518 0.054584 76 153 0
-0.252751 -0.048566 -0.170811 153 76 0
-0.395679 -0.200965 0.376862 153 0 76
-0.381663 -0.216953 0.016633 76 153 0
-0.469033 -0.473619 -0.385874 76 0 153
-0.072629 0.616150 -0.368537 204 51 127
-0.077095 -0.036409 0.534884 153 76 0
0.441824 -0.339438 0.460797 76 0 153
0.248253 -0.136426 -0.197347 153 0 76
0.357078 -0.057092 0.302054 0 127 127
-0.284461 -0.063074 -0.001785 153 76 0
-0.076849 -0.186043 0.460331 76 0 153
-0.293181 0.631836 -0.340209 204 51 127
0.398743 -0.042856 0.210187 0 127 127
0.465224 0.099352 -0.355694 76 0 153
0.240439 -0.047245 0.509783 153 76 0
-0.176801 0.532531 -0.347785 204 51 127
0.455400 0.374202 -0.291077 204 51 127
0.465336 -0.407760 0.412249 76 0 153
-0.417902 -0.365088 -0.321292 76 0 153
0.398912 -0.048804 0.253473 0 127 127
-0.404768 0.135520 -0.294494 153 0 76
0.026863 -0.215700 -0.192338 153 0 76
-0.399187 0.211121 -0.330598 153 0 76
-0.412969 -0.070141 0.366203 76 0 153
0.398988 -0.122740 0.070953 0 127 127
-0.071077 0.546140 -0.324107 204 51 127
0.441047 -0.146462 0.480785 0 127 127
-0.469718 0.164990 -0.308664 153 0 76
-0.329511 -0.129237 -0.235981 153 0 76
0.124777 0.305526 -0.303667 204 51 127
0.431872 0.112098 -0.199480 0 0 255
0.128368 -0.040771 0.319059 153 76 0
0.504067 0.234208 0.337467 0 0 255
0.364880 -0.211075 0.061792 0 127 127
0.272480 -0.061217 0.026313 153 76 0
-0.365284 -0.175232 -0.330740 76 153 0
-0.416874 -0.331154 0.460284 153 0 76
0.465524 -0.468622 0.419858 76 0 153
-0.089797 -0.009861 0.396984 153 76 0
-0.234135 -0.065284 -0.031489 153 76 0
-0.398813 -0.557948 -0.346331 76 0 153
0.033334 -0.030605 0.090396 153 76 0
-0.278763 0.370947 -0.290138 204 51 127
-0.239159 -0.221021 -0.191620 153 0 76
-0.109276 -0.030744 0.093136 153 76 0
0.197439 -0.019458 0.245361 153 76 0
0.448566 -0.802451 -0.384552 153 76 0
0.096889 0.274791 -0.297632 204 51 127
-0.399362 -0.432914 0.405397 153 0 76
-0.182615 -0.033514 0.044443 153 76 0
0.085079 -0.025429 0.537293 153 76 0
-0.465560 -0.198611 -0.379486 76 153 0
0.395293 0.147686 0.371248 204 51 127
0.465480 -0.154637 0.456697 0 127 127
-0.135188 -0.088145 -0.249761 153 0 76
0.338399 -0.156456 -0.237153 153 0 76
0.464879 -0.527549 0.464311 76 0 153
0.123146 -0.040994 -0.048249 153 76 0
0.026592 0.562254 -0.327791 204 51 127
0.375027 -0.041714 -0.063775 153 76 0
-0.402745 -0.192960 0.014303 76 153 0
-0.402763 -0.141412 -0.074400 76 153 0
0.396589 -0.039349 0.105141 0 127 127
0.465415 -0.658667 -0.355980 153 76 0
0.400650 -0.287568 0.390998 76 0 153
0.080645 -0.036604 0.378653 153 76 0
-0.501768 0.188882 -0.062861 153 0 76
0.286706 0.414765 -0.299028 204 51 127
0.484608 0.224824 -0.072093 0 0 255
-0.335873 -0.055134 -0.249460 153 76 0
0.101117 0.243315 -0.271386 204 51 127
0.425614 0.221130 -0.361184 76 0 153
0.421716 -0.027899 0.473440 0 127 127
-0.361602 -0.035871 0.010751 153 76 0
-0.194195 0.394428 -0.320947 204 51 127
0.361587 -0.165297 0.288827 0 127 127
-0.436639 0.127433 0.022188 153 0 76
-0.039115 0.621346 -0.338458 204 51 127
-0.468405 0.216382 -0.185997 153 0 76
0.447051 0.580833 -0.330401 204 51 127
0.420826 0.241417 0.165050 0 0 255
-0.134033 -0.052307 0.154116 153 76 0
-0.365282 -0.108953 0.219616 76 153 0
0.113427 -0.038737 -0.015977 153 76 0
0.038492 -0.036917 0.005145 153 76 0
0.390859 0.246984 0.458135 0 0 255
-0.402763 -0.142771 -0.049098 76 153 0
0.394854 0.250573 0.340654 0 0 255
-0.457638 -0.072810 -0.306484 76 153 0
-0.469151 -0.779211 -0.393557 76 0 153
0.080731 -0.112344 -0.236354 153 0 76
0.408870 0.187780 0.279214 0 0 255
-0.365489 -0.087545 0.281839 76 153 0
0.418876 -0.737760 0.418076 76 0 153
0.369100 0.341103 -0.311443 204 51 127
0.138584 0.380735 -0.292471 204 51 127
0.399062 -0.101662 0.329521 0 127 127
0.345279 -0.131635 -0.195077 153 0 76
-0.058256 -0.014670 0.329207 153 76 0
0.394956 -0.409545 0.408329 76 0 153
0.101465 -0.003461 0.518585 153 76 0
-0.365950 -0.103622 0.313974 76 153 0
0.398890 -0.206529 -0.163434 0 127 127
-0.398801 -0.486806 -0.344759 76 0 153
-0.402763 -0.106870 -0.051580 76 153 0
0.074628 -0.021035 0.230701 153 76 0
0.329196 -0.002470 0.506447 153 76 0
-0.332670 -0.029832 0.113623 153 76 0
-0.469225 0.039258 0.388692 76 0 153
-0.178669 -0.079813 -0.256260 153 0 76
-0.477872 0.212112 -0.246104 153 0 76
-0.446203 -0.302533 -0.388669 76 0 153
0.346868 -0.096688 -0.251186 0 127 127
-0.466564 0.074581 0.368494 76 0 153
-0.342168 -0.060818 0.030619 153 76 0
0.427377 -0.361550 0.391724 76 0 153
-0.396811 -0.130910 0.479796 76 0 153
0.302842 0.294268 -0.301481 204 51 127
0.447358 -0.782752 -0.413799 153 76 0
-0.402483 -0.215496 -0.128185 76 153 0
0.313041 -0.175221 -0.194496 153 0 76
-0.107933 -0.023613 0.537234 153 76 0
0.394830 -0.229057 0.419998 76 0 153
-0.366357 0.621742 -0.372326 204 51 127
-0.086487 -0.001995 0.495990 153 76 0
0.465385 -0.587159 -0.352974 153 76 0
-0.239180 -0.006788 0.436906 153 76 0
0.460098 0.206628 0.335296 0 0 255
0.078800 -0.017459 0.288309 153 76 0
0.398907 -0.192064 0.131945 0 127 127
-0.264128 0.325784 -0.307513 204 51 127
0.349948 -0.051973 0.426203 0 127 127
0.470122 0.206919 0.405778 0 0 255
0.239081 0.288925 -0.273992 204 51 127
0.445912 0.665222 -0.388722 204 51 127
0.142248 -0.073025 -0.142181 153 76 0
-0.300313 -0.021781 0.226560 153 76 0
0.171411 0.676648 -0.367609 204 51 127
0.000238 -0.030025 0.094296 153 76 0
0.082104 0.668507 -0.352017 204 51 127
-0.460888 0.246632 0.241661 153 0 76
0.250252 0.268788 -0.270158 204 51 127
0.403729 0.144380 0.355198 204 51 127
0.361587 -0.134383 0.082677 0 127 127
-0.422374 -0.580542 -0.332533 76 0 153
-0.319440 -0.187091 -0.231182 153 0 76
-0.507568 0.229919 0.127057 153 0 76
0.377211 0.298216 -0.276418 204 51 127
-0.132660 0.663233 -0.389510 204 51 127
0.007171 0.538240 -0.323036 204 51 127
-0.398592 -0.770454 0.443686 153 0 76
0.395152 -0.323355 -0.373679 153 76 0
-0.399162 -0.021010 0.534348 153 76 0
0.441094 0.152180 0.320281 0 0 255
0.398747 -0.138334 0.001874 0 127 127
0.025737 -0.151670 0.443676 76 0 153
0.428745 -0.736015 -0.411462 153 76 0
0.401574 0.243450 -0.270947 204 51 127
-0.468511 0.418962 -0.299482 204 51 127
-0.200278 -0.215439 -0.229041 153 0 76
-0.381855 -0.197422 0.296202 76 153 0
0.445179 0.345149 -0.354750 76 0 153
0.137369 -0.077000 0.438464 76 0 153
0.051700 -0.086290 -0.195068 153 0 76
0.254605 -0.057776 0.075884 153 76 0
0.438464 0.180489 -0.363453 76 0 153
0.003108 -0.182935 -0.231474 153 0 76
-0.349324 -0.182423 0.441436 76 0 153
-0.341008 -0.045666 0.247047 153 76 0
0.272411 0.675397 -0.361301 204 51 127
0.398793 -0.163731 0.042135 0 127 127
0.323966 -0.038302 0.356972 153 76 0
-0.082112 0.593180 -0.359473 204 51 127
-0.466109 -0.705746 0.419660 153 0 76
0.393387 -0.269587 -0.345096 153 76 0
-0.415516 0.131820 -0.204087 153 0 76
-0.249507 0.555212 -0.325369 204 51 127
-0.307439 -0.027680 0.142527 153 76 0
-0.365786 -0.118752 0.339611 76 153 0
-0.391672 -0.233647 -0.233136 76 153 0
0.412998 -0.046577 -0.304400 76 0 153
-0.212185 0.385210 -0.292883 204 51 127
0.293612 -0.048658 -0.157875 153 76 0
0.446240 0.432514 -0.350175 76 0 153
0.439826 0.258052 0.459972 0 0 255
-0.460015 0.179419 -0.015725 153 0 76
-0.365414 -0.136890 0.265124 76 153 0
0.361592 -0.145455 -0.278882 0 127 127
-0.212063 0.627248 -0.376424 204 51 127
-0.365290 -0.176374 0.269663 76 153 0
-0.467795 -0.632411 0.468996 153 0 76
-0.105353 -0.217345 -0.228860 153 0 76
0.223206 -0.034031 0.051310 153 76 0
0.218266 -0.152196 0.481115 76 0 153
0.338489 -0.010993 0.367174 153 76 0
-0.452410 0.018535 0.365216 76 0 153
0.076163 -0.049052 0.200547 153 76 0
-0.451862 0.118933 -0.223201 153 0 76
0.290077 -0.043302 -0.081285 153 76 0
0.325721 -0.066897 -0.044350 153 76 0
-0.331443 0.632597 -0.340357 204 51 127
0.110389 -0.045064 0.524928 153 76 0
0.364756 -0.195442 0.274857 0 127 127
-0.069945 0.577185 -0.356443 204 51 127
-0.441413 -0.372448 0.392497 153 0 76
-0.399200 0.112230 0.407149 76 0 153
-0.166665 0.460407 -0.333776 204 51 127
0.296973 -0.050619 -0.185926 153 76 0
0.267241 -0.049841 0.189355 153 76 0
0.339273 -0.055501 0.157806 153 76 0
-0.245464 -0.014430 0.333203 153 76 0
-0.165071 -0.101923 -0.240722 153 0 76
-0.394897 0.585922 -0.332278 204 51 127
0.103309 0.423113 -0.326435 204 51 127
-0.227156 -0.048025 -0.163072 153 76 0
0.237506 -0.186294 0.456423 76 0 153
-0.179596 -0.041521 0.308362 153 76 0
-0.376665 -0.028114 0.137404 153 76 0
-0.036533 -0.026160 0.163916 153 76 0
-0.131907 -0.133449 0.479973 76 0 153
-0.490826 0.219485 -0.147772 153 0 76
-0.485949 0.612375 -0.338158 204 51 127
