ply
format ascii 1.0
element vertex 1263
property float x
property float y
property float z
property uchar red
property uchar green
property uchar blue
end_header
0.293547 -0.703173 0.438473 76 153 0
0.265691 -0.126146 -0.181278 153 0 76
0.317054 0.407796 -0.186185 153 76 0
-0.366101 -0.316710 0.472938 0 127 127
0.207156 -0.216625 0.223378 76 0 153
0.352629 -0.213635 0.170721 76 0 153
0.309630 -0.157114 -0.114617 76 0 153
-0.133830 0.453633 -0.186905 76 0 153
0.125078 0.530805 -0.187450 76 0 153
-0.220100 -0.015171 -0.227435 76 0 153
0.127064 0.084524 -0.220114 153 76 0
-0.306675 -0.216625 0.109694 76 0 153
-0.280771 -0.018238 0.301133 153 0 76
0.216005 -0.153078 0.500466 76 0 153
-0.010029 0.449086 -0.286578 76 0 153
0.262757 0.460514 -0.188585 153 76 0
0.245169 0.496461 -0.266387 153 76 0
0.139849 -0.140297 -0.279671 76 0 153
0.101835 0.427612 -0.286578 76 0 153
-0.132117 0.597053 -0.286578 76 0 153
0.135374 0.567603 -0.286578 76 0 153
0.100670 -0.047606 -0.283719 153 0 76
-0.131167 0.236680 -0.186781 76 0 153
-0.190547 -0.216625 0.082872 76 0 153
0.216363 -0.163696 -0.161779 153 0 76
0.001304 0.202681 -0.286578 76 0 153
0.255993 0.178085 -0.197855 153 76 0
-0.327584 0.557144 -0.225795 153 76 0
-0.249372 0.185925 -0.201227 76 0 153
0.202038 -0.401505 -0.167761 153 0 76
-0.241428 -0.543637 -0.186832 76 0 153
-0.286360 -0.216625 0.121413 76 0 153
-0.275197 0.506819 -0.192987 76 0 153
-0.347738 0.306454 -0.213571 153 76 0
-0.230030 0.038837 -0.227435 76 0 153
-0.242838 -0.168388 -0.149341 76 0 153
0.292597 -0.621990 0.433208 76 153 0
-0.319099 -0.125263 -0.160638 153 0 76
0.099157 -0.216590 0.521904 76 0 153
0.188902 -0.218526 -0.239040 153 0 76
-0.045385 -0.018906 0.065097 153 0 76
-0.278775 -0.574115 -0.147901 76 0 153
-0.236905 -0.457871 -0.180057 76 0 153
-0.357499 0.387499 -0.217303 153 76 0
-0.001614 -0.018238 0.374533 153 0 76
0.302352 -0.500156 0.416129 76 153 0
0.304276 -0.280971 0.467429 76 153 0
0.161891 -0.247119 -0.196615 153 0 76
0.193428 -0.152148 -0.243566 153 0 76
-0.031950 -0.018387 -0.145052 153 0 76
-0.131896 -0.019238 -0.075414 153 0 76
-0.322142 -0.326619 0.423854 0 127 127
0.106845 -0.216625 0.463193 76 0 153
-0.325276 -0.614580 0.442376 0 127 127
0.153926 -0.018238 -0.082366 153 0 76
0.080372 -0.145663 -0.303334 76 0 153
-0.290149 -0.018238 0.360763 153 0 76
-0.140229 0.616820 -0.286578 76 0 153
-0.390268 -0.206203 0.447714 0 127 127
-0.254648 -0.255905 -0.207187 76 0 153
0.056300 -0.216625 -0.065696 76 0 153
0.055914 0.427499 -0.286578 76 0 153
-0.036221 0.663346 -0.286578 76 0 153
-0.295603 -0.018572 0.032179 153 0 76
0.353088 -0.202002 0.149464 76 0 153
-0.081174 -0.018906 0.023084 153 0 76
0.314707 -0.559113 0.472657 76 153 0
0.291345 0.312352 -0.185635 153 76 0
0.182506 -0.018238 0.313661 153 0 76
-0.178545 -0.080139 -0.250064 76 0 153
0.084190 -0.018238 0.429900 153 0 76
0.281324 0.403978 -0.244716 153 76 0
-0.206668 -0.118989 0.516819 153 0 76
0.193463 -0.150014 -0.176854 153 0 76
-0.243927 0.671882 -0.263400 153 76 0
0.333877 -0.693388 0.423183 76 153 0
-0.158754 -0.018627 -0.167185 153 0 76
-0.343340 -0.244154 0.477153 0 127 127
-0.238739 0.103480 -0.231536 76 0 153
0.352969 -0.082223 0.118417 153 0 76
0.300121 -0.216625 0.185125 76 0 153
0.207736 0.420021 -0.286577 76 0 153
-0.319150 -0.376457 0.452598 0 127 127
-0.297236 -0.156260 -0.199666 76 0 153
0.318995 -0.239504 0.477153 76 153 0
0.140832 0.425912 -0.187450 76 0 153
0.353302 -0.145756 0.043347 153 0 76
-0.049849 -0.055891 -0.306744 153 0 76
0.340790 -0.207887 -0.033346 76 0 153
0.353292 -0.102842 0.361060 153 0 76
-0.023411 0.015822 -0.273344 153 76 0
0.223283 0.515662 -0.190541 76 0 153
-0.073250 -0.018969 -0.116086 153 0 76
0.355330 -0.199187 0.447320 76 153 0
0.173119 0.099015 -0.262135 153 0 76
-0.309608 -0.196048 0.480165 76 0 153
0.140306 0.208985 -0.187450 76 0 153
-0.298154 -0.216625 0.145818 76 0 153
0.076092 0.151745 -0.286578 76 0 153
0.178020 -0.639406 -0.194581 153 0 76
0.122203 0.318804 -0.187449 76 0 153
-0.310527 -0.216625 0.388655 76 0 153
0.018748 -0.018603 -0.210210 153 0 76
0.270653 0.484844 -0.247796 153 76 0
-0.363169 -0.030492 0.408360 153 0 76
-0.015373 -0.179559 -0.316573 76 0 153
-0.380343 -0.096214 -0.017833 153 0 76
-0.343769 -0.621292 0.469355 0 127 127
-0.286177 -0.783925 -0.161868 76 0 153
0.294131 -0.018625 0.397215 153 0 76
-0.160160 -0.216625 0.189456 76 0 153
-0.301565 -0.805062 -0.175431 76 0 153
0.174270 0.448928 -0.187362 76 0 153
-0.178545 -0.029632 -0.237146 76 0 153
-0.267169 -0.850529 -0.179490 76 0 153
-0.339556 -0.216625 -0.074499 76 0 153
0.260457 -0.050983 -0.172997 153 0 76
-0.389951 -0.105609 0.374335 153 0 76
0.321874 -0.380706 0.478089 76 153 0
-0.321736 -0.216625 -0.014650 76 0 153
0.101582 -0.216625 0.096424 76 0 153
-0.002528 -0.018572 -0.142332 153 0 76
0.095980 -0.018238 0.033528 153 0 76
0.084982 0.618620 -0.187432 76 0 153
0.257671 -0.018238 0.330607 153 0 76
-0.171034 0.448878 -0.286578 76 0 153
-0.016137 -0.216625 0.355577 76 0 153
-0.298671 -0.018405 0.153575 153 0 76
0.355330 -0.252556 0.449089 76 153 0
-0.035184 -0.065463 0.540638 153 0 76
0.103578 0.109176 -0.284009 76 0 153
0.233009 0.646937 -0.255408 153 76 0
-0.052419 0.708308 -0.193597 76 0 153
-0.390268 -0.202868 0.418479 0 127 127
0.142658 0.052140 -0.262135 153 0 76
-0.301392 0.274833 -0.250258 153 76 0
-0.256418 -0.216625 -0.143888 76 0 153
-0.276593 -0.216625 -0.029320 76 0 153
-0.208802 -0.018533 0.289320 153 0 76
0.100075 -0.018238 0.243019 153 0 76
0.345909 -0.221657 0.409544 76 153 0
0.242421 -0.018238 0.245725 153 0 76
0.334173 -0.738651 0.425131 76 153 0
-0.263290 0.301675 -0.285965 76 0 153
-0.066261 -0.216625 -0.024245 76 0 153
-0.390268 -0.176126 0.414203 0 127 127
0.308125 -0.577591 0.470489 76 153 0
-0.352120 0.328069 -0.214768 153 76 0
0.264022 -0.151989 -0.182968 76 0 153
0.197351 -0.349799 -0.166804 153 0 76
-0.329030 0.452230 -0.242528 153 76 0
-0.372056 -0.038036 0.051388 153 0 76
-0.050912 0.717731 -0.286145 76 0 153
0.327327 -0.808054 0.412532 76 153 0
0.175115 -0.215178 -0.260868 153 0 76
0.242334 -0.216625 -0.127164 76 0 153
0.221723 -0.755336 -0.177421 153 0 76
0.172521 -0.216625 -0.026781 76 0 153
-0.382373 -0.203936 -0.006707 76 0 153
0.122981 -0.018238 -0.146342 153 0 76
-0.267283 -0.378446 -0.140354 76 0 153
-0.226650 0.051242 -0.262135 76 0 153
0.087726 0.300782 -0.286578 76 0 153
0.179639 0.716844 -0.246140 153 76 0
-0.256563 -0.216625 0.353622 76 0 153
-0.374516 -0.624260 0.425795 0 127 127
-0.150122 -0.018347 0.156889 153 0 76
0.205245 0.223800 -0.280560 76 0 153
0.194157 -0.018238 0.012885 153 0 76
-0.290736 -0.018238 0.290179 153 0 76
-0.359168 -0.027946 0.296668 153 0 76
0.265924 -0.211608 -0.179254 76 0 153
0.080050 -0.018446 0.116961 153 0 76
0.248238 0.284100 -0.255166 76 0 153
0.026076 -0.018267 0.473155 153 0 76
0.054416 0.599219 -0.286578 76 0 153
-0.196199 0.635194 -0.284464 76 0 153
-0.246765 -0.260997 -0.146785 76 0 153
-0.384596 -0.059024 0.299338 153 0 76
0.131542 -0.112657 -0.282989 153 0 76
0.192554 0.309090 -0.286578 76 0 153
0.185825 0.028678 -0.227435 153 0 76
-0.274564 -0.752401 -0.204169 76 0 153
0.275477 0.211657 -0.222390 153 76 0
0.285216 -0.438428 0.440575 76 153 0
-0.216542 -0.216625 0.363966 76 0 153
-0.319866 0.539315 -0.245086 153 76 0
0.217823 -0.514160 -0.174231 153 0 76
-0.390268 -0.237415 0.465373 0 127 127
-0.194946 0.098093 -0.216329 153 76 0
0.223770 -0.018238 0.013001 153 0 76
-0.290428 -0.216625 -0.055343 76 0 153
-0.238831 -0.216625 0.143463 76 0 153
-0.184618 0.740961 -0.225596 153 76 0
0.131324 -0.018238 0.002619 153 0 76
0.047987 -0.216625 0.198446 76 0 153
0.313583 0.338272 -0.210995 153 76 0
0.066484 0.263799 -0.286578 76 0 153
0.197688 0.347709 -0.286578 76 0 153
-0.178432 0.622045 -0.186782 76 0 153
-0.001960 -0.125178 0.543601 153 0 76
0.273957 -0.216625 0.280873 76 0 153
0.143318 0.365607 -0.286578 76 0 153
0.226610 -0.522359 -0.223254 153 0 76
0.108552 0.682693 -0.194700 76 0 153
-0.367984 -0.471950 0.414647 0 127 127
-0.160112 0.138576 -0.188995 76 0 153
-0.170821 0.352066 -0.286578 76 0 153
0.019989 -0.077074 0.541583 153 0 76
-0.196813 -0.039109 -0.250942 153 0 76
0.162500 0.692047 -0.271264 153 76 0
0.298135 -0.113631 0.476957 153 0 76
-0.218167 -0.061338 -0.227435 76 0 153
0.239294 -0.330098 -0.212698 153 0 76
0.052502 0.688776 -0.286104 76 0 153
0.344420 -0.611111 0.453364 76 153 0
0.291104 -0.280486 0.450141 76 153 0
0.179529 -0.787081 -0.204302 153 0 76
-0.232297 0.300322 -0.186921 76 0 153
0.231602 -0.629184 -0.199640 153 0 76
-0.269968 -0.048489 0.484109 153 0 76
-0.172383 -0.216625 0.138019 76 0 153
0.206296 -0.306780 -0.228506 153 0 76
0.015202 -0.216625 0.416301 76 0 153
0.030258 0.250886 -0.187450 76 0 153
0.212491 0.643551 -0.204751 153 76 0
-0.242874 -0.381401 -0.152324 76 0 153
0.300092 -0.661627 0.462695 76 153 0
0.160396 -0.216625 0.050986 76 0 153
0.332464 -0.632635 0.466908 76 153 0
-0.340364 0.465266 -0.183036 153 76 0
-0.345509 -0.022643 0.015431 153 0 76
0.263648 -0.188053 -0.183107 76 0 153
-0.370647 -0.573642 0.466660 0 127 127
-0.387249 -0.417984 0.442813 0 127 127
-0.001004 -0.216625 -0.173049 76 0 153
0.172765 -0.379832 -0.186808 153 0 76
-0.342682 -0.214264 -0.120558 76 0 153
0.303133 -0.216021 -0.121279 76 0 153
-0.233608 -0.124729 -0.262135 76 0 153
-0.354012 -0.357678 0.407538 0 127 127
-0.367182 -0.033248 0.134048 153 0 76
-0.389919 -0.095354 0.406461 153 0 76
0.353445 -0.167096 0.285598 76 0 153
-0.049614 -0.018403 -0.243943 153 0 76
-0.059782 0.700077 -0.187594 76 0 153
0.195947 -0.676355 -0.177358 153 0 76
0.009220 0.579069 -0.187350 76 0 153
-0.255247 -0.018572 0.262637 153 0 76
0.087287 -0.216625 0.036896 76 0 153
0.039233 0.468470 -0.187449 76 0 153
-0.035060 -0.216625 0.204669 76 0 153
0.049329 -0.216625 0.042359 76 0 153
-0.077164 0.742852 -0.228095 153 76 0
-0.107871 0.769647 -0.275702 153 76 0
-0.286139 -0.574875 -0.198973 76 0 153
-0.371277 -0.666147 0.424037 0 127 127
-0.243994 -0.216625 -0.095328 76 0 153
0.133992 -0.018238 0.344771 153 0 76
-0.250079 -0.018730 0.137017 153 0 76
-0.298613 -0.216624 -0.148861 76 0 153
0.254581 -0.216620 -0.175208 76 0 153
0.335458 -0.388499 0.412922 76 153 0
-0.300840 -0.018538 -0.021044 153 0 76
0.185440 -0.211975 -0.252610 76 0 153
-0.293275 -0.641419 -0.187826 76 0 153
-0.381012 -0.050986 0.326864 153 0 76
0.248723 -0.171219 -0.205396 153 0 76
-0.116757 0.047813 -0.281926 153 76 0
0.248820 -0.216625 0.111013 76 0 153
-0.132742 0.422911 -0.286578 76 0 153
-0.333199 -0.785361 0.454920 0 127 127
0.256513 0.598712 -0.195625 153 76 0
0.079330 -0.018312 -0.174865 153 0 76
-0.182648 -0.053929 0.515318 153 0 76
-0.319834 -0.407497 0.450841 0 127 127
0.296547 0.412089 -0.240375 153 76 0
0.257610 -0.018238 0.037450 153 0 76
-0.376045 -0.460743 0.419885 0 127 127
0.033821 0.236421 -0.286578 76 0 153
-0.219955 -0.056613 -0.262135 76 0 153
-0.373934 -0.040356 0.249470 153 0 76
0.335499 -0.740083 0.460480 76 153 0
-0.096451 0.180480 -0.286578 76 0 153
0.010250 0.175975 -0.286578 76 0 153
-0.323065 0.291670 -0.244096 153 76 0
0.318862 -0.850529 0.452011 76 153 0
-0.303500 -0.334526 -0.163445 76 0 153
-0.186718 0.026290 -0.262135 76 0 153
-0.323387 -0.216625 0.058976 76 0 153
-0.145246 0.190828 -0.286578 76 0 153
0.243591 -0.037321 -0.178498 153 0 76
-0.099569 -0.180392 0.538640 76 0 153
-0.106549 -0.160364 0.537629 76 0 153
0.225621 0.553274 -0.267008 76 0 153
-0.120148 0.705286 -0.213499 76 0 153
0.349775 -0.216012 0.309042 76 0 153
0.210963 -0.199272 -0.243157 153 0 76
0.016031 -0.018238 0.378660 153 0 76
-0.323814 -0.018355 0.246196 153 0 76
-0.002762 0.218111 -0.187168 76 0 153
-0.362106 -0.530283 0.472579 0 127 127
-0.385403 -0.470303 0.440884 0 127 127
0.169027 -0.216625 -0.120144 76 0 153
-0.178545 0.082702 -0.234185 76 0 153
0.112066 0.713863 -0.279048 153 76 0
-0.241006 0.060748 -0.247603 76 0 153
0.282207 0.384470 -0.244463 153 76 0
-0.043438 -0.216625 0.515622 76 0 153
0.228664 -0.658093 -0.212507 153 0 76
0.180331 -0.738682 -0.204948 153 0 76
-0.153097 -0.018238 0.412216 153 0 76
-0.092140 0.324400 -0.286578 76 0 153
-0.304328 -0.380553 -0.175073 76 0 153
0.313242 0.460914 -0.217332 153 76 0
0.243062 -0.216625 -0.047896 76 0 153
0.148051 -0.067461 -0.262135 153 0 76
0.205657 -0.690637 -0.227643 153 0 76
-0.238071 -0.018572 0.103955 153 0 76
-0.030667 0.729060 -0.221256 153 76 0
-0.281658 -0.552736 -0.148397 76 0 153
0.013105 -0.216625 0.461662 76 0 153
0.125141 0.263749 -0.187385 76 0 153
0.294543 -0.716358 0.450747 76 153 0
0.054935 -0.018238 -0.103324 153 0 76
0.122536 0.721444 -0.220802 153 76 0
-0.334114 0.338743 -0.241063 153 76 0
0.324180 -0.028909 0.193829 153 0 76
-0.355777 -0.025520 0.081317 153 0 76
0.288947 -0.559814 0.446415 76 153 0
-0.096603 -0.018661 -0.052965 153 0 76
0.063825 0.660357 -0.186936 76 0 153
-0.375394 -0.042021 0.303749 153 0 76
0.290043 -0.419063 0.461960 76 153 0
0.217766 0.588749 -0.199954 153 76 0
0.342652 -0.048137 0.290952 153 0 76
0.097201 0.716325 -0.220814 153 76 0
0.014719 -0.109861 0.542740 153 0 76
0.342540 -0.239130 0.477153 76 153 0
0.196924 0.477076 -0.286578 76 0 153
-0.066478 0.336665 -0.286578 76 0 153
0.210630 0.476266 -0.187066 76 0 153
0.182269 -0.216625 0.391187 76 0 153
-0.351977 -0.261851 0.406713 0 127 127
-0.334011 -0.767834 0.465815 0 127 127
-0.133293 0.128948 -0.186915 76 0 153
0.104641 0.260736 -0.187283 76 0 153
0.143699 -0.018509 0.073913 153 0 76
0.147197 -0.216625 0.129887 76 0 153
-0.263347 -0.494129 -0.144391 76 0 153
0.135825 -0.216625 0.079299 76 0 153
0.306669 -0.020525 0.295197 153 0 76
-0.264832 -0.216625 0.123781 76 0 153
0.014436 0.303675 -0.286578 76 0 153
-0.375008 -0.270956 0.416519 0 127 127
-0.288723 -0.165431 -0.147150 76 0 153
-0.149430 0.508352 -0.186782 76 0 153
0.325011 -0.095980 0.476810 153 0 76
0.101197 -0.068739 -0.292576 153 0 76
-0.148263 0.759533 -0.263301 153 76 0
0.336053 -0.076191 -0.052445 153 0 76
-0.340548 -0.541573 0.470623 0 127 127
-0.293817 -0.562681 -0.159200 76 0 153
0.001972 0.647554 -0.186781 76 0 153
0.288859 -0.139968 0.477743 153 0 76
0.118438 -0.216625 -0.225997 76 0 153
0.020373 0.738389 -0.225555 153 76 0
0.200679 -0.709563 -0.226778 153 0 76
-0.298388 -0.216625 0.169827 76 0 153
0.339301 -0.414802 0.469944 76 153 0
0.186275 -0.291001 -0.219376 153 0 76
0.040248 -0.216625 0.102931 76 0 153
0.092870 0.628892 -0.187229 76 0 153
-0.017375 0.499927 -0.187118 76 0 153
0.286740 -0.216625 0.350555 76 0 153
-0.144228 0.202581 -0.186781 76 0 153
0.011290 0.497837 -0.286578 76 0 153
0.041652 0.418724 -0.286578 76 0 153
-0.147525 0.224435 -0.286578 76 0 153
-0.103019 0.297387 -0.286578 76 0 153
0.145096 0.170329 -0.286509 76 0 153
-0.234993 -0.339996 -0.187347 76 0 153
-0.058996 0.422872 -0.286578 76 0 153
-0.252760 -0.021502 -0.170733 153 0 76
0.190802 -0.255905 -0.193545 153 0 76
0.153012 -0.045330 -0.260602 153 0 76
-0.185092 0.605212 -0.186781 76 0 153
0.044063 0.093781 -0.286066 76 0 153
0.189660 -0.167222 -0.239798 153 0 76
0.286112 0.529284 -0.188795 153 76 0
-0.290558 -0.784528 -0.181554 76 0 153
-0.386335 -0.430331 0.438723 0 127 127
0.355330 -0.165388 0.463013 76 153 0
0.227492 -0.215394 -0.220563 76 0 153
-0.288739 -0.550136 -0.197918 76 0 153
-0.078043 -0.018891 -0.166306 153 0 76
-0.159395 0.276727 -0.286578 76 0 153
0.254032 0.317345 -0.257463 76 0 153
-0.352162 -0.469836 0.410991 0 127 127
0.201577 0.617179 -0.268043 153 76 0
0.301765 -0.816463 0.418918 76 153 0
0.028392 0.091528 -0.286162 76 0 153
0.169464 0.165574 -0.196884 76 0 153
0.202357 -0.253891 -0.156149 153 0 76
0.277345 -0.018556 -0.041821 153 0 76
-0.271172 -0.106380 0.494355 153 0 76
-0.374296 -0.695720 0.429049 0 127 127
0.045815 -0.018238 0.379845 153 0 76
0.138470 -0.026422 -0.233596 153 0 76
0.342437 -0.051803 0.021795 153 0 76
0.295781 -0.693882 0.431190 76 153 0
-0.050234 -0.053427 0.534953 153 0 76
0.321850 -0.036204 -0.029090 153 0 76
-0.260566 0.336710 -0.186842 76 0 153
0.230856 0.138083 -0.233678 153 76 0
-0.331854 -0.809366 0.419753 0 127 127
0.343479 -0.265258 0.416489 76 153 0
-0.054156 -0.216625 -0.004641 76 0 153
0.087793 -0.216625 -0.040396 76 0 153
-0.325892 -0.756789 0.429875 0 127 127
0.331001 -0.812403 0.471719 76 153 0
0.239765 -0.074523 -0.210501 153 0 76
0.284594 -0.110320 0.478168 153 0 76
-0.134888 0.665492 -0.286575 76 0 153
-0.275891 0.653161 -0.238057 153 76 0
0.257464 -0.216625 -0.095265 76 0 153
0.248630 0.465122 -0.188412 153 76 0
0.007588 0.227127 -0.187360 76 0 153
0.245605 0.533940 -0.197715 153 76 0
0.144531 0.049912 -0.227435 153 0 76
-0.363312 -0.057495 0.470948 153 0 76
0.111875 -0.018238 0.125275 153 0 76
-0.073498 -0.216625 0.291367 76 0 153
0.028128 0.569531 -0.187161 76 0 153
-0.347258 -0.216625 0.276289 76 0 153
-0.056770 -0.216625 -0.243841 76 0 153
0.011299 -0.216625 0.217931 76 0 153
0.094796 0.248707 -0.286578 76 0 153
-0.217050 0.081411 -0.216442 153 76 0
-0.050235 0.409596 -0.186816 76 0 153
0.227650 -0.732701 -0.195016 153 0 76
-0.335283 0.519944 -0.238179 153 76 0
-0.343065 -0.046546 -0.094489 153 0 76
-0.193658 0.081199 -0.216818 153 76 0
0.177219 -0.812187 -0.217911 153 0 76
0.340928 -0.216619 0.240973 76 0 153
0.237136 -0.397229 -0.191473 153 0 76
0.206257 -0.435592 -0.168766 153 0 76
-0.315448 -0.062429 -0.158714 153 0 76
-0.133037 0.153048 -0.186782 76 0 153
0.192522 -0.598902 -0.176248 153 0 76
-0.179106 0.439170 -0.187116 76 0 153
0.217457 -0.191459 -0.162873 153 0 76
-0.341963 -0.216625 0.176714 76 0 153
-0.282500 -0.197254 -0.214402 76 0 153
-0.218392 -0.216625 0.215303 76 0 153
-0.297509 -0.275674 -0.186965 76 0 153
-0.250896 0.595570 -0.200939 76 0 153
0.230954 -0.579116 -0.190886 153 0 76
-0.172325 0.235958 -0.286578 76 0 153
0.066778 0.324531 -0.286578 76 0 153
-0.258358 -0.216625 0.095770 76 0 153
0.335904 -0.424431 0.414512 76 153 0
-0.389951 -0.140950 0.378558 153 0 76
-0.232915 -0.018238 0.287745 153 0 76
-0.024119 -0.216625 0.402707 76 0 153
0.324161 -0.539201 0.413730 76 153 0
-0.343381 -0.831681 0.427263 0 127 127
-0.298641 -0.419002 -0.192402 76 0 153
0.311663 -0.216625 0.093787 76 0 153
0.156740 0.450292 -0.286578 76 0 153
-0.180429 -0.018945 0.000127 153 0 76
-0.382808 -0.150014 0.461308 0 127 127
-0.384209 -0.504690 0.446938 0 127 127
-0.334070 -0.717846 0.427694 0 127 127
-0.312208 -0.186880 -0.184694 76 0 153
-0.250996 -0.150728 -0.205036 76 0 153
-0.078944 -0.018238 0.455712 153 0 76
-0.209223 0.008272 -0.227435 76 0 153
0.263061 0.286875 -0.192746 153 76 0
0.338548 -0.633884 0.424928 76 153 0
-0.003285 -0.018238 0.256779 153 0 76
0.049388 0.743756 -0.284036 153 76 0
-0.387952 -0.069578 0.403673 153 0 76
0.200931 -0.113507 -0.258241 153 0 76
0.108832 0.209950 -0.286578 76 0 153
-0.247487 -0.331255 -0.204644 76 0 153
0.143509 -0.104259 0.523705 153 0 76
-0.255014 -0.216625 0.025804 76 0 153
0.138470 -0.093983 -0.260426 153 0 76
0.236870 0.296867 -0.274326 76 0 153
-0.186278 -0.070169 0.520185 153 0 76
-0.105698 -0.216625 0.245651 76 0 153
0.224626 -0.821246 -0.218710 153 0 76
-0.170697 0.467571 -0.286578 76 0 153
-0.347032 -0.750657 0.415488 0 127 127
-0.362255 -0.029432 0.181522 153 0 76
0.309812 -0.707170 0.419739 76 153 0
0.352745 -0.207200 0.047430 76 0 153
-0.010724 0.154733 -0.186781 76 0 153
0.341495 -0.205392 0.477153 76 153 0
-0.363189 -0.030447 0.226688 153 0 76
0.074526 0.104985 -0.189893 76 0 153
-0.310466 -0.216625 0.121405 76 0 153
0.012686 -0.172980 -0.313499 76 0 153
0.105835 -0.216625 0.107848 76 0 153
0.098962 -0.151299 0.533435 76 0 153
-0.121424 0.202809 -0.186781 76 0 153
-0.030668 -0.118581 -0.315870 153 0 76
-0.131267 0.314323 -0.286578 76 0 153
-0.093444 0.685231 -0.186833 76 0 153
0.180278 -0.043124 -0.240228 153 0 76
0.195393 0.419630 -0.187490 76 0 153
-0.245558 -0.461555 -0.152798 76 0 153
-0.241006 0.075701 -0.236674 76 0 153
0.301172 -0.184680 -0.133398 76 0 153
0.036099 0.534315 -0.286578 76 0 153
0.175162 0.150144 -0.270354 76 0 153
-0.317643 -0.216625 -0.073516 76 0 153
-0.249273 -0.639120 -0.194018 76 0 153
-0.023303 0.394044 -0.286578 76 0 153
0.327058 -0.504467 0.473468 76 153 0
0.146021 0.437480 -0.187450 76 0 153
0.311593 -0.216625 0.314786 76 0 153
-0.304648 -0.018238 0.224017 153 0 76
-0.154702 -0.064393 -0.284778 153 0 76
0.007731 -0.216625 0.185404 76 0 153
0.199188 0.442868 -0.286578 76 0 153
0.173955 -0.428673 -0.187783 153 0 76
-0.334938 -0.216625 0.397695 76 0 153
0.339030 -0.367801 0.471939 76 153 0
0.125730 0.632599 -0.187054 76 0 153
-0.336506 -0.188426 -0.136458 76 0 153
0.236480 -0.408826 -0.213284 153 0 76
-0.222459 0.714606 -0.244405 153 76 0
0.332270 -0.257264 0.475025 76 153 0
-0.214552 0.076041 -0.235816 153 76 0
0.248283 -0.122011 -0.202311 153 0 76
0.284710 -0.216625 0.121680 76 0 153
0.351592 -0.178148 0.409544 76 153 0
0.289284 -0.574119 0.441031 76 153 0
-0.316218 -0.198193 0.421462 0 127 127
-0.038410 -0.216625 0.499001 76 0 153
-0.243285 0.448275 -0.286578 76 0 153
-0.140837 0.572321 -0.286578 76 0 153
0.298967 -0.535360 0.420065 76 153 0
0.228361 -0.018238 0.074503 153 0 76
-0.376465 -0.653505 0.456912 0 127 127
-0.014546 0.737218 -0.286247 153 76 0
0.181842 -0.710378 -0.190948 153 0 76
0.183568 -0.071975 -0.227435 153 0 76
-0.229165 -0.248686 -0.163014 76 0 153
-0.198566 0.115385 -0.273019 153 76 0
-0.361186 -0.264318 0.479311 0 127 127
-0.223285 -0.018846 -0.117271 153 0 76
-0.254331 -0.543453 -0.149054 76 0 153
-0.288864 -0.599951 -0.154844 76 0 153
0.209966 -0.295543 -0.226080 153 0 76
-0.196665 0.215452 -0.286576 76 0 153
0.086892 -0.216625 0.498494 76 0 153
0.281367 -0.018255 0.267424 153 0 76
-0.239869 -0.018238 0.356781 153 0 76
-0.341730 -0.279667 0.417582 0 127 127
-0.325881 -0.485292 0.459852 0 127 127
-0.205772 -0.128887 -0.265514 153 0 76
-0.225691 -0.216625 -0.104142 76 0 153
-0.328168 -0.655344 0.452387 0 127 127
0.250954 -0.018238 0.360740 153 0 76
0.096217 -0.018477 -0.231279 153 0 76
0.352842 -0.208025 0.083647 76 0 153
0.171443 -0.247195 -0.187062 153 0 76
-0.065755 -0.018353 0.476099 153 0 76
0.080877 -0.018417 0.075849 153 0 76
-0.313033 -0.255905 -0.172860 76 0 153
-0.087167 0.547327 -0.286578 76 0 153
0.194029 0.345567 -0.187450 76 0 153
-0.389951 -0.130390 0.146624 153 0 76
-0.268145 0.239902 -0.263782 153 76 0
0.038877 0.777213 -0.265526 153 76 0
-0.100322 0.064478 -0.283341 153 76 0
-0.328388 -0.323341 0.470460 0 127 127
0.122638 0.670884 -0.283749 76 0 153
0.342540 -0.525301 0.461946 76 153 0
-0.366124 -0.173827 0.477153 0 127 127
-0.046209 -0.018556 0.161144 153 0 76
-0.332435 -0.623281 0.425140 0 127 127
0.005868 -0.216625 -0.154863 76 0 153
-0.032169 -0.018326 0.322226 153 0 76
-0.009461 0.592999 -0.187387 76 0 153
-0.162577 -0.216625 0.097061 76 0 153
-0.378487 -0.496237 0.424626 0 127 127
0.248142 0.600659 -0.253472 153 76 0
-0.230952 -0.085117 0.508716 153 0 76
0.177463 -0.544140 -0.188416 153 0 76
-0.284338 -0.458884 -0.204330 76 0 153
-0.113735 0.081668 -0.218109 153 76 0
0.122704 -0.216625 -0.066814 76 0 153
-0.325739 -0.155252 0.477731 76 0 153
-0.043053 0.309891 -0.286578 76 0 153
-0.335894 -0.201756 0.409544 0 127 127
-0.227970 0.428622 -0.286578 76 0 153
0.171302 -0.449382 -0.203221 153 0 76
0.129136 -0.069843 -0.281821 153 0 76
0.267038 -0.088535 0.481510 153 0 76
-0.178545 -0.153196 -0.248394 76 0 153
0.236810 -0.264572 -0.184767 153 0 76
-0.095584 0.623129 -0.186781 76 0 153
0.041272 0.492318 -0.286578 76 0 153
-0.244359 -0.263383 -0.202579 76 0 153
0.217081 -0.255905 -0.163655 153 0 76
0.315386 0.442815 -0.205837 153 76 0
0.147289 -0.209535 -0.227435 153 0 76
-0.050391 0.547524 -0.286578 76 0 153
-0.297523 -0.752157 -0.167675 76 0 153
0.207927 0.383225 -0.187363 76 0 153
0.001796 -0.018238 0.455114 153 0 76
-0.024031 0.317426 -0.187045 76 0 153
-0.114577 0.252641 -0.186781 76 0 153
-0.389912 -0.208880 0.217414 76 0 153
-0.193458 0.515777 -0.186998 76 0 153
-0.336157 -0.216625 0.189079 76 0 153
-0.141952 -0.020696 -0.242301 153 0 76
0.292974 -0.770351 0.456665 76 153 0
0.228889 -0.283922 -0.211586 153 0 76
-0.389951 -0.173555 0.121224 76 0 153
0.326909 -0.599770 0.416278 76 153 0
0.099918 -0.028351 0.503596 153 0 76
0.183235 -0.208804 -0.227435 153 0 76
-0.359617 -0.216625 0.178156 76 0 153
-0.239191 -0.216625 -0.057298 76 0 153
0.170537 0.347423 -0.286578 76 0 153
-0.050047 -0.113714 -0.313379 153 0 76
0.048919 0.423774 -0.187383 76 0 153
-0.362294 -0.850529 0.455814 0 127 127
-0.091938 0.182217 -0.186781 76 0 153
0.136487 -0.018238 0.299853 153 0 76
0.115545 -0.216625 0.222974 76 0 153
0.321268 -0.027037 0.111324 153 0 76
-0.161580 0.057107 -0.276223 153 76 0
-0.255541 -0.672187 -0.152912 76 0 153
-0.291479 0.389922 -0.188516 76 0 153
0.132242 0.340972 -0.187450 76 0 153
-0.288107 -0.216625 0.309620 76 0 153
0.228155 0.587904 -0.259309 153 76 0
0.192467 -0.061912 -0.262135 153 0 76
-0.278547 -0.216625 0.469746 76 0 153
-0.020581 -0.018393 -0.014955 153 0 76
0.254761 -0.018238 0.240120 153 0 76
0.138228 -0.018238 -0.155134 153 0 76
-0.193233 0.474710 -0.286578 76 0 153
0.012690 -0.216625 0.237560 76 0 153
-0.356656 -0.418893 0.409749 0 127 127
0.302582 -0.752283 0.418604 76 153 0
-0.234851 -0.205714 -0.157328 76 0 153
-0.114756 0.635643 -0.286578 76 0 153
-0.214249 0.702169 -0.268941 153 76 0
0.180122 0.715847 -0.218276 153 76 0
-0.212180 -0.019081 -0.023556 153 0 76
0.203589 -0.154129 -0.250531 153 0 76
0.015059 0.200855 -0.187449 76 0 153
-0.359800 -0.340853 0.478908 0 127 127
-0.036300 -0.216625 0.033461 76 0 153
-0.180542 -0.109885 -0.262135 76 0 153
-0.241529 0.683390 -0.262765 153 76 0
-0.202740 0.374411 -0.187116 76 0 153
0.158076 0.540786 -0.286578 76 0 153
-0.036178 -0.146957 -0.315126 76 0 153
0.060608 0.642988 -0.187080 76 0 153
0.180259 -0.546823 -0.219870 153 0 76
0.043118 0.236823 -0.187450 76 0 153
0.030138 -0.145463 -0.311294 76 0 153
-0.047765 0.505157 -0.186841 76 0 153
0.159970 -0.152871 -0.227435 153 0 76
0.088824 -0.069257 -0.297717 153 0 76
0.353445 -0.162927 0.303276 76 0 153
0.212123 -0.091195 0.502639 153 0 76
0.171951 -0.128558 0.516382 153 0 76
-0.324835 0.557384 -0.239641 153 76 0
-0.170971 0.244267 -0.186781 76 0 153
0.077741 -0.122879 -0.304071 153 0 76
0.177172 -0.018644 0.449552 153 0 76
0.208210 -0.244833 -0.245909 153 0 76
0.223976 -0.678690 -0.218942 153 0 76
-0.182604 0.337577 -0.186781 76 0 153
0.074126 -0.216625 0.324363 76 0 153
-0.063743 -0.018238 0.455829 153 0 76
-0.284752 0.346328 -0.277321 76 0 153
-0.372516 -0.544436 0.420360 0 127 127
-0.257958 -0.711775 -0.153047 76 0 153
-0.138636 -0.019239 -0.048285 153 0 76
-0.046646 0.751349 -0.229320 153 76 0
-0.027400 -0.018366 0.272345 153 0 76
-0.094570 -0.216625 0.349519 76 0 153
-0.269045 -0.327949 -0.138586 76 0 153
0.297017 -0.023086 -0.048259 153 0 76
0.225704 -0.216625 0.119156 76 0 153
-0.370384 -0.216554 -0.009058 76 0 153
0.283306 -0.382609 0.444513 76 153 0
-0.116476 -0.216625 0.342604 76 0 153
-0.321384 -0.050620 -0.143426 153 0 76
-0.217800 0.673077 -0.211876 153 76 0
0.171450 -0.419556 -0.210977 153 0 76
-0.389951 -0.153145 0.430796 76 0 153
-0.120646 -0.018238 0.388701 153 0 76
0.054387 -0.018238 0.156148 153 0 76
0.320024 -0.150014 0.466085 76 153 0
-0.006539 0.595777 -0.286578 76 0 153
-0.115962 -0.018343 0.255795 153 0 76
-0.106543 -0.188474 -0.305909 76 0 153
-0.223673 -0.216625 0.116322 76 0 153
-0.252406 -0.477838 -0.147928 76 0 153
-0.369720 -0.218066 0.477153 0 127 127
0.221975 -0.018238 0.132694 153 0 76
-0.360342 -0.594111 0.471132 0 127 127
-0.341468 0.285396 -0.232655 153 76 0
-0.086637 0.603717 -0.186781 76 0 153
0.284102 -0.216625 -0.015385 76 0 153
0.207116 -0.670955 -0.228050 153 0 76
0.206125 -0.420762 -0.235792 153 0 76
0.165968 -0.216625 0.144473 76 0 153
-0.084376 -0.020947 0.495326 153 0 76
0.299107 0.321691 -0.239373 153 76 0
-0.061392 0.130434 -0.186781 76 0 153
0.184655 0.682716 -0.210539 153 76 0
0.208618 -0.018238 -0.004111 153 0 76
-0.298938 -0.216625 0.365459 76 0 153
-0.239232 -0.023215 -0.192522 153 0 76
0.142113 -0.216625 0.483617 76 0 153
0.340432 -0.794977 0.463983 76 153 0
-0.211126 -0.018906 0.112451 153 0 76
-0.072851 -0.216625 0.087528 76 0 153
-0.254017 -0.786137 -0.157012 76 0 153
0.235614 -0.018238 -0.025185 153 0 76
0.138935 -0.018333 0.058235 153 0 76
0.353382 -0.147514 0.187407 153 0 76
0.331036 -0.486191 0.472417 76 153 0
0.172888 -0.809890 -0.198114 153 0 76
-0.241006 0.099359 -0.242238 76 0 153
-0.265643 -0.302481 -0.150342 76 0 153
0.184521 0.484467 -0.286578 76 0 153
-0.119304 0.170157 -0.286578 76 0 153
-0.389951 -0.103653 0.435927 153 0 76
0.210441 -0.018238 0.415668 153 0 76
-0.241006 -0.005509 -0.230352 76 0 153
0.167041 -0.018238 -0.022472 153 0 76
-0.280874 -0.110559 -0.207367 153 0 76
-0.111578 -0.086861 0.536737 153 0 76
-0.028994 -0.018238 -0.166337 153 0 76
-0.152523 -0.216625 0.030583 76 0 153
0.124598 0.736046 -0.221009 153 76 0
-0.169781 -0.216625 -0.154087 76 0 153
-0.316218 -0.169934 0.438016 0 127 127
0.311254 -0.036861 -0.066779 153 0 76
0.146705 -0.117790 0.522905 153 0 76
0.155246 0.076273 -0.227435 153 0 76
-0.374209 -0.070451 -0.040729 153 0 76
-0.320840 -0.452730 0.438661 0 127 127
0.342990 -0.048537 0.201796 153 0 76
0.245069 0.550270 -0.197830 153 76 0
-0.080336 -0.085194 -0.309243 153 0 76
0.260669 -0.048341 0.472801 153 0 76
-0.158196 0.189508 -0.186781 76 0 153
0.170622 0.657353 -0.206878 153 76 0
-0.083241 0.556302 -0.187116 76 0 153
-0.239692 -0.216625 0.309961 76 0 153
0.191471 -0.018331 -0.169894 153 0 76
-0.262675 -0.489214 -0.206443 76 0 153
0.139982 0.662175 -0.204319 76 0 153
-0.282559 -0.150014 -0.154230 76 0 153
-0.056086 -0.038987 -0.295382 153 0 76
0.180663 -0.432875 -0.178138 153 0 76
-0.226049 0.299802 -0.286578 76 0 153
0.087520 -0.216625 -0.220761 76 0 153
-0.171311 0.338322 -0.286578 76 0 153
0.211661 0.483716 -0.286540 76 0 153
-0.087433 0.625711 -0.286578 76 0 153
0.242520 0.153977 -0.217855 153 76 0
-0.257913 -0.080934 0.498699 153 0 76
-0.051416 0.250820 -0.286578 76 0 153
-0.166782 0.249906 -0.286578 76 0 153
0.060438 0.657517 -0.286577 76 0 153
-0.034344 -0.018287 0.151516 153 0 76
-0.275446 0.143464 -0.234120 153 76 0
-0.239266 -0.018682 -0.051298 153 0 76
0.031985 0.504001 -0.286578 76 0 153
0.287750 -0.255905 0.410260 76 153 0
0.032108 -0.027920 0.511759 153 0 76
0.253183 -0.216625 0.358172 76 0 153
-0.376498 -0.244880 0.409544 0 127 127
0.307213 -0.520296 0.414714 76 153 0
0.311307 -0.021901 0.346493 153 0 76
0.177760 -0.764822 -0.186749 153 0 76
0.076452 0.461582 -0.286578 76 0 153
0.252076 -0.216625 0.211059 76 0 153
0.297324 -0.749389 0.461666 76 153 0
0.161954 0.395732 -0.286578 76 0 153
0.344665 -0.630442 0.451248 76 153 0
-0.105096 -0.216625 0.198870 76 0 153
0.086952 -0.018238 0.395559 153 0 76
0.189866 0.459698 -0.187208 76 0 153
0.021182 -0.216625 0.067897 76 0 153
0.210621 -0.216625 -0.147176 76 0 153
-0.334273 -0.726689 0.458829 0 127 127
0.013649 -0.018238 0.205777 153 0 76
0.018010 -0.018238 0.053382 153 0 76
-0.249289 -0.117182 0.502285 153 0 76
0.228216 -0.687015 -0.211308 153 0 76
0.132055 -0.216625 0.320875 76 0 153
0.341309 -0.045749 0.391415 153 0 76
-0.308523 -0.040535 0.464148 153 0 76
-0.161801 -0.216625 0.311306 76 0 153
-0.295937 -0.549049 -0.188679 76 0 153
0.313721 -0.405169 0.409485 76 153 0
0.352553 -0.171217 0.157844 76 0 153
0.293975 -0.504662 0.423853 76 153 0
0.156511 -0.216625 0.382866 76 0 153
-0.300180 -0.355988 -0.193522 76 0 153
0.166645 -0.104145 -0.262135 153 0 76
0.220215 -0.440711 -0.231266 153 0 76
-0.361871 -0.781267 0.462547 0 127 127
0.185547 -0.462072 -0.175500 153 0 76
-0.126105 -0.051901 -0.290465 153 0 76
-0.145304 -0.025492 0.497197 153 0 76
-0.189151 -0.216625 0.060245 76 0 153
-0.238826 -0.181074 -0.227435 76 0 153
-0.140555 -0.181467 -0.293945 76 0 153
0.066475 -0.216625 -0.097698 76 0 153
-0.112839 0.770632 -0.246750 153 76 0
-0.215509 0.535313 -0.286578 76 0 153
0.336719 -0.216622 0.364302 76 0 153
-0.204313 -0.018838 -0.192734 153 0 76
-0.289591 -0.758667 -0.198373 76 0 153
0.207383 -0.400278 -0.236250 153 0 76
0.313792 -0.682556 0.417915 76 153 0
-0.191873 -0.019126 0.045203 153 0 76
-0.389951 -0.113375 0.293448 153 0 76
-0.197223 -0.216625 0.260634 76 0 153
-0.061860 0.361268 -0.186781 76 0 153
0.228910 -0.723193 -0.203174 153 0 76
-0.139320 0.436773 -0.286578 76 0 153
-0.184750 0.072129 -0.273980 153 76 0
0.353445 -0.135046 0.179998 153 0 76
0.173077 0.334351 -0.187450 76 0 153
-0.258843 0.122420 -0.234554 153 76 0
-0.147760 -0.216625 0.310972 76 0 153
0.353445 -0.145425 0.401285 153 0 76
0.174209 -0.018238 -0.035590 153 0 76
-0.135766 -0.018572 0.253632 153 0 76
0.212242 -0.164994 -0.234084 76 0 153
0.006386 0.566818 -0.187112 76 0 153
-0.367132 -0.216625 0.263615 76 0 153
-0.168619 0.548659 -0.187252 76 0 153
0.280630 -0.018433 0.416102 153 0 76
0.178859 0.621186 -0.195352 76 0 153
0.122795 -0.031499 -0.259086 153 0 76
-0.319916 0.575193 -0.199989 153 76 0
0.209044 -0.041108 -0.217307 153 0 76
-0.336640 -0.703161 0.462351 0 127 127
0.199359 -0.745372 -0.226248 153 0 76
0.006511 -0.216625 0.333329 76 0 153
0.129309 -0.216625 -0.184551 76 0 153
0.109759 -0.018238 0.301155 153 0 76
0.138022 -0.019437 0.469577 153 0 76
-0.025546 -0.216625 -0.208620 76 0 153
0.300524 -0.397460 0.413626 76 153 0
-0.240324 -0.571026 -0.170897 76 0 153
0.256335 -0.018238 0.223815 153 0 76
-0.189992 0.290711 -0.186781 76 0 153
0.293719 -0.216625 0.250040 76 0 153
0.291595 -0.820302 0.447644 76 153 0
0.306950 0.482639 -0.190048 153 76 0
-0.282833 -0.828902 -0.161172 76 0 153
0.045546 -0.041352 -0.294111 153 0 76
0.240608 -0.176175 -0.186023 153 0 76
-0.281088 -0.820044 -0.150838 76 0 153
-0.268873 -0.813825 -0.206155 76 0 153
0.166300 -0.070879 0.516126 153 0 76
-0.070821 -0.053580 -0.303185 153 0 76
0.211594 -0.492260 -0.171192 153 0 76
0.077367 0.356436 -0.187367 76 0 153
0.195321 -0.018238 0.058574 153 0 76
0.260595 -0.018238 0.066908 153 0 76
0.309805 -0.292809 0.420265 76 153 0
0.188882 -0.341022 -0.234753 153 0 76
-0.378579 -0.587973 0.457067 0 127 127
-0.101358 0.083022 -0.283764 153 76 0
-0.284358 -0.315800 -0.203191 76 0 153
-0.009511 0.334498 -0.187118 76 0 153
0.156146 -0.053560 0.512860 153 0 76
0.085818 -0.175142 -0.301216 76 0 153
0.235666 -0.487468 -0.197760 153 0 76
-0.383633 -0.150014 0.411013 0 127 127
0.112725 0.104978 -0.209780 76 0 153
-0.262235 0.522104 -0.190004 76 0 153
0.264730 -0.018238 0.129600 153 0 76
0.003925 -0.018238 0.277837 153 0 76
0.038345 -0.216625 -0.175304 76 0 153
-0.182082 0.298834 -0.286578 76 0 153
0.037946 0.767554 -0.229058 153 76 0
0.352779 -0.078923 0.440304 153 0 76
-0.263064 -0.022389 0.453597 153 0 76
0.317305 -0.024482 0.401523 153 0 76
-0.116874 -0.018532 0.475044 153 0 76
0.075327 0.027555 -0.268953 153 76 0
0.285156 0.477163 -0.243595 153 76 0
0.348704 -0.462243 0.454755 76 153 0
0.083694 -0.216625 0.050517 76 0 153
-0.083738 0.412427 -0.286578 76 0 153
-0.213375 -0.019039 0.037285 153 0 76
0.301802 -0.216625 0.450209 76 0 153
0.330384 -0.361531 0.409940 76 153 0
-0.087254 -0.018812 0.033242 153 0 76
-0.241365 -0.216625 0.102969 76 0 153
-0.032527 0.419280 -0.186949 76 0 153
0.343788 -0.049655 0.142364 153 0 76
0.331284 -0.034251 0.248970 153 0 76
-0.103504 -0.018238 0.344854 153 0 76
0.236275 -0.475955 -0.199721 153 0 76
0.138470 0.086500 -0.244368 153 0 76
0.156519 -0.018238 0.034181 153 0 76
-0.224032 -0.185134 -0.178071 76 0 153
-0.227692 -0.107669 -0.262135 76 0 153
-0.104901 0.102645 -0.191087 76 0 153
0.025690 -0.216625 0.078529 76 0 153
-0.241006 -0.062778 -0.247615 76 0 153
-0.283444 -0.150014 -0.200528 76 0 153
-0.359098 -0.122598 -0.087845 153 0 76
0.218286 -0.206339 0.499822 76 0 153
0.026420 0.248583 -0.286578 76 0 153
-0.389951 -0.189156 0.396645 76 0 153
-0.154681 0.553509 -0.187116 76 0 153
-0.380713 -0.315200 0.458065 0 127 127
0.347767 -0.058226 0.450372 153 0 76
0.320805 -0.026359 0.412746 153 0 76
-0.325335 -0.438168 0.425220 0 127 127
-0.251257 -0.695062 -0.157069 76 0 153
-0.026448 -0.018238 -0.222292 153 0 76
-0.389951 -0.135468 0.359661 153 0 76
-0.021379 0.118250 -0.286577 76 0 153
0.172668 -0.110017 0.516008 153 0 76
-0.126039 0.519306 -0.186833 76 0 153
0.346851 -0.056083 0.045850 153 0 76
0.198271 -0.191771 -0.160234 153 0 76
-0.201542 -0.216625 -0.048183 76 0 153
0.288019 -0.216625 0.428519 76 0 153
-0.323533 -0.033184 -0.108854 153 0 76
0.121089 0.513730 -0.187450 76 0 153
-0.390268 -0.252140 0.465749 0 127 127
0.085527 -0.216625 0.435861 76 0 153
0.213130 -0.142536 -0.233416 76 0 153
0.155897 -0.104811 -0.273122 153 0 76
-0.387318 -0.066827 0.350139 153 0 76
-0.112550 -0.018906 -0.102324 153 0 76
-0.188867 -0.019913 0.470854 153 0 76
-0.310992 0.201854 -0.225209 153 76 0
-0.308825 -0.216625 -0.123750 76 0 153
-0.199849 -0.019211 0.085087 153 0 76
0.101811 -0.216625 0.417510 76 0 153
-0.183527 0.191821 -0.186797 76 0 153
0.195520 -0.506993 -0.172005 153 0 76
0.202485 -0.216625 0.234037 76 0 153
0.322608 -0.506097 0.412519 76 153 0
-0.316218 -0.249773 0.462121 0 127 127
0.122993 0.652794 -0.285877 76 0 153
0.125466 -0.216625 0.000635 76 0 153
-0.374310 -0.255905 0.412914 0 127 127
0.138336 -0.018238 0.213460 153 0 76
0.022369 -0.127930 -0.312255 76 0 153
0.065606 -0.216625 -0.270293 76 0 153
-0.006144 0.754953 -0.229775 153 76 0
0.217143 -0.018238 0.162518 153 0 76
0.342651 -0.771662 0.429652 76 153 0
0.076079 0.078471 -0.222483 153 76 0
0.277389 0.215968 -0.210068 153 76 0
0.353445 -0.134802 0.149057 153 0 76
-0.165800 -0.064832 0.523829 153 0 76
0.061700 -0.216625 0.242736 76 0 153
-0.382245 -0.053327 0.284647 153 0 76
0.114687 0.451367 -0.286578 76 0 153
0.242875 -0.018238 -0.059905 153 0 76
0.121492 -0.018238 0.195692 153 0 76
0.142563 0.077665 -0.227435 153 0 76
-0.009588 -0.018405 0.302309 153 0 76
0.175392 -0.316345 -0.215839 153 0 76
-0.147782 -0.216625 -0.146613 76 0 153
-0.144411 -0.216625 0.067407 76 0 153
-0.078142 0.281005 -0.186781 76 0 153
0.240273 0.562853 -0.257844 153 76 0
0.047577 -0.018238 -0.061140 153 0 76
-0.100796 0.531107 -0.286578 76 0 153
-0.151934 -0.216625 0.043022 76 0 153
-0.345913 -0.338713 0.407825 0 127 127
-0.284716 -0.213634 -0.143142 76 0 153
-0.281488 -0.390632 -0.207739 76 0 153
0.009905 -0.018238 0.441884 153 0 76
0.222808 -0.294691 -0.218252 153 0 76
-0.103726 -0.216625 0.399535 76 0 153
0.344803 -0.076243 -0.006614 153 0 76
0.180466 -0.216625 0.345796 76 0 153
0.107755 0.179059 -0.187116 76 0 153
-0.241006 -0.087599 -0.254409 76 0 153
0.087450 0.233487 -0.187283 76 0 153
0.159386 0.103480 -0.230088 153 0 76
-0.254434 -0.749184 -0.198977 76 0 153
-0.018462 -0.216625 -0.077309 76 0 153
0.023454 -0.186201 -0.312133 76 0 153
-0.320044 -0.259182 0.456423 0 127 127
0.094910 0.675327 -0.187156 76 0 153
0.323264 -0.216625 0.386922 76 0 153
0.167512 -0.262729 -0.203466 153 0 76
0.211246 -0.018238 0.221977 153 0 76
-0.241006 -0.204384 -0.256047 76 0 153
0.222558 -0.666156 -0.221160 153 0 76
-0.068223 -0.216625 -0.082542 76 0 153
-0.382790 -0.199465 0.409544 0 127 127
0.214965 0.240706 -0.193550 153 76 0
0.195800 -0.261590 -0.166408 153 0 76
0.091609 -0.018238 0.351646 153 0 76
0.139795 -0.193994 -0.279698 76 0 153
0.226565 -0.321353 -0.231195 153 0 76
0.227948 -0.018238 0.286822 153 0 76
0.279268 -0.216625 -0.098659 76 0 153
-0.287732 -0.340432 -0.144109 76 0 153
-0.350337 -0.565481 0.414142 0 127 127
-0.160914 0.636445 -0.286578 76 0 153
-0.389951 -0.127153 0.061508 153 0 76
0.093780 -0.125188 -0.298045 153 0 76
0.100285 -0.119273 0.532998 153 0 76
-0.249675 -0.198711 -0.142504 76 0 153
0.149334 -0.216625 0.193983 76 0 153
-0.281937 -0.216625 0.347252 76 0 153
0.036850 -0.101302 -0.310441 153 0 76
-0.129271 -0.201925 -0.298446 76 0 153
-0.287190 0.474936 -0.268167 76 0 153
0.155894 -0.178030 -0.262135 153 0 76
-0.187805 -0.018872 0.290941 153 0 76
0.043884 -0.018238 0.213524 153 0 76
-0.191885 -0.187446 -0.262135 76 0 153
0.122207 -0.018238 -0.175333 153 0 76
0.228385 -0.166090 -0.173800 153 0 76
-0.292863 -0.300096 -0.167514 76 0 153
-0.217371 0.103480 -0.250536 76 0 153
-0.389951 -0.135252 0.293166 153 0 76
-0.055531 -0.216625 0.390931 76 0 153
-0.389950 -0.196787 0.177906 76 0 153
-0.035939 -0.216625 -0.045533 76 0 153
0.011044 -0.216625 -0.283390 76 0 153
0.330881 -0.124774 -0.069873 153 0 76
0.293825 -0.350504 0.416982 76 153 0
0.292237 0.326439 -0.185231 153 76 0
-0.304593 -0.150014 -0.177872 76 0 153
-0.012281 0.062427 -0.225316 153 76 0
-0.253875 -0.150014 -0.165360 76 0 153
0.355330 -0.241632 0.418454 76 153 0
-0.196080 0.032821 -0.262135 76 0 153
-0.382417 -0.571367 0.445139 0 127 127
-0.134919 -0.019238 -0.105612 153 0 76
0.209179 -0.342135 -0.237782 153 0 76
-0.273828 -0.303803 -0.200644 76 0 153
0.291350 -0.018497 0.134157 153 0 76
0.045025 -0.212119 0.540637 76 0 153
0.025177 0.403559 -0.286578 76 0 153
-0.190707 -0.019239 0.023903 153 0 76
0.322340 -0.168066 -0.088248 76 0 153
-0.342860 -0.216625 -0.051710 76 0 153
-0.293646 -0.018572 0.067095 153 0 76
0.233684 -0.154521 -0.218166 76 0 153
-0.231236 -0.007859 -0.262135 76 0 153
-0.259999 -0.216625 -0.118128 76 0 153
-0.257420 -0.216625 0.455120 76 0 153
-0.037962 -0.176526 -0.314940 76 0 153
0.269089 0.231621 -0.191636 153 76 0
0.188345 0.669352 -0.266498 153 76 0
-0.053068 0.596694 -0.286578 76 0 153
-0.305808 -0.326413 -0.173801 76 0 153
-0.381725 -0.759319 0.431876 0 127 127
0.157039 0.147543 -0.278785 76 0 153
0.098020 -0.216625 0.347958 76 0 153
0.149879 -0.212365 -0.262135 153 0 76
-0.389951 -0.145040 0.148978 153 0 76
-0.320698 0.574214 -0.227542 153 76 0
0.298631 0.398281 -0.183312 153 76 0
0.134514 0.113148 -0.277282 153 76 0
-0.360439 -0.284651 0.468720 0 127 127
0.169140 -0.355621 -0.195617 153 0 76
-0.330094 0.246369 -0.225922 153 76 0
0.263204 -0.018465 -0.071919 153 0 76
0.161091 -0.215178 -0.256951 153 0 76
0.322335 -0.321650 0.479825 76 153 0
-0.319396 -0.409338 0.439607 0 127 127
-0.207806 0.082288 -0.227435 76 0 153
0.196666 -0.651978 -0.227825 153 0 76
0.219095 -0.386778 -0.233491 153 0 76
0.082407 0.228574 -0.286578 76 0 153
-0.257072 0.414856 -0.286568 76 0 153
-0.257510 -0.018238 0.403413 153 0 76
0.176944 -0.318134 -0.182729 153 0 76
0.300648 -0.066894 0.474351 153 0 76
0.302155 -0.157292 -0.131550 76 0 153
-0.193923 -0.216625 -0.026931 76 0 153
0.100548 -0.216625 0.282035 76 0 153
-0.348929 -0.726185 0.467480 0 127 127
-0.143128 0.518440 -0.186816 76 0 153
-0.239202 -0.535115 -0.171121 76 0 153
-0.299328 -0.396695 -0.192502 76 0 153
0.286631 -0.322339 0.424390 76 153 0
-0.090798 0.497448 -0.286578 76 0 153
0.207356 -0.834846 -0.184065 153 0 76
0.220836 -0.216625 0.270766 76 0 153
0.146177 -0.091270 -0.227435 153 0 76
-0.254849 0.565072 -0.194867 76 0 153
-0.022259 0.781823 -0.260883 153 76 0
0.073664 0.224822 -0.187304 76 0 153
-0.338005 0.508909 -0.238392 153 76 0
0.141726 0.461278 -0.187450 76 0 153
-0.287450 -0.216625 0.290096 76 0 153
0.234831 -0.216625 0.271286 76 0 153
0.338468 -0.194835 -0.045624 76 0 153
0.025701 -0.216625 0.138374 76 0 153
0.243026 -0.191980 0.490506 76 0 153
0.115919 0.075023 -0.221617 153 76 0
-0.348340 -0.544183 0.413756 0 127 127
0.281280 -0.223118 0.469295 76 153 0
0.022843 -0.216625 0.195485 76 0 153
-0.349599 -0.348967 0.479045 0 127 127
-0.056805 0.586639 -0.186782 76 0 153
-0.164507 -0.020551 -0.232289 153 0 76
0.307933 -0.820519 0.468137 76 153 0
-0.241006 -0.046135 -0.232859 76 0 153
-0.035687 -0.216625 -0.188159 76 0 153
-0.177886 -0.018906 -0.028867 153 0 76
-0.378867 -0.458463 0.463447 0 127 127
-0.216338 0.103480 -0.230865 76 0 153
0.276808 -0.216625 0.367744 76 0 153
-0.263545 0.153387 -0.259070 153 76 0
-0.235492 0.575147 -0.285974 76 0 153
-0.254479 -0.244643 -0.208519 76 0 153
-0.243893 -0.658523 -0.183727 76 0 153
0.292877 0.444064 -0.241353 153 76 0
-0.239240 -0.520454 -0.183326 76 0 153
-0.389951 -0.120125 0.088464 153 0 76
0.127499 0.364990 -0.187450 76 0 153
0.288703 -0.531811 0.435670 76 153 0
0.089374 -0.018648 -0.206791 153 0 76
-0.160573 0.318176 -0.286578 76 0 153
-0.114735 -0.216625 0.372066 76 0 153
-0.115860 0.409822 -0.186782 76 0 153
0.263392 -0.020276 -0.103366 153 0 76
0.164478 0.261413 -0.286578 76 0 153
-0.080780 -0.019038 -0.188071 153 0 76
0.146443 -0.215178 -0.238442 153 0 76
0.352708 -0.166804 0.057217 76 0 153
-0.319691 0.576962 -0.211180 153 76 0
-0.161903 0.591515 -0.286578 76 0 153
-0.092166 -0.018639 -0.067999 153 0 76
0.258283 -0.216625 0.104785 76 0 153
0.135830 -0.216625 0.175739 76 0 153
-0.241631 -0.309951 -0.179772 76 0 153
-0.165606 -0.216599 -0.266287 76 0 153
-0.316218 -0.205224 0.410117 0 127 127
0.123433 -0.088353 0.528601 153 0 76
0.347446 -0.086506 0.004600 153 0 76
-0.189088 0.416854 -0.187116 76 0 153
-0.073243 -0.216625 0.069430 76 0 153
0.317968 -0.255905 0.463825 76 153 0
0.088655 -0.018238 0.297708 153 0 76
0.047952 0.147071 -0.286578 76 0 153
0.199628 0.592784 -0.274104 76 0 153
-0.038879 0.437380 -0.186831 76 0 153
0.153429 -0.018238 0.394149 153 0 76
-0.220786 -0.025653 -0.212641 153 0 76
0.281280 -0.188714 0.414710 76 153 0
-0.388521 -0.095407 0.027765 153 0 76
-0.390268 -0.153985 0.452621 0 127 127
-0.314965 -0.018247 0.174966 153 0 76
0.138470 -0.169534 -0.234638 153 0 76
-0.203018 -0.040572 -0.227435 76 0 153
0.330168 -0.749375 0.418182 76 153 0
0.075177 0.315299 -0.187449 76 0 153
0.060233 -0.156597 -0.307468 76 0 153
-0.354169 -0.326256 0.480093 0 127 127
-0.005846 0.781304 -0.276659 153 76 0
0.284379 -0.339993 0.430821 76 153 0
-0.105692 0.416021 -0.186781 76 0 153
0.346575 -0.324055 0.466658 76 153 0
0.011448 -0.018238 0.234945 153 0 76
0.116864 -0.018238 -0.103534 153 0 76
-0.361456 -0.673483 0.468173 0 127 127
-0.259276 -0.216621 0.485663 76 0 153
-0.390268 -0.240897 0.416848 0 127 127
0.351233 -0.438020 0.447446 76 153 0
0.317460 0.413660 -0.196671 153 76 0
0.226460 -0.024335 0.458654 153 0 76
0.355330 -0.193799 0.429098 76 153 0
0.181999 -0.520736 -0.180659 153 0 76
-0.116699 -0.018757 -0.192794 153 0 76
0.056896 -0.216625 -0.211111 76 0 153
0.043812 0.776466 -0.253890 153 76 0
0.180336 -0.029388 -0.262135 153 0 76
-0.212023 -0.104953 0.515248 153 0 76
0.039862 -0.018238 0.031030 153 0 76
0.342366 -0.381080 0.468874 76 153 0
0.297360 -0.690070 0.458067 76 153 0
-0.038347 -0.091649 0.543347 153 0 76
0.217495 -0.216625 0.185694 76 0 153
-0.298691 -0.051702 0.474217 153 0 76
0.307395 0.426773 -0.181181 153 76 0
-0.083330 0.382816 -0.286578 76 0 153
-0.196316 -0.216625 0.382876 76 0 153
0.220821 -0.844374 -0.203613 153 0 76
-0.060989 0.731601 -0.224124 153 76 0
-0.236970 0.660913 -0.208448 153 76 0
-0.346442 -0.336494 0.479009 0 127 127
0.046279 -0.216625 0.017961 76 0 153
0.166344 -0.018238 0.172652 153 0 76
0.203780 -0.774556 -0.176212 153 0 76
-0.299434 -0.182092 -0.157861 76 0 153
-0.178545 -0.011108 -0.257463 76 0 153
0.309477 -0.291400 0.466503 76 153 0
-0.326360 -0.649261 0.442157 0 127 127
-0.375521 -0.822051 0.430232 0 127 127
-0.276906 0.323021 -0.188283 76 0 153
0.199345 0.103480 -0.230878 153 0 76
-0.359295 -0.027592 0.151439 153 0 76
0.355330 -0.236357 0.458277 76 153 0
0.194684 -0.631585 -0.227670 153 0 76
-0.198949 -0.026675 -0.230072 153 0 76
0.170535 -0.427024 -0.202561 153 0 76
0.285821 -0.018303 0.060286 153 0 76
-0.099088 0.446316 -0.186781 76 0 153
0.345306 -0.349462 0.419642 76 153 0
0.240850 -0.330733 -0.200915 153 0 76
-0.243480 -0.691919 -0.174863 76 0 153
-0.260315 -0.727998 -0.198173 76 0 153
0.212522 -0.018238 0.311331 153 0 76
-0.332542 -0.246694 0.409544 0 127 127
-0.085283 -0.018881 -0.008861 153 0 76
0.353006 -0.177271 0.354366 76 0 153
0.067739 -0.018238 0.172003 153 0 76
0.161683 -0.022003 -0.218831 153 0 76
-0.125716 0.219505 -0.286578 76 0 153
-0.245977 0.276441 -0.286441 76 0 153
-0.253818 -0.495697 -0.203066 76 0 153
-0.047095 -0.032792 0.519672 153 0 76
-0.140349 0.382448 -0.286578 76 0 153
0.180956 -0.484451 -0.223868 153 0 76
0.043542 0.200560 -0.286578 76 0 153
0.131608 -0.018238 0.415730 153 0 76
0.343087 -0.216595 0.183319 76 0 153
-0.381440 -0.103175 0.476431 153 0 76
-0.384234 -0.350360 0.461810 0 127 127
0.224509 -0.018238 -0.109684 153 0 76
0.002085 -0.216625 0.399265 76 0 153
0.089662 0.188430 -0.286578 76 0 153
-0.181136 0.054344 -0.266131 153 76 0
-0.126503 -0.090477 -0.299466 153 0 76
-0.058293 0.148298 -0.186781 76 0 153
0.179807 -0.775951 -0.202726 153 0 76
0.067345 -0.039856 0.521693 153 0 76
-0.389951 -0.143604 0.325070 153 0 76
0.084586 0.685486 -0.285721 76 0 153
-0.389038 -0.076366 0.436803 153 0 76
-0.370105 -0.741063 0.425986 0 127 127
