ply
format ascii 1.0
element vertex 1271
property float x
property float y
property float z
property uchar red
property uchar green
property uchar blue
end_header
0.161279 -0.047703 -0.140772 127 0 127
-0.375090 0.203030 -0.278977 127 0 127
0.304838 -0.125270 0.312153 0 255 0
0.432262 -0.726069 0.319833 153 76 0
0.246741 0.369509 -0.400768 127 0 127
-0.025308 0.324476 -0.305321 127 0 127
0.203459 -0.152456 0.193220 0 255 0
0.043232 -0.083877 0.371788 0 255 0
-0.106092 -0.053892 -0.141533 127 0 127
-0.384022 -0.538990 -0.231331 153 0 76
0.221366 0.001741 0.024183 0 255 0
0.156904 -0.065692 0.311076 0 255 0
0.341253 0.280093 -0.290991 127 0 127
0.212272 0.519438 -0.411374 127 0 127
-0.229112 -0.107402 0.004389 0 255 0
-0.430225 -0.042766 0.422937 0 255 0
-0.308000 -0.083406 0.520023 0 255 0
0.272829 0.180912 -0.323826 127 0 127
0.382000 0.399900 -0.349494 127 0 127
0.254558 0.129642 -0.300528 127 0 127
-0.190307 0.018969 0.010508 0 255 0
0.325594 0.302406 -0.298409 127 0 127
0.084387 -0.138843 0.039187 0 255 0
-0.335488 0.102484 -0.282113 127 0 127
0.234126 0.247466 -0.363215 127 0 127
-0.108464 0.472586 -0.459309 127 0 127
-0.161491 0.026484 0.003921 0 255 0
0.346399 -0.467175 -0.204879 76 0 153
0.232368 -0.126405 0.568606 0 255 0
0.052819 -0.053438 0.255010 0 255 0
0.272418 -0.020470 0.075588 0 255 0
-0.175247 -0.152871 0.136231 0 255 0
0.100013 -0.182456 0.373642 0 255 0
-0.058491 0.124507 -0.132774 127 0 127
0.335005 -0.425103 0.539356 0 127 127
0.252757 -0.069132 -0.078303 0 255 0
0.385604 -0.083789 0.466901 0 255 0
-0.080305 -0.147563 -0.088695 0 0 255
0.160555 -0.167243 0.444707 0 255 0
-0.288245 0.008276 -0.206639 127 0 127
0.075498 -0.148980 -0.088159 0 0 255
-0.450167 -0.728512 -0.242076 76 0 153
0.372038 -0.044454 0.272134 0 255 0
-0.250519 0.427389 -0.417854 127 0 127
0.331314 -0.398821 0.520310 0 127 127
0.125326 0.477802 -0.399410 127 0 127
0.127475 0.266837 -0.393270 127 0 127
-0.009486 0.433079 -0.458155 127 0 127
-0.312527 -0.124013 0.444421 0 255 0
0.125431 -0.027366 0.155737 0 255 0
0.431321 -0.740140 0.117211 153 76 0
0.393635 0.511483 -0.351138 127 0 127
-0.315813 -0.125736 0.387184 0 255 0
-0.300969 0.236014 -0.348787 127 0 127
-0.172491 0.437623 -0.373660 127 0 127
0.122394 0.387374 -0.435215 127 0 127
-0.191554 -0.143929 -0.093949 0 0 255
0.305237 0.443803 -0.352225 127 0 127
-0.026809 0.275930 -0.407256 127 0 127
-0.147993 -0.151815 0.111287 0 255 0
-0.388563 0.044521 -0.246880 127 0 127
0.290280 -0.047448 0.242663 0 255 0
0.341600 0.021231 -0.149424 127 0 127
0.260362 -0.118760 0.571199 0 255 0
0.278996 0.532105 -0.402175 127 0 127
-0.426441 0.427353 -0.337648 127 0 127
0.338116 0.261177 -0.284572 127 0 127
0.247407 0.420577 -0.412412 127 0 127
-0.158624 -0.064409 -0.119275 0 255 0
-0.319342 0.352881 -0.323863 127 0 127
0.334988 -0.083320 0.063558 0 255 0
-0.290908 0.486143 -0.379789 127 0 127
-0.132926 0.434605 -0.448260 127 0 127
0.398633 -0.043448 0.021600 0 255 0
0.193664 0.051880 -0.073865 127 0 127
-0.169528 -0.166243 0.218528 0 255 0
0.341964 -0.431451 -0.208236 76 0 153
-0.290481 -0.137004 0.331921 0 255 0
-0.042376 -0.144647 0.046840 0 255 0
0.398174 0.472401 -0.353424 127 0 127
0.428370 -0.727366 0.464196 153 76 0
-0.180266 0.006507 0.045525 0 255 0
-0.289261 -0.253996 -0.126339 153 0 76
-0.287766 0.021530 -0.220040 127 0 127
0.401377 0.327316 -0.301047 127 0 127
0.197655 -0.164301 0.340683 0 255 0
0.054373 0.212979 -0.221728 127 0 127
-0.070784 0.376679 -0.440796 127 0 127
-0.026475 -0.022787 0.152496 0 255 0
0.399377 -0.050509 0.434212 0 255 0
-0.408223 -0.045246 -0.018758 0 255 0
0.392893 -0.037527 0.113134 0 255 0
0.408600 -0.049248 0.454353 0 255 0
-0.003490 0.121312 -0.323071 127 0 127
0.202374 -0.154323 0.478294 0 127 127
-0.359765 -0.056388 -0.055312 0 255 0
-0.324714 -0.050193 0.294509 0 255 0
0.047189 -0.023268 -0.186765 127 0 127
0.129326 -0.040789 0.203963 0 255 0
-0.313524 -0.109633 0.132186 0 255 0
0.333194 -0.066857 -0.024690 0 255 0
-0.295417 -0.282105 0.499675 76 153 0
-0.397956 -0.046828 0.375229 0 255 0
-0.075543 0.115719 -0.124103 127 0 127
-0.208814 -0.092097 -0.047217 0 255 0
0.085955 -0.145922 0.062011 0 255 0
0.018844 -0.155626 0.565046 0 255 0
0.174406 -0.144147 0.491028 0 127 127
-0.085936 -0.042711 -0.158990 127 0 127
-0.218256 -0.141767 0.132321 0 255 0
-0.299554 -0.065621 -0.069361 0 255 0
-0.044630 0.429212 -0.374184 127 0 127
-0.076886 -0.184414 0.268657 0 255 0
-0.321953 -0.008062 -0.185017 127 0 127
0.384607 0.024120 -0.218606 127 0 127
-0.193341 0.218424 -0.243799 127 0 127
0.010777 0.111621 -0.315707 127 0 127
0.286604 -0.084987 0.493141 0 255 0
0.038227 -0.169783 0.146244 0 255 0
0.418614 -0.678476 -0.283755 76 0 153
0.312627 -0.355546 -0.164030 76 0 153
0.221746 0.044290 -0.077967 127 0 127
0.370829 -0.090037 0.502856 0 255 0
-0.323875 -0.363843 0.511485 76 153 0
-0.261242 -0.079364 0.438955 0 255 0
0.337855 0.483000 -0.359665 127 0 127
-0.015871 -0.175966 0.484292 0 255 0
-0.108323 -0.164978 0.145237 0 255 0
-0.301888 -0.073282 0.448825 0 255 0
-0.263185 -0.028539 0.144894 0 255 0
-0.311776 -0.078263 -0.023142 0 255 0
0.400077 -0.059488 0.541726 0 255 0
-0.076915 -0.005730 0.100902 0 255 0
-0.035444 0.558762 -0.459306 127 0 127
0.432287 -0.726075 -0.109387 153 76 0
0.104877 -0.065733 0.303624 0 255 0
0.178703 -0.169147 0.357327 0 255 0
-0.334923 0.489717 -0.395929 127 0 127
-0.127653 -0.172362 0.452290 0 255 0
-0.007066 -0.147701 -0.088621 0 0 255
0.099818 -0.074208 0.339177 0 255 0
-0.349487 -0.106779 0.256853 0 255 0
-0.415927 -0.051225 0.096291 0 255 0
-0.163239 0.048193 -0.258341 127 0 127
0.427415 -0.045545 0.319033 0 255 0
0.288436 0.099317 -0.192266 127 0 127
-0.003472 -0.189341 0.321390 0 255 0
-0.449796 -0.738281 -0.105535 76 0 153
-0.244790 0.327489 -0.312525 127 0 127
-0.361353 -0.042040 0.243457 0 255 0
-0.127380 -0.041910 -0.156208 127 0 127
0.208375 0.056698 -0.256907 127 0 127
-0.230543 -0.157310 0.349702 0 255 0
0.202577 -0.069938 -0.094270 0 255 0
0.205189 0.557643 -0.447060 127 0 127
0.260422 0.196014 -0.244120 127 0 127
-0.076053 0.151238 -0.342371 127 0 127
0.097816 -0.154599 0.492969 0 127 127
-0.407220 0.245524 -0.311506 127 0 127
0.355668 0.197835 -0.268509 127 0 127
0.279874 0.001091 -0.194117 127 0 127
-0.133212 -0.117434 -0.012273 0 255 0
-0.194171 -0.057376 -0.124610 0 255 0
-0.047742 -0.178289 0.464404 0 255 0
0.422413 -0.039980 0.248161 0 255 0
0.141073 -0.153350 0.493870 0 127 127
-0.149810 0.293983 -0.403829 127 0 127
0.031372 -0.122070 -0.016497 0 255 0
0.385237 -0.061600 0.117810 0 255 0
-0.159889 -0.045910 0.231661 0 255 0
0.103151 0.532612 -0.437003 127 0 127
-0.394250 -0.015132 -0.184296 127 0 127
0.252099 -0.153306 0.407998 255 0 0
0.178596 -0.150969 -0.105743 0 0 255
0.039645 0.418619 -0.366678 127 0 127
-0.205821 0.565614 -0.446735 127 0 127
-0.244063 -0.021397 0.116876 0 255 0
-0.294531 -0.057789 0.330489 0 255 0
-0.176656 -0.090737 -0.061800 0 255 0
0.014914 -0.114051 0.484188 0 255 0
-0.307942 0.533097 -0.411859 127 0 127
-0.305215 0.416584 -0.348378 127 0 127
0.069634 0.566496 -0.474138 127 0 127
-0.251574 -0.147082 0.259541 204 51 127
0.382714 -0.056566 0.049917 0 255 0
-0.061429 -0.187303 0.328271 0 255 0
-0.000864 0.349070 -0.435152 127 0 127
0.156518 0.310861 -0.404946 127 0 127
-0.383691 -0.011087 -0.127664 127 0 127
-0.067486 -0.184448 0.401036 0 255 0
0.269254 0.479155 -0.416595 127 0 127
0.198181 0.091409 -0.284647 127 0 127
-0.100582 -0.183277 0.294634 0 255 0
-0.401692 -0.027212 -0.079838 0 255 0
0.054275 -0.099597 0.434810 0 255 0
0.434675 -0.740078 -0.249676 153 76 0
0.380217 0.052791 -0.243141 127 0 127
0.344856 -0.081869 0.085022 0 255 0
-0.248337 -0.092460 0.495262 0 255 0
0.369657 0.010844 -0.177215 127 0 127
0.097666 0.041738 -0.254118 127 0 127
-0.101424 -0.149880 0.075268 0 255 0
0.060001 -0.159695 0.546286 0 255 0
-0.041940 0.083434 -0.076412 127 0 127
-0.224036 0.076293 -0.277087 127 0 127
0.356203 -0.010632 -0.105357 0 255 0
0.080211 -0.185021 0.324672 0 255 0
-0.119060 0.248542 -0.255221 127 0 127
0.088925 0.020361 0.028964 0 255 0
-0.283541 0.276947 -0.292741 127 0 127
-0.348580 -0.029375 0.104069 0 255 0
0.251017 -0.178748 0.497736 0 127 127
0.375860 -0.069878 0.562362 0 255 0
-0.165429 0.255246 -0.386827 127 0 127
0.285413 0.297649 -0.295827 127 0 127
0.251495 -0.087724 0.469587 0 255 0
0.391421 -0.595009 -0.270518 76 0 153
-0.094529 -0.041734 0.214278 0 255 0
-0.275931 -0.117345 0.087680 0 255 0
-0.305399 -0.030183 0.139141 0 255 0
-0.322527 -0.103208 0.561183 0 255 0
-0.186034 -0.159509 0.471547 0 255 0
-0.418355 -0.652589 -0.272813 153 0 76
0.320816 0.188821 -0.256902 127 0 127
-0.392555 0.132489 -0.271200 127 0 127
-0.280222 -0.223170 -0.134319 153 0 76
0.267469 0.147667 -0.308945 127 0 127
0.361626 -0.054744 -0.040759 0 255 0
-0.237945 -0.141932 0.163653 0 255 0
0.066096 0.083709 -0.292709 127 0 127
-0.405943 -0.040267 0.251474 0 255 0
-0.277270 -0.091707 -0.012297 0 255 0
0.407136 -0.048896 0.167491 0 255 0
0.181262 0.320150 -0.303684 127 0 127
0.190963 0.081064 -0.117476 127 0 127
-0.442412 -0.718465 -0.296807 153 0 76
-0.316967 0.079769 -0.182327 127 0 127
0.309074 -0.070433 0.433262 0 255 0
-0.301760 -0.298266 -0.143220 153 0 76
0.135823 -0.172834 0.427595 0 255 0
0.378607 -0.031707 -0.028200 0 255 0
-0.331974 0.398989 -0.338179 127 0 127
-0.249536 0.495864 -0.393452 127 0 127
-0.118463 0.128946 -0.324515 127 0 127
-0.000442 -0.097725 0.423092 0 255 0
0.027962 -0.156571 0.086226 0 255 0
0.297351 -0.015953 0.026342 0 255 0
0.192475 -0.075565 0.370099 0 255 0
0.230684 -0.079981 0.411714 0 255 0
-0.196197 0.196235 -0.354173 127 0 127
-0.424359 -0.684886 0.579604 76 153 0
-0.251650 -0.148609 -0.046297 204 51 127
-0.195274 -0.134627 0.568817 0 255 0
-0.389846 -0.028089 0.026683 0 255 0
0.426645 -0.044129 0.448126 0 255 0
-0.240743 -0.080810 -0.060570 0 255 0
-0.256478 0.374701 -0.334805 127 0 127
-0.193182 -0.156866 0.488645 0 127 127
0.025350 0.447987 -0.386245 127 0 127
-0.321495 -0.344286 0.508083 76 153 0
-0.159311 -0.016529 0.120265 0 255 0
-0.267921 -0.052497 0.280269 0 255 0
-0.213038 -0.042453 0.217770 0 255 0
-0.448029 -0.739584 0.121205 76 0 153
-0.141764 0.413001 -0.360998 127 0 127
0.076737 0.157942 -0.344525 127 0 127
-0.167320 -0.170368 0.254448 0 255 0
0.302076 0.313609 -0.363435 127 0 127
0.175241 -0.133664 0.064709 0 255 0
-0.400598 -0.034997 0.140230 0 255 0
0.437673 -0.738312 0.199918 153 76 0
0.332685 0.066999 -0.252857 127 0 127
0.009013 -0.058733 0.274242 0 255 0
-0.201499 -0.108935 -0.008643 0 255 0
0.341834 -0.012695 -0.174368 127 0 127
-0.328889 0.101817 -0.211994 127 0 127
-0.367250 -0.038750 -0.130084 127 0 127
0.111165 0.239757 -0.384475 127 0 127
-0.373169 -0.497724 0.550244 76 153 0
-0.045588 0.260260 -0.259373 127 0 127
-0.163701 0.305299 -0.405802 127 0 127
-0.266365 0.300291 -0.380203 127 0 127
0.018148 0.446910 -0.461062 127 0 127
0.188026 -0.164442 0.270158 0 255 0
-0.146713 -0.003330 -0.207121 127 0 127
0.046254 -0.000945 0.087374 0 255 0
-0.304387 0.505289 -0.410097 127 0 127
0.175048 -0.090904 0.433042 0 255 0
0.416594 -0.704935 -0.296943 76 0 153
-0.254396 -0.013927 0.083175 0 255 0
0.400207 -0.043496 0.316589 0 255 0
0.201184 -0.058689 0.286392 0 255 0
0.272497 0.418762 -0.403086 127 0 127
-0.252427 -0.159652 0.490368 0 127 127
-0.298442 -0.288632 0.516165 76 153 0
-0.407901 -0.064740 0.195503 0 255 0
-0.265566 0.335337 -0.391377 127 0 127
-0.402449 0.028263 -0.216469 127 0 127
0.427505 -0.738394 -0.302938 153 76 0
-0.129117 -0.103964 0.470679 0 255 0
0.244871 -0.166403 -0.108628 76 0 153
-0.353679 0.152633 -0.256730 127 0 127
0.071645 -0.047102 0.231227 0 255 0
-0.161986 0.383258 -0.430557 127 0 127
-0.217508 -0.042214 -0.143362 127 0 127
0.077213 0.167504 -0.182779 127 0 127
0.011931 0.562263 -0.477679 127 0 127
-0.127994 -0.126882 0.555883 0 255 0
-0.236910 0.123333 -0.179374 127 0 127
-0.122798 -0.172672 0.207830 0 255 0
0.425698 -0.731431 0.263927 153 76 0
-0.071567 -0.095707 0.423398 0 255 0
0.303622 -0.324901 0.505170 0 127 127
-0.209426 -0.070018 0.355396 0 255 0
0.085176 0.180283 -0.195659 127 0 127
0.060993 -0.041184 -0.160923 127 0 127
-0.309344 0.124707 -0.297981 127 0 127
-0.195608 -0.100895 0.491354 0 255 0
0.085887 0.155430 -0.172111 127 0 127
0.388464 0.142315 -0.278897 127 0 127
0.291387 0.431207 -0.397971 127 0 127
-0.142908 -0.077519 0.365598 0 255 0
-0.220442 -0.150169 -0.088042 0 0 255
-0.204184 0.485085 -0.395215 127 0 127
-0.003096 -0.081610 0.361922 0 255 0
0.371918 0.506143 -0.374201 127 0 127
0.079364 0.551538 -0.472495 127 0 127
0.018786 0.231698 -0.387688 127 0 127
0.065045 -0.176916 0.200809 0 255 0
0.044378 0.283559 -0.275839 127 0 127
0.313564 -0.079723 0.003151 0 255 0
-0.117158 0.103285 -0.115844 127 0 127
-0.195405 -0.165618 0.276346 0 255 0
0.290406 -0.070140 0.407453 0 255 0
-0.351912 -0.003359 -0.192313 127 0 127
0.226138 0.491371 -0.432542 127 0 127
0.260640 -0.007771 0.031385 0 255 0
0.112933 0.456973 -0.453963 127 0 127
-0.323133 -0.038789 0.195206 0 255 0
-0.411001 -0.048420 0.031387 0 255 0
-0.167594 -0.043887 -0.148939 127 0 127
-0.196637 0.531347 -0.424171 127 0 127
-0.205142 -0.158968 0.440500 0 255 0
0.238307 -0.094287 -0.019565 0 255 0
-0.379087 -0.066362 0.551459 0 255 0
0.207522 -0.159688 0.279210 0 255 0
0.262186 0.545231 -0.415663 127 0 127
0.298952 -0.115973 0.172776 0 255 0
0.291462 -0.132263 0.330974 0 255 0
0.102788 -0.120192 0.522609 0 255 0
0.328693 0.000060 -0.190731 127 0 127
0.325573 -0.098413 0.136932 0 255 0
-0.377899 0.407102 -0.361852 127 0 127
0.166257 0.434845 -0.369908 127 0 127
-0.401466 -0.037897 -0.140044 127 0 127
-0.101368 0.024265 -0.238670 127 0 127
0.153860 0.496504 -0.407547 127 0 127
0.216616 0.254566 -0.370613 127 0 127
-0.265087 0.054330 -0.107800 127 0 127
-0.347953 -0.026052 0.076592 0 255 0
0.311584 -0.042330 0.206746 0 255 0
0.034844 -0.098959 0.430393 0 255 0
0.046423 0.563862 -0.462008 127 0 127
0.009953 -0.038027 -0.167758 127 0 127
-0.413507 0.307427 -0.308956 127 0 127
-0.078836 0.007928 -0.223248 127 0 127
0.373149 -0.544281 -0.233414 76 0 153
-0.388422 0.064979 -0.260882 127 0 127
0.014199 0.148226 -0.157792 127 0 127
-0.009192 0.234520 -0.238546 127 0 127
-0.317975 0.247168 -0.284653 127 0 127
-0.280056 -0.074266 -0.057770 0 255 0
0.102828 -0.143461 0.579157 0 255 0
-0.344790 0.097070 -0.218501 127 0 127
-0.193928 0.284203 -0.286418 127 0 127
-0.284015 0.519026 -0.397905 127 0 127
0.284480 -0.276484 -0.135141 76 0 153
-0.360594 -0.104377 0.356703 0 255 0
0.337968 -0.046317 0.255974 0 255 0
0.190781 0.214981 -0.240529 127 0 127
-0.020878 0.400523 -0.449776 127 0 127
0.110394 0.557760 -0.452896 127 0 127
-0.089281 -0.064603 -0.127267 0 255 0
-0.281385 0.007846 -0.013203 0 255 0
-0.013668 -0.113812 -0.037772 0 255 0
-0.103274 -0.181400 0.395203 0 255 0
0.163658 -0.163829 0.466380 0 255 0
-0.290336 0.466414 -0.410859 127 0 127
-0.041639 0.403220 -0.357611 127 0 127
0.004613 0.178955 -0.188811 127 0 127
-0.060243 0.040559 -0.004889 0 255 0
0.262210 -0.092713 -0.006276 0 255 0
0.388586 -0.049015 0.377653 0 255 0
-0.059912 0.231981 -0.238410 127 0 127
0.239614 0.523954 -0.432668 127 0 127
-0.304132 -0.063002 0.378971 0 255 0
-0.373676 0.312849 -0.344467 127 0 127
0.159232 -0.064418 -0.114971 0 255 0
0.132268 0.288076 -0.282290 127 0 127
-0.027564 -0.052970 0.254105 0 255 0
-0.038167 0.355724 -0.436452 127 0 127
0.307652 0.430033 -0.390909 127 0 127
-0.344891 0.202508 -0.271907 127 0 127
-0.042659 -0.044517 0.223276 0 255 0
-0.372371 0.016841 -0.163803 127 0 127
0.156533 0.355706 -0.420667 127 0 127
-0.236296 -0.155174 0.306953 0 255 0
-0.126848 0.078808 -0.082560 127 0 127
-0.064150 0.066799 -0.052839 127 0 127
-0.021489 0.379692 -0.342034 127 0 127
-0.339806 0.441294 -0.386323 127 0 127
0.023489 0.164250 -0.175114 127 0 127
-0.035532 -0.165014 0.530677 0 255 0
-0.132825 0.064880 -0.062865 127 0 127
0.217231 0.127248 -0.180843 127 0 127
0.272959 0.250652 -0.353478 127 0 127
0.295639 0.345831 -0.375926 127 0 127
-0.313544 -0.087634 0.016909 0 255 0
0.120460 0.483805 -0.457073 127 0 127
-0.262566 0.020070 -0.035434 0 255 0
0.276130 -0.250563 -0.143936 76 0 153
-0.033021 0.152024 -0.344074 127 0 127
-0.422663 -0.059846 0.278493 0 255 0
-0.048291 -0.069235 -0.122275 0 255 0
0.089787 0.382772 -0.342943 127 0 127
-0.072076 0.157042 -0.170551 127 0 127
-0.028718 -0.099098 -0.066858 0 255 0
-0.378426 -0.080214 0.564123 0 255 0
-0.209302 -0.163305 0.319944 0 255 0
-0.388039 -0.080353 0.223768 0 255 0
-0.355014 -0.107061 0.325346 0 255 0
0.189428 0.001898 -0.204733 127 0 127
0.194692 0.179975 -0.215596 127 0 127
0.132496 -0.066146 0.308727 0 255 0
0.103052 -0.130312 0.019302 0 255 0
0.289314 -0.019277 -0.165537 127 0 127
-0.310473 0.362040 -0.382715 127 0 127
-0.289284 -0.079279 0.469478 0 255 0
-0.399142 -0.049650 0.427156 0 255 0
0.432758 0.411516 -0.319767 127 0 127
-0.246749 0.174015 -0.224653 127 0 127
-0.198603 0.042625 -0.047521 127 0 127
-0.259710 0.528571 -0.429314 127 0 127
0.156227 0.101206 -0.296750 127 0 127
-0.256189 0.234384 -0.359684 127 0 127
-0.392396 0.150932 -0.295074 127 0 127
0.285844 0.171970 -0.237271 127 0 127
0.284989 0.029122 -0.222015 127 0 127
-0.222519 -0.136315 0.543062 0 255 0
0.230997 0.006242 0.004321 0 255 0
-0.119250 0.285473 -0.404844 127 0 127
0.338786 -0.453124 0.526854 0 127 127
-0.336635 0.383596 -0.377440 127 0 127
-0.184671 -0.085283 0.414566 0 255 0
0.072682 -0.115765 0.498069 0 255 0
-0.307649 0.190378 -0.329838 127 0 127
-0.274846 -0.109439 0.052234 0 255 0
-0.204722 0.007090 0.034379 0 255 0
0.007187 0.334064 -0.311405 127 0 127
-0.050013 0.452531 -0.389022 127 0 127
-0.429868 -0.039622 0.094629 0 255 0
-0.363435 0.485717 -0.360550 127 0 127
0.229608 0.208605 -0.244448 127 0 127
-0.247976 -0.147899 0.241220 0 255 0
0.118512 -0.138957 0.051448 0 255 0
0.345972 -0.076183 0.051826 0 255 0
0.145766 -0.156402 0.140847 0 255 0
-0.361795 -0.459791 0.543952 76 153 0
-0.406705 0.271880 -0.301704 127 0 127
-0.339251 0.405059 -0.380518 127 0 127
-0.050793 -0.110430 0.475676 0 255 0
-0.383752 0.186317 -0.304997 127 0 127
0.428701 0.469178 -0.331828 127 0 127
-0.334030 -0.388749 0.533904 76 153 0
-0.357506 -0.074491 0.029028 0 255 0
0.439681 -0.733945 -0.047695 153 76 0
-0.408942 -0.630238 0.555046 76 153 0
-0.343327 -0.025981 -0.153635 127 0 127
0.308388 0.164312 -0.240874 127 0 127
0.292072 -0.114936 0.550032 0 255 0
-0.248024 -0.076555 0.411808 0 255 0
0.153743 0.223783 -0.240826 127 0 127
-0.232395 0.204626 -0.351812 127 0 127
-0.440964 -0.040489 0.393790 0 255 0
0.178188 0.001338 0.048734 0 255 0
0.011304 0.211300 -0.218338 127 0 127
0.193482 0.233809 -0.367244 127 0 127
-0.088091 0.022925 0.028092 0 255 0
0.184501 0.392078 -0.343858 127 0 127
-0.386827 -0.080833 0.538232 0 255 0
-0.126777 -0.180215 0.340011 0 255 0
0.051534 -0.117825 0.501721 0 255 0
-0.195427 0.534250 -0.449871 127 0 127
0.390048 -0.047514 0.003923 0 255 0
0.260687 -0.110275 0.057473 0 255 0
-0.372936 -0.502209 -0.236897 153 0 76
0.213456 0.304003 -0.296016 127 0 127
0.295616 -0.103172 0.082237 0 255 0
0.359533 -0.084121 0.165793 0 255 0
-0.097725 0.343209 -0.318570 127 0 127
0.182307 0.499159 -0.405122 127 0 127
0.156505 -0.151483 -0.105589 0 0 255
0.104849 -0.156915 0.113538 0 255 0
-0.309000 -0.034105 0.165905 0 255 0
0.383705 -0.034019 -0.044820 0 255 0
-0.415793 -0.044689 0.399453 0 255 0
0.049943 -0.113261 0.484300 0 255 0
0.309144 0.507295 -0.379409 127 0 127
0.032926 -0.168261 0.517563 0 255 0
-0.329632 0.240994 -0.341397 127 0 127
0.372614 0.195642 -0.272255 127 0 127
0.152240 -0.072415 0.341566 0 255 0
0.150245 0.402880 -0.434103 127 0 127
0.058045 0.354855 -0.434203 127 0 127
-0.108821 -0.000855 -0.212743 127 0 127
0.435745 -0.739626 0.408025 153 76 0
-0.068571 0.193799 -0.366309 127 0 127
-0.213172 0.011347 -0.216580 127 0 127
0.203569 -0.037284 -0.149767 127 0 127
0.026158 -0.180903 0.212760 0 255 0
-0.095455 0.074022 -0.068216 127 0 127
-0.057739 -0.112597 -0.037863 0 255 0
0.126883 -0.066341 -0.117272 0 255 0
0.333806 -0.433088 -0.192882 76 0 153
-0.436886 -0.044887 0.515603 0 255 0
-0.167995 0.498685 -0.409184 127 0 127
-0.203731 0.124262 -0.166475 127 0 127
-0.245190 0.054735 -0.256900 127 0 127
0.246482 -0.157059 0.281179 255 0 0
0.373896 -0.554387 0.560088 0 127 127
0.387811 -0.037266 -0.082143 0 255 0
0.242124 -0.103714 0.013864 0 255 0
0.250993 -0.144725 0.132200 255 0 0
-0.325728 0.419146 -0.388597 127 0 127
-0.419747 -0.636599 0.571157 76 153 0
0.202467 -0.001716 0.045737 0 255 0
0.348004 0.380821 -0.363342 127 0 127
-0.213508 -0.015228 -0.185458 127 0 127
0.315109 -0.075282 0.477753 0 255 0
0.380840 -0.080826 0.539363 0 255 0
-0.078930 -0.185549 0.370669 0 255 0
-0.351146 0.445913 -0.350222 127 0 127
0.329169 -0.035908 0.139492 0 255 0
-0.374317 0.240658 -0.323869 127 0 127
-0.250067 0.003876 0.020156 0 255 0
-0.149257 -0.122841 0.009432 0 255 0
-0.034229 -0.159153 0.096542 0 255 0
-0.169000 0.365350 -0.332755 127 0 127
0.358523 -0.067957 0.502792 0 255 0
-0.437844 -0.731610 0.550407 76 0 153
-0.011022 -0.101293 -0.063233 0 255 0
-0.010866 0.563938 -0.463345 127 0 127
-0.392972 0.480813 -0.364790 127 0 127
-0.007152 -0.180793 0.458706 0 255 0
0.234514 -0.054715 0.272977 0 255 0
-0.362371 0.473264 -0.380463 127 0 127
-0.198912 -0.028541 0.159787 0 255 0
0.229224 0.049981 -0.247911 127 0 127
0.062967 -0.067791 0.309430 0 255 0
0.147710 -0.088508 0.410347 0 255 0
0.324225 -0.109862 0.229515 0 255 0
-0.005511 0.476159 -0.466696 127 0 127
0.416904 0.348789 -0.316251 127 0 127
-0.091889 -0.149443 0.494752 0 127 127
-0.397204 -0.067686 0.151804 0 255 0
0.397246 -0.609373 -0.259100 76 0 153
0.325994 -0.014083 -0.025064 0 255 0
-0.086054 -0.176487 0.201231 0 255 0
0.223235 0.340409 -0.399114 127 0 127
-0.414948 -0.623367 -0.265165 153 0 76
-0.332318 -0.013684 0.014815 0 255 0
0.275317 -0.139785 0.361013 0 255 0
0.438977 -0.736551 -0.078601 153 76 0
0.369168 0.006090 -0.201870 127 0 127
0.254378 0.442541 -0.414948 127 0 127
0.341715 -0.049250 0.292941 0 255 0
-0.303276 0.102244 -0.285589 127 0 127
-0.416276 0.357483 -0.318541 127 0 127
-0.429774 -0.700826 0.567696 76 153 0
-0.413458 -0.069698 0.510002 0 255 0
-0.072130 0.277739 -0.406187 127 0 127
-0.097657 0.341357 -0.427954 127 0 127
-0.187094 0.103967 -0.136833 127 0 127
0.305866 -0.087655 0.534983 0 255 0
-0.431121 -0.052952 0.572946 0 255 0
0.349930 -0.068207 0.014339 0 255 0
-0.282852 0.046524 -0.108831 127 0 127
0.054861 -0.088125 0.389273 0 255 0
-0.234381 -0.048683 0.251174 0 255 0
0.247299 -0.133330 0.154336 0 255 0
-0.104783 0.122896 -0.137036 127 0 127
0.370362 -0.040360 0.201292 0 255 0
-0.258882 -0.157070 -0.017764 204 51 127
-0.288535 0.239994 -0.276370 127 0 127
0.089824 0.322290 -0.303827 127 0 127
-0.180001 -0.147759 0.117282 0 255 0
0.409652 0.363762 -0.324279 127 0 127
-0.009342 -0.058626 0.274279 0 255 0
-0.200497 -0.136570 0.083344 0 255 0
-0.320094 0.511073 -0.383539 127 0 127
0.110153 -0.091443 -0.072043 0 255 0
0.426369 -0.736789 -0.163864 153 76 0
-0.339341 -0.115576 0.372951 0 255 0
-0.344608 -0.416742 0.519751 76 153 0
-0.228288 0.038447 -0.242423 127 0 127
0.300668 -0.306555 -0.163321 76 0 153
0.362669 -0.525843 -0.243861 76 0 153
-0.063028 -0.017030 0.133608 0 255 0
0.396168 -0.041966 0.272688 0 255 0
0.366308 -0.049044 0.321538 0 255 0
0.239233 -0.152171 0.002508 255 0 0
0.215314 0.058401 -0.097967 127 0 127
0.445705 -0.046949 0.529529 0 255 0
-0.014228 -0.070758 -0.120941 0 255 0
-0.180384 0.391455 -0.429039 127 0 127
-0.215122 -0.151789 0.186120 0 255 0
-0.406885 0.379051 -0.324216 127 0 127
-0.423948 -0.064068 0.386489 0 255 0
-0.202242 -0.113740 0.551227 0 255 0
0.203463 -0.052120 0.254847 0 255 0
0.404624 -0.633948 0.556658 0 127 127
0.077405 0.098547 -0.104772 127 0 127
-0.191094 0.001807 -0.208993 127 0 127
-0.163814 0.563282 -0.460550 127 0 127
-0.325638 0.261780 -0.349389 127 0 127
-0.410338 0.151200 -0.286497 127 0 127
-0.092174 0.484693 -0.407610 127 0 127
0.155072 -0.035172 0.179352 0 255 0
-0.140406 0.321714 -0.305986 127 0 127
0.025692 -0.122032 0.514027 0 255 0
0.002801 -0.127268 -0.005001 0 255 0
0.428459 -0.739088 0.545747 153 76 0
0.084594 0.006571 0.062569 0 255 0
0.426871 -0.737576 -0.018382 153 76 0
-0.151560 0.550686 -0.444118 127 0 127
0.117265 -0.175948 0.427361 0 255 0
0.330530 -0.069348 0.458715 0 255 0
0.136450 0.492496 -0.407343 127 0 127
0.352285 -0.086735 0.579611 0 255 0
0.323302 -0.087111 0.562181 0 255 0
0.319396 -0.029999 0.097933 0 255 0
0.296633 -0.125679 0.253506 0 255 0
-0.219667 -0.025192 0.140857 0 255 0
0.393992 0.279100 -0.311046 127 0 127
0.053167 0.496088 -0.467458 127 0 127
0.150971 0.342221 -0.316140 127 0 127
0.330796 0.448746 -0.384582 127 0 127
0.044411 0.468326 -0.398633 127 0 127
0.439549 -0.734405 0.089555 153 76 0
0.255975 -0.127963 0.541167 0 255 0
-0.220268 0.497760 -0.438128 127 0 127
0.425054 -0.732944 0.570816 0 127 127
0.037938 -0.175186 0.482884 0 255 0
-0.280526 -0.007606 0.040320 0 255 0
-0.226449 -0.054866 0.281037 0 255 0
0.437760 -0.725628 -0.311533 153 76 0
-0.067784 0.094595 -0.302327 127 0 127
0.425902 -0.735182 -0.198989 153 76 0
-0.271041 0.359372 -0.396401 127 0 127
-0.401049 -0.026712 -0.044436 0 255 0
0.157439 0.468969 -0.390531 127 0 127
0.429999 -0.739820 0.144969 153 76 0
-0.098161 0.381573 -0.343124 127 0 127
-0.234937 -0.087009 0.457463 0 255 0
0.130694 -0.111804 -0.022980 0 255 0
0.389260 -0.069444 0.232295 0 255 0
-0.407721 -0.043614 0.344295 0 255 0
0.239460 -0.153036 0.323541 255 0 0
-0.104994 0.559932 -0.455374 127 0 127
-0.346842 -0.063544 0.440867 0 255 0
0.076107 0.522806 -0.432704 127 0 127
0.065330 -0.125702 0.532510 0 255 0
-0.074552 0.512241 -0.426769 127 0 127
-0.432590 -0.059331 0.458641 0 255 0
-0.263019 -0.155534 0.217650 204 51 127
0.279369 -0.116042 0.563079 0 255 0
-0.263985 -0.093692 0.517373 0 255 0
0.072295 0.404780 -0.356943 127 0 127
0.178872 0.015132 0.011725 0 255 0
-0.374132 0.102652 -0.246172 127 0 127
0.011394 0.279067 -0.408494 127 0 127
0.067720 0.058820 -0.272593 127 0 127
-0.315383 -0.350151 -0.166595 153 0 76
-0.092449 -0.011763 -0.201166 127 0 127
0.375243 -0.023026 -0.119473 0 255 0
0.112115 -0.077251 0.354349 0 255 0
-0.274215 -0.135398 0.197216 0 255 0
-0.262735 -0.155889 0.468238 204 51 127
-0.040052 -0.187852 0.369680 0 255 0
-0.041486 0.292926 -0.283439 127 0 127
-0.134319 0.555529 -0.449244 127 0 127
0.283494 0.237000 -0.344295 127 0 127
0.262003 0.161374 -0.318203 127 0 127
0.412495 -0.680487 -0.301007 76 0 153
-0.214176 -0.083590 0.424454 0 255 0
0.063503 0.114269 -0.315120 127 0 127
-0.335448 -0.029563 0.118416 0 255 0
0.181849 0.468627 -0.387330 127 0 127
-0.110721 0.379853 -0.437754 127 0 127
0.370786 -0.038447 0.161963 0 255 0
-0.177776 0.554278 -0.442187 127 0 127
-0.352122 -0.037437 0.184812 0 255 0
0.257478 -0.115075 0.074436 0 255 0
-0.120785 0.162336 -0.345755 127 0 127
-0.271558 -0.144193 0.324476 0 255 0
0.252103 -0.054456 0.276724 0 255 0
0.051302 0.027019 0.020192 0 255 0
0.226200 0.282271 -0.378327 127 0 127
-0.375239 0.085258 -0.236482 127 0 127
0.264310 0.019256 -0.057649 0 255 0
0.235763 0.061338 -0.114462 127 0 127
-0.176808 0.339007 -0.317208 127 0 127
-0.172835 0.355741 -0.421147 127 0 127
-0.326984 -0.058353 -0.077912 0 255 0
-0.067110 -0.047237 0.234379 0 255 0
-0.334160 0.012109 -0.208676 127 0 127
0.215030 0.366170 -0.409119 127 0 127
0.229002 0.094885 -0.282516 127 0 127
0.147579 -0.000688 0.065532 0 255 0
0.183753 -0.152343 0.157814 0 255 0
-0.244462 -0.125751 0.083740 0 255 0
0.244612 0.525143 -0.407642 127 0 127
0.031524 -0.147974 0.494228 0 127 127
-0.418870 -0.637038 -0.284903 153 0 76
-0.222171 0.191075 -0.347406 127 0 127
-0.447904 -0.739557 0.285813 76 0 153
0.082971 -0.182819 0.268687 0 255 0
0.009300 -0.048803 0.237937 0 255 0
-0.218545 -0.062091 0.317148 0 255 0
0.044342 0.544553 -0.474795 127 0 127
-0.095953 0.312247 -0.298250 127 0 127
-0.414688 -0.067631 0.528933 0 255 0
0.368091 -0.030902 0.028905 0 255 0
0.076676 0.413357 -0.448795 127 0 127
0.199489 0.494227 -0.441120 127 0 127
-0.139968 0.011704 -0.223331 127 0 127
0.203796 -0.140294 0.121807 0 255 0
-0.309646 0.272076 -0.357840 127 0 127
-0.229839 -0.014129 0.094208 0 255 0
-0.281509 -0.219387 0.506115 76 153 0
0.137688 -0.173246 0.251908 0 255 0
0.106734 0.130392 -0.323621 127 0 127
0.243031 0.067644 -0.261812 127 0 127
0.267420 0.278756 -0.366056 127 0 127
0.003177 -0.118376 0.499425 0 255 0
-0.287959 -0.082184 -0.031648 0 255 0
0.014792 0.417134 -0.366153 127 0 127
-0.181381 -0.170305 0.325054 0 255 0
-0.265294 -0.034773 0.176650 0 255 0
-0.210797 0.056822 -0.078185 127 0 127
0.215207 -0.030036 0.147158 0 255 0
-0.018988 -0.153671 0.570383 0 255 0
0.300927 0.481621 -0.403857 127 0 127
0.294428 0.155176 -0.306737 127 0 127
0.244566 -0.019686 0.090759 0 255 0
-0.279887 0.057283 -0.256197 127 0 127
-0.218233 0.220537 -0.361839 127 0 127
0.290021 -0.267544 0.510130 0 127 127
-0.111288 0.435506 -0.376206 127 0 127
-0.375699 -0.499779 -0.220335 153 0 76
0.075958 -0.063585 0.292883 0 255 0
0.359953 -0.034772 0.111470 0 255 0
-0.115973 0.341451 -0.425817 127 0 127
-0.263984 -0.154417 0.002795 204 51 127
0.437148 -0.723811 0.578292 153 76 0
-0.155292 0.286187 -0.284279 127 0 127
0.267509 0.059468 -0.252643 127 0 127
0.062572 -0.077291 0.348119 0 255 0
0.339031 0.334069 -0.307698 127 0 127
-0.286706 -0.235051 0.490260 76 153 0
-0.329128 0.481920 -0.368678 127 0 127
-0.127739 -0.120641 0.534442 0 255 0
0.171059 -0.079635 0.380450 0 255 0
-0.230098 -0.141240 0.146582 0 255 0
0.251086 -0.155011 0.449345 255 0 0
-0.295324 -0.134553 0.390684 0 255 0
0.292750 -0.305024 0.519187 0 127 127
-0.120953 -0.157939 0.530258 0 255 0
0.401149 -0.057985 0.204984 0 255 0
0.101544 -0.150918 0.476929 0 127 127
-0.421467 -0.046058 0.078759 0 255 0
0.233255 -0.012649 0.065858 0 255 0
-0.219223 0.359761 -0.411354 127 0 127
-0.148225 -0.174700 0.393557 0 255 0
0.132922 -0.050504 -0.140705 127 0 127
0.399147 -0.614172 0.568836 0 127 127
-0.103945 -0.155155 -0.102741 0 0 255
0.042893 -0.002217 -0.212598 127 0 127
0.388840 0.334119 -0.328777 127 0 127
0.187077 -0.162298 0.242487 0 255 0
-0.338112 -0.098163 0.557277 0 255 0
0.285965 -0.078473 0.457865 0 255 0
-0.381694 0.106194 -0.282754 127 0 127
0.189073 0.274088 -0.277060 127 0 127
-0.321956 -0.123199 0.348657 0 255 0
-0.168746 0.326054 -0.412518 127 0 127
-0.409118 0.045944 -0.247919 127 0 127
0.050708 0.267524 -0.401783 127 0 127
0.313038 -0.117769 0.482378 0 255 0
0.036629 -0.075218 0.338299 0 255 0
0.429522 -0.739710 0.428792 153 76 0
0.261104 -0.144701 0.343731 0 255 0
-0.346563 0.355261 -0.366966 127 0 127
0.314389 0.072714 -0.184653 127 0 127
0.263006 -0.182291 -0.114758 76 0 153
0.057706 -0.186656 0.318253 0 255 0
0.080537 -0.038465 0.199181 0 255 0
0.004330 0.261509 -0.401384 127 0 127
-0.157129 -0.034278 0.185680 0 255 0
-0.146877 0.196400 -0.361052 127 0 127
0.182063 0.549151 -0.453498 127 0 127
-0.443685 -0.712814 0.584158 76 153 0
-0.398270 0.503306 -0.364902 127 0 127
0.433704 -0.740214 0.349163 153 76 0
-0.166323 -0.089016 0.421970 0 255 0
0.425559 -0.733206 0.002909 153 76 0
0.376097 0.102586 -0.253835 127 0 127
0.180975 0.049326 -0.062828 127 0 127
-0.409629 0.000884 -0.204593 127 0 127
-0.415807 0.482201 -0.343528 127 0 127
-0.159809 -0.149934 0.476813 0 127 127
0.357194 -0.000692 -0.133969 127 0 127
0.128536 0.106292 -0.303471 127 0 127
-0.215334 0.089117 -0.130701 127 0 127
-0.039329 0.485682 -0.467275 127 0 127
-0.141181 0.025305 0.012242 0 255 0
-0.115900 -0.113866 0.503760 0 255 0
0.048632 -0.040835 0.208776 0 255 0
0.287635 -0.134761 0.372225 0 255 0
0.203582 -0.113296 0.015502 0 255 0
0.376200 -0.031170 -0.005164 0 255 0
-0.241884 0.140375 -0.197636 127 0 127
0.116746 -0.170984 0.198801 0 255 0
0.372283 0.138313 -0.282051 127 0 127
0.144283 -0.173663 0.399764 0 255 0
-0.162384 -0.118842 0.543542 0 255 0
0.247184 0.483923 -0.384031 127 0 127
0.335022 -0.088306 0.579709 0 255 0
0.367772 -0.027861 -0.150791 127 0 127
0.325199 -0.117448 0.369100 0 255 0
0.013670 -0.002552 -0.213314 127 0 127
0.033623 -0.060226 0.279741 0 255 0
-0.087838 0.528432 -0.470069 127 0 127
0.322319 -0.105868 0.542681 0 255 0
0.058869 0.553570 -0.474486 127 0 127
0.097247 0.320110 -0.418275 127 0 127
-0.346115 -0.440879 0.525845 76 153 0
0.310549 0.249148 -0.339585 127 0 127
0.031659 -0.188047 0.309990 0 255 0
0.147755 0.067204 -0.078067 127 0 127
0.007201 0.151618 -0.343965 127 0 127
0.037228 0.527167 -0.437537 127 0 127
0.414270 -0.054616 0.276269 0 255 0
-0.387118 -0.058123 0.495492 0 255 0
-0.163424 -0.109872 0.508803 0 255 0
0.111954 -0.035548 -0.164604 127 0 127
-0.262073 -0.156177 0.342751 204 51 127
-0.216863 0.420749 -0.426823 127 0 127
0.374769 0.267708 -0.288388 127 0 127
0.308658 -0.056373 0.321960 0 255 0
0.421008 -0.040279 0.283612 0 255 0
0.235310 -0.092346 0.478862 0 255 0
-0.053585 -0.027976 0.168748 0 255 0
-0.137211 -0.138721 0.053215 0 255 0
-0.186924 -0.122760 0.026400 0 255 0
-0.010031 -0.088388 0.387686 0 255 0
-0.321606 -0.022981 0.084334 0 255 0
0.406938 -0.067048 0.558856 0 255 0
-0.346728 -0.071397 0.507774 0 255 0
-0.148171 0.197769 -0.219091 127 0 127
-0.441562 -0.726729 0.195475 76 0 153
0.058338 0.263714 -0.261734 127 0 127
-0.156398 -0.170910 0.424756 0 255 0
-0.302657 0.016957 -0.063887 0 255 0
0.324107 -0.374438 0.527380 0 127 127
-0.235113 0.507334 -0.434879 127 0 127
0.328650 -0.114753 0.426876 0 255 0
-0.360332 0.435903 -0.375577 127 0 127
-0.132136 -0.099500 0.454095 0 255 0
-0.147291 -0.176254 0.366507 0 255 0
0.380644 -0.055589 0.435133 0 255 0
0.256719 -0.139527 0.227944 0 255 0
0.370485 -0.558763 -0.252827 76 0 153
0.028391 0.083800 -0.077386 127 0 127
-0.064228 -0.010703 0.114852 0 255 0
0.321031 0.041645 -0.232072 127 0 127
-0.404804 -0.593443 0.550571 76 153 0
0.224010 -0.155604 0.305935 0 255 0
-0.155951 -0.093065 0.435654 0 255 0
-0.435222 -0.701018 -0.310201 153 0 76
0.251871 0.183517 -0.233748 127 0 127
0.378853 -0.087859 0.381741 0 255 0
0.237379 0.473785 -0.426494 127 0 127
-0.372469 -0.064956 0.521008 0 255 0
0.352924 -0.094350 0.227092 0 255 0
-0.254738 -0.087124 0.473860 0 255 0
-0.213105 -0.125714 0.054634 0 255 0
-0.246461 0.342413 -0.319622 127 0 127
-0.143026 -0.005735 0.091932 0 255 0
-0.367511 -0.034604 0.154764 0 255 0
0.178101 0.124492 -0.310439 127 0 127
0.145081 -0.099581 -0.046560 0 255 0
0.138070 0.187943 -0.353335 127 0 127
0.378180 0.254584 -0.312410 127 0 127
-0.096801 -0.087286 0.394503 0 255 0
0.282332 -0.283275 -0.151686 76 0 153
0.176050 -0.027011 -0.168805 127 0 127
0.243266 -0.043664 -0.132035 127 0 127
0.266323 -0.059750 -0.095954 0 255 0
-0.128446 0.395646 -0.351238 127 0 127
0.380392 -0.038903 0.181037 0 255 0
0.313373 -0.048047 -0.106251 0 255 0
-0.173500 -0.009277 0.095921 0 255 0
0.078853 -0.103713 0.453643 0 255 0
-0.145154 0.521927 -0.426923 127 0 127
-0.325777 0.464351 -0.363306 127 0 127
-0.126661 0.106353 -0.307665 127 0 127
-0.020764 0.345758 -0.433869 127 0 127
-0.221135 -0.067681 -0.099416 0 255 0
-0.350180 -0.066410 0.475617 0 255 0
0.193057 0.139268 -0.318260 127 0 127
0.412173 -0.054453 0.259748 0 255 0
0.064198 -0.088537 -0.083970 0 255 0
0.215361 -0.132221 0.097762 0 255 0
-0.306322 -0.111738 0.547832 0 255 0
-0.036239 -0.172318 0.156510 0 255 0
-0.397570 -0.081991 0.432341 0 255 0
-0.312858 -0.072485 -0.040223 0 255 0
-0.233158 -0.150506 0.224615 0 255 0
0.162037 0.379115 -0.337687 127 0 127
0.327554 -0.115470 0.340184 0 255 0
-0.349130 -0.108459 0.441300 0 255 0
0.055100 0.224862 -0.382066 127 0 127
-0.095984 0.038628 -0.005768 0 255 0
-0.221679 0.029046 -0.030740 0 255 0
0.174534 -0.149579 0.134776 0 255 0
-0.173988 -0.155849 0.491193 0 127 127
0.237793 0.022384 -0.043756 0 255 0
-0.292677 0.048319 -0.246925 127 0 127
0.335544 0.507461 -0.371236 127 0 127
0.370803 -0.049012 -0.061749 0 255 0
0.390677 -0.038427 0.145373 0 255 0
0.378950 0.312315 -0.328648 127 0 127
-0.220103 -0.159305 0.287076 0 255 0
-0.235762 0.010044 0.011214 0 255 0
-0.246441 -0.143756 -0.098969 0 0 255
-0.336820 -0.033769 0.155674 0 255 0
-0.365963 0.013757 -0.148882 127 0 127
-0.145267 0.009127 0.048731 0 255 0
-0.261990 -0.010818 0.066566 0 255 0
-0.437727 -0.732903 -0.179834 76 0 153
-0.382268 -0.076553 0.142966 0 255 0
0.371357 0.212319 -0.302554 127 0 127
0.105406 0.008641 0.052457 0 255 0
0.017640 0.054284 -0.029555 0 255 0
-0.081305 -0.144325 0.051406 0 255 0
-0.451692 -0.734393 0.336487 76 0 153
-0.350989 -0.099784 0.180170 0 255 0
0.434685 -0.740024 0.062845 153 76 0
-0.417301 -0.668098 -0.292760 153 0 76
0.162234 0.359373 -0.326044 127 0 127
0.425998 -0.053677 0.571218 0 255 0
-0.383347 -0.518683 -0.230626 153 0 76
0.026638 0.364286 -0.331437 127 0 127
-0.212159 0.311833 -0.303217 127 0 127
0.254451 0.077110 -0.146580 127 0 127
-0.341723 0.065769 -0.187177 127 0 127
-0.181607 0.455877 -0.383052 127 0 127
-0.086401 -0.066456 0.308541 0 255 0
0.183722 -0.146497 0.477627 0 127 127
-0.041219 0.575461 -0.475941 127 0 127
-0.353453 0.015389 -0.130779 127 0 127
-0.417042 0.448707 -0.346738 127 0 127
0.062821 -0.164203 0.528154 0 255 0
0.112878 -0.112022 0.492834 0 255 0
0.143511 0.020643 -0.228620 127 0 127
0.374515 0.035368 -0.210364 127 0 127
-0.369159 0.295211 -0.341949 127 0 127
0.131140 -0.013154 0.107257 0 255 0
0.433353 -0.726319 0.173058 153 76 0
0.194846 0.022971 -0.225534 127 0 127
-0.297987 -0.255407 0.508403 76 153 0
-0.222054 -0.074643 0.384696 0 255 0
0.123401 0.402250 -0.353793 127 0 127
0.285887 0.404155 -0.394788 127 0 127
0.122460 0.166945 -0.344780 127 0 127
-0.055733 -0.034765 0.190676 0 255 0
-0.331477 0.059566 -0.255215 127 0 127
0.087636 -0.089619 0.399257 0 255 0
0.382932 -0.064386 0.532940 0 255 0
0.308461 0.233350 -0.333906 127 0 127
-0.026096 0.436205 -0.378696 127 0 127
0.274626 -0.068898 0.383594 0 255 0
0.076694 -0.153992 0.493407 0 127 127
-0.295069 0.037409 -0.102426 127 0 127
0.295021 0.284331 -0.290098 127 0 127
-0.092615 0.058350 -0.043142 0 255 0
-0.424507 -0.038217 0.013385 0 255 0
-0.339274 -0.108492 0.211949 0 255 0
-0.309690 0.066174 -0.261635 127 0 127
0.106706 -0.051676 0.248533 0 255 0
0.240553 0.546777 -0.422188 127 0 127
0.290135 -0.096069 0.560547 0 255 0
0.077336 -0.154884 0.558536 0 255 0
-0.423309 -0.065226 0.417912 0 255 0
0.427992 -0.727627 0.227314 153 76 0
-0.153806 0.263902 -0.269194 127 0 127
-0.295209 -0.132211 0.428365 0 255 0
0.157967 -0.168537 0.239986 0 255 0
-0.262917 0.463953 -0.375772 127 0 127
-0.264215 -0.146163 0.151927 204 51 127
0.246952 -0.135595 0.513477 0 255 0
0.081013 -0.108312 0.470867 0 255 0
0.399666 -0.652329 0.563632 0 127 127
0.247682 0.207330 -0.247805 127 0 127
-0.316810 -0.097773 0.067147 0 255 0
-0.394286 0.078176 -0.268618 127 0 127
-0.073879 0.186464 -0.199239 127 0 127
0.250021 -0.155725 0.257590 255 0 0
0.301357 0.169300 -0.311289 127 0 127
0.268350 -0.015759 0.056904 0 255 0
-0.174600 0.468580 -0.447067 127 0 127
0.199961 0.241667 -0.258810 127 0 127
0.388491 0.516073 -0.366250 127 0 127
0.301221 0.464544 -0.400648 127 0 127
-0.334125 -0.116572 0.296943 0 255 0
-0.437765 -0.732436 0.369537 76 0 153
-0.149403 0.115444 -0.138446 127 0 127
-0.342596 0.015537 -0.112180 127 0 127
-0.132831 0.086893 -0.293093 127 0 127
0.070402 -0.154670 0.088679 0 255 0
0.040344 0.239738 -0.243481 127 0 127
-0.145071 0.061352 -0.272091 127 0 127
-0.346891 -0.407667 -0.187546 153 0 76
0.202394 -0.085100 0.418670 0 255 0
0.297354 0.540085 -0.400659 127 0 127
-0.104473 0.161800 -0.346876 127 0 127
-0.282552 0.303625 -0.376357 127 0 127
0.432364 -0.055810 0.481612 0 255 0
0.223104 0.398033 -0.343999 127 0 127
0.437277 -0.738764 -0.227718 153 76 0
0.149610 -0.029308 0.159107 0 255 0
0.161454 -0.007772 0.082894 0 255 0
-0.325398 -0.106303 0.142907 0 255 0
0.007716 0.396614 -0.352915 127 0 127
-0.226716 0.269361 -0.281056 127 0 127
0.221626 0.276635 -0.280739 127 0 127
0.013681 -0.037863 0.199759 0 255 0
-0.080290 0.140744 -0.153215 127 0 127
0.061243 0.556819 -0.456239 127 0 127
0.343191 -0.042933 -0.110608 0 255 0
0.182496 -0.060233 0.289224 0 255 0
0.191697 0.092422 -0.132319 127 0 127
-0.386246 -0.039272 0.219924 0 255 0
0.078500 -0.071252 0.324488 0 255 0
-0.317754 0.138756 -0.231260 127 0 127
0.262819 -0.099864 0.544947 0 255 0
-0.297608 -0.122724 0.172792 0 255 0
-0.264041 -0.145904 0.096644 204 51 127
-0.400101 0.230905 -0.310417 127 0 127
-0.157409 -0.081536 0.386316 0 255 0
0.109864 -0.150336 0.088378 0 255 0
-0.111523 -0.040589 0.209949 0 255 0
-0.421912 -0.055332 0.201309 0 255 0
-0.451561 -0.731269 -0.147001 76 0 153
-0.373431 0.219260 -0.282449 127 0 127
-0.334582 -0.013689 -0.176161 127 0 127
-0.015410 0.534824 -0.475304 127 0 127
-0.275474 -0.139707 0.251883 0 255 0
0.250057 -0.155701 0.352006 255 0 0
-0.235893 0.467073 -0.429348 127 0 127
0.404467 -0.039154 0.202901 0 255 0
-0.171782 -0.170941 0.388536 0 255 0
0.421100 -0.706113 0.567171 0 127 127
-0.042638 0.420677 -0.454052 127 0 127
-0.278531 0.230285 -0.352813 127 0 127
0.146534 -0.139034 0.066081 0 255 0
-0.165677 -0.173274 0.310715 0 255 0
0.085404 -0.181567 0.410013 0 255 0
0.043850 -0.049908 0.241940 0 255 0
0.294814 0.047313 -0.239084 127 0 127
-0.221207 0.097324 -0.143667 127 0 127
0.417696 -0.042905 0.367352 0 255 0
-0.069869 0.466701 -0.462378 127 0 127
-0.391416 -0.543283 -0.245123 153 0 76
-0.142718 -0.072332 0.342582 0 255 0
-0.188037 -0.144252 0.541911 0 255 0
0.071539 0.439257 -0.379246 127 0 127
-0.270599 -0.084686 -0.036723 0 255 0
0.406283 0.391910 -0.314899 127 0 127
-0.376308 -0.051675 0.387851 0 255 0
-0.054230 0.148223 -0.341255 127 0 127
-0.278210 0.504728 -0.391576 127 0 127
0.110945 -0.013787 0.113629 0 255 0
-0.243674 -0.153308 0.331178 0 255 0
-0.032744 -0.084159 -0.096001 0 255 0
-0.092598 0.481362 -0.462713 127 0 127
0.057159 -0.174527 0.179432 0 255 0
0.113373 0.021979 -0.232861 127 0 127
-0.185657 -0.044408 -0.145598 127 0 127
0.073463 0.319490 -0.301863 127 0 127
0.361606 0.423823 -0.365473 127 0 127
0.201678 -0.034548 0.170865 0 255 0
-0.241350 -0.027343 -0.162702 127 0 127
-0.186326 -0.153648 0.151532 0 255 0
-0.066376 0.495200 -0.416090 127 0 127
-0.178108 -0.026893 0.155513 0 255 0
-0.365482 -0.015614 -0.019869 0 255 0
0.063686 0.189905 -0.362657 127 0 127
-0.293197 -0.276974 -0.150447 153 0 76
0.033484 0.141111 -0.336056 127 0 127
0.119866 -0.081598 -0.090131 0 255 0
-0.058175 -0.158447 0.551110 0 255 0
-0.262362 -0.155979 -0.077243 204 51 127
0.348525 0.061888 -0.202916 127 0 127
0.027114 0.482745 -0.408383 127 0 127
0.193257 0.352747 -0.411377 127 0 127
-0.249285 0.523698 -0.408956 127 0 127
-0.139365 -0.044185 0.223643 0 255 0
0.352016 0.358806 -0.355003 127 0 127
0.365071 0.240257 -0.314877 127 0 127
-0.274165 -0.088806 0.502567 0 255 0
-0.451019 -0.043742 0.507832 0 255 0
0.074420 0.195543 -0.208012 127 0 127
-0.414408 0.199486 -0.289594 127 0 127
0.038903 -0.026157 0.161310 0 255 0
0.055223 0.422019 -0.452762 127 0 127
0.401204 -0.652964 -0.288536 76 0 153
-0.172547 0.094301 -0.295013 127 0 127
-0.265297 0.036630 -0.237058 127 0 127
-0.015808 0.512033 -0.428722 127 0 127
0.281386 0.368405 -0.325159 127 0 127
0.278162 -0.034714 0.150894 0 255 0
-0.383682 0.272948 -0.329526 127 0 127
0.368984 -0.043725 -0.105435 0 255 0
0.285475 0.038205 -0.118784 127 0 127
-0.391633 0.044255 -0.219629 127 0 127
-0.303504 0.095768 -0.190128 127 0 127
0.196337 -0.159929 0.438984 0 255 0
0.126701 0.300800 -0.290768 127 0 127
-0.397916 -0.059569 0.549114 0 255 0
-0.321141 0.012657 -0.073500 127 0 127
-0.421757 -0.058892 0.250567 0 255 0
0.152197 -0.146285 -0.089687 0 0 255
-0.439151 -0.737716 -0.234711 76 0 153
0.413032 0.410083 -0.333862 127 0 127
-0.280619 -0.204281 -0.110882 153 0 76
-0.085960 0.195706 -0.366438 127 0 127
0.115986 0.158730 -0.180875 127 0 127
-0.373385 -0.094754 0.294104 0 255 0
0.277369 -0.058784 0.314356 0 255 0
0.317471 0.006244 -0.088177 127 0 127
0.114968 -0.133335 0.032631 0 255 0
0.145507 -0.150104 0.546625 0 255 0
0.131592 0.136900 -0.162372 127 0 127
-0.132388 -0.051883 0.255016 0 255 0
0.330457 -0.104343 0.205717 0 255 0
-0.406664 -0.040890 -0.102582 0 255 0
-0.338553 -0.423373 0.533274 76 153 0
0.059309 0.375128 -0.439787 127 0 127
0.316547 -0.037335 0.153998 0 255 0
-0.209142 -0.059752 0.301263 0 255 0
-0.360015 -0.050759 0.343913 0 255 0
-0.165024 -0.000565 0.071885 0 255 0
-0.091938 0.196361 -0.209687 127 0 127
-0.040140 -0.146787 -0.089297 0 0 255
0.438725 -0.730316 0.521481 153 76 0
-0.032146 -0.070431 -0.120939 0 255 0
0.217267 -0.123538 0.063110 0 255 0
-0.397646 0.177290 -0.281428 127 0 127
0.385289 -0.082727 0.496579 0 255 0
-0.345122 -0.095719 0.125126 0 255 0
0.427546 -0.727934 0.206827 153 76 0
-0.183845 0.186600 -0.217405 127 0 127
-0.183582 -0.048867 0.246724 0 255 0
-0.401809 0.212303 -0.287704 127 0 127
0.022339 -0.025720 0.160840 0 255 0
-0.045668 -0.042539 -0.160805 127 0 127
-0.219597 -0.156799 0.482037 0 127 127
0.140148 -0.150576 0.109412 0 255 0
0.261022 0.231390 -0.262533 127 0 127
0.345023 -0.039851 0.187375 0 255 0
0.072827 0.268960 -0.266195 127 0 127
0.053035 0.339865 -0.315057 127 0 127
0.388022 0.258828 -0.286256 127 0 127
0.357718 -0.043351 0.235133 0 255 0
-0.127007 0.202092 -0.219347 127 0 127
0.335204 -0.081583 0.552113 0 255 0
0.378752 0.072452 -0.242688 127 0 127
-0.388322 0.517075 -0.372110 127 0 127
0.204391 -0.097251 -0.030700 0 255 0
-0.159889 0.068042 -0.075268 127 0 127
0.306701 -0.320836 -0.167380 76 0 153
-0.105958 -0.130773 0.559969 0 255 0
-0.115153 -0.022958 0.148363 0 255 0
-0.319286 0.034946 -0.121717 127 0 127
0.163025 0.068810 -0.272889 127 0 127
0.258691 -0.060845 0.316607 0 255 0
-0.273937 0.356496 -0.326016 127 0 127
0.289814 -0.059501 0.328177 0 255 0
-0.401071 -0.073839 0.536124 0 255 0
-0.330206 -0.090716 0.056400 0 255 0
0.151759 -0.153411 0.477568 0 127 127
-0.357917 0.194755 -0.315934 127 0 127
-0.242826 -0.114454 0.039543 0 255 0
0.171690 0.274967 -0.389145 127 0 127
0.339016 -0.016436 -0.035868 0 255 0
-0.196710 0.339132 -0.317862 127 0 127
0.075216 -0.146234 0.579204 0 255 0
-0.114162 -0.180860 0.277873 0 255 0
0.354906 0.168656 -0.260975 127 0 127
-0.362473 0.519953 -0.386325 127 0 127
-0.389606 -0.036329 0.174554 0 255 0
0.019542 0.072692 -0.060023 127 0 127
0.131165 -0.167095 0.188326 0 255 0
-0.239010 -0.124784 0.568510 0 255 0
-0.314867 -0.125056 0.289687 0 255 0
0.299882 -0.340864 0.518123 0 127 127
-0.010972 -0.139588 0.029405 0 255 0
-0.128193 -0.015945 0.124002 0 255 0
0.057670 0.037613 -0.252366 127 0 127
-0.298998 -0.268324 -0.132461 153 0 76
0.142715 0.273606 -0.393367 127 0 127
-0.437742 -0.732795 0.525123 76 0 153
0.169874 0.521681 -0.420948 127 0 127
-0.152337 -0.108607 -0.029650 0 255 0
0.399263 -0.037482 0.093479 0 255 0
0.360232 0.479114 -0.375731 127 0 127
0.353963 0.524047 -0.386153 127 0 127
0.000610 -0.173559 0.496201 0 255 0
0.301006 0.002323 -0.056761 0 255 0
0.216830 -0.027609 -0.162324 127 0 127
0.025937 0.361264 -0.437965 127 0 127
0.316131 -0.364454 -0.186005 76 0 153
-0.037709 0.519298 -0.472524 127 0 127
-0.001240 -0.184925 0.238894 0 255 0
0.039205 0.481544 -0.465951 127 0 127
0.156121 0.326844 -0.307232 127 0 127
-0.297781 -0.089024 0.000055 0 255 0
0.332308 -0.091837 0.113758 0 255 0
0.280091 0.491856 -0.380130 127 0 127
-0.080384 0.535114 -0.441341 127 0 127
-0.416431 -0.068418 0.362332 0 255 0
-0.095749 -0.138713 0.577331 0 255 0
-0.061945 -0.136737 0.567524 0 255 0
-0.273954 0.403550 -0.345871 127 0 127
-0.258445 -0.143388 0.275036 204 51 127
0.289238 -0.110606 0.108889 0 255 0
0.414336 0.429869 -0.323095 127 0 127
0.177868 -0.117954 0.549326 0 255 0
0.111518 0.135834 -0.155994 127 0 127
-0.240071 -0.041594 -0.140331 127 0 127
-0.077600 0.316132 -0.420869 127 0 127
-0.326765 -0.118675 0.433933 0 255 0
0.312199 -0.049872 0.272853 0 255 0
0.313953 0.184169 -0.313934 127 0 127
0.354525 -0.054188 0.362989 0 255 0
-0.354610 -0.453835 -0.219102 153 0 76
0.244972 -0.006111 0.036805 0 255 0
0.373773 -0.061145 0.479518 0 255 0
-0.406227 -0.600418 0.567233 76 153 0
0.202721 0.066675 -0.103442 127 0 127
-0.257771 -0.161477 -0.092013 153 0 76
0.391651 -0.061778 0.166039 0 255 0
0.356396 -0.494743 -0.234227 76 0 153
-0.119381 0.075568 -0.285567 127 0 127
0.276935 -0.137011 0.288052 0 255 0
0.235843 0.341599 -0.314859 127 0 127
-0.304157 -0.046572 0.254255 0 255 0
0.054632 -0.182529 0.240459 0 255 0
-0.190481 0.402691 -0.352491 127 0 127
