ply
format ascii 1.0
element vertex 611
property float x
property float y
property float z
property float nx
property float ny
property float nz
property uchar red
property uchar green
property uchar blue
property float opacity
end_header
0.272438 -0.063025 0.323290 0.092993 -0.984794 -0.146742 255 255 255 1.000000
-0.389437 -0.554200 0.560149 0.300021 -0.246184 -0.921619 203 203 203 1.000000
0.040884 0.250840 -0.392829 -0.055473 0.366951 0.928585 155 155 155 1.000000
0.140702 -0.106929 0.474855 0.097174 -0.966306 -0.238347 255 255 255 1.000000
-0.081670 0.398718 -0.357306 -0.012266 -0.536148 -0.844035 255 255 255 1.000000
0.193266 -0.033395 0.154476 -0.056450 -0.970962 -0.232478 255 255 255 1.000000
-0.119421 -0.095497 0.423735 -0.076200 -0.968206 -0.238266 255 255 255 1.000000
0.135506 0.195826 -0.218940 -0.115396 -0.622049 -0.774428 255 255 255 1.000000
0.242319 -0.071517 0.358031 0.101200 -0.980421 -0.168919 255 255 255 1.000000
0.188366 0.330325 -0.311847 0.005637 -0.492841 -0.870101 255 255 255 1.000000
0.021405 -0.035695 0.182530 -0.018106 -0.955962 -0.292931 255 255 255 1.000000
0.267749 -0.233988 0.492947 0.760541 0.334091 0.556741 236 236 236 1.000000
0.325174 0.465919 -0.360183 0.234036 -0.377222 -0.896064 255 255 255 1.000000
-0.159269 0.467175 -0.394417 -0.090867 -0.501289 -0.860495 255 255 255 1.000000
0.162185 -0.129566 0.051556 0.143899 -0.942366 -0.302059 210 210 210 1.000000
-0.306696 -0.126650 0.316558 0.410706 0.911648 0.014803 168 168 168 1.000000
0.063596 -0.151213 0.564266 0.043187 -0.944579 0.325432 216 216 216 1.000000
0.141465 0.535794 -0.458743 0.177755 -0.153994 -0.971951 227 227 227 1.000000
0.363424 -0.001862 -0.153312 0.627062 0.678959 0.381848 164 177 186 1.000000
0.203232 -0.138265 0.124694 0.272067 -0.945045 -0.181297 162 162 162 1.000000
0.109245 -0.092415 0.404120 -0.053698 0.970466 0.235188 164 177 186 1.000000
0.326407 -0.038950 0.142221 0.048884 0.993581 0.102019 164 177 186 1.000000
0.311559 -0.006562 -0.179691 -0.057307 0.866714 0.495502 157 157 157 1.000000
0.285910 -0.115436 0.539657 0.334487 -0.931419 0.143445 226 226 226 1.000000
-0.357598 0.498602 -0.369698 0.290338 0.323913 0.900436 164 177 186 1.000000
0.338690 -0.015146 -0.055717 -0.421940 -0.883174 -0.204866 255 255 255 1.000000
0.128019 0.085743 -0.105240 -0.177314 -0.792312 -0.583782 255 255 255 1.000000
-0.311944 0.448458 -0.396162 0.363734 0.160646 0.917546 224 224 224 1.000000
0.243687 0.054639 -0.246919 0.085879 -0.701083 -0.707890 162 162 162 1.000000
-0.378725 -0.042236 0.231600 0.058373 0.995479 0.074933 164 177 186 1.000000
-0.138906 -0.165618 0.470347 -0.142560 -0.968450 0.204406 170 170 170 1.000000
0.074760 -0.183534 0.351851 0.060683 -0.997902 -0.022567 223 223 223 1.000000
-0.135408 0.432875 -0.376660 -0.045486 -0.511657 -0.857985 255 255 255 1.000000
-0.365337 -0.053415 -0.041953 -0.329727 -0.930204 -0.161248 191 191 191 1.000000
-0.026371 -0.144327 0.489741 -0.000000 0.940724 0.339174 160 160 160 1.000000
0.123707 0.548019 -0.447191 0.103100 -0.547554 -0.830395 255 255 255 1.000000
-0.405033 -0.589798 0.553419 0.915068 -0.240035 0.324088 239 239 239 1.000000
-0.318236 -0.048150 0.255743 0.057483 0.990488 0.125014 164 177 186 1.000000
-0.094660 -0.072696 -0.109022 -0.083856 -0.896995 -0.434014 232 232 232 1.000000
-0.085409 0.326100 -0.421674 0.040407 0.364931 0.930157 226 226 226 1.000000
0.016412 -0.048049 -0.148971 0.031454 -0.812963 -0.581466 223 223 223 1.000000
-0.179443 -0.162393 0.449040 0.155547 0.984118 -0.085535 211 211 211 1.000000
-0.438780 -0.044304 0.456837 -0.269585 -0.962198 -0.038721 255 255 255 1.000000
-0.084207 0.530503 -0.469127 0.055203 0.157505 0.985974 233 233 233 1.000000
0.375919 -0.049889 -0.022322 0.354004 -0.930967 -0.089341 224 224 224 1.000000
-0.106692 -0.041025 0.200610 -0.001816 0.963388 0.268103 164 177 186 1.000000
-0.062061 -0.074138 -0.108506 0.019721 0.892634 0.450351 181 181 181 1.000000
0.354622 0.190431 -0.301182 -0.395077 0.232080 0.888849 158 158 158 1.000000
-0.345291 -0.034885 0.133759 0.067275 -0.991785 -0.108799 255 255 255 1.000000
0.188278 -0.144490 0.527618 -0.240084 0.953205 -0.183736 205 205 205 1.000000
-0.139134 0.297222 -0.403849 0.130346 0.348556 0.928180 234 234 234 1.000000
-0.107575 -0.132758 0.558524 -0.098527 -0.953007 -0.286479 255 255 255 1.000000
-0.325804 0.026201 -0.116553 -0.467140 0.793533 0.389981 164 177 186 1.000000
0.175811 -0.069755 0.321335 0.051066 -0.977018 -0.206951 255 255 255 1.000000
-0.310034 -0.067536 0.397718 -0.163117 -0.977753 -0.131879 255 255 255 1.000000
0.240410 -0.153660 0.462048 -0.852722 -0.522365 0.000000 192 192 192 1.000000
0.374940 0.336339 -0.333992 0.487456 -0.218591 -0.845343 235 235 235 1.000000
0.349241 0.358461 -0.354982 -0.353585 0.258915 0.898855 200 200 200 1.000000
-0.261939 0.260540 -0.366384 0.222762 0.313191 0.923195 217 217 217 1.000000
0.367159 -0.090462 0.338303 -0.581081 0.812348 0.049357 233 233 233 1.000000
-0.183249 0.516827 -0.420991 0.133210 0.510795 0.849319 164 177 186 1.000000
0.103839 -0.125046 0.528503 -0.083511 0.959429 0.269298 164 177 186 1.000000
0.202504 -0.016491 0.082185 -0.129535 -0.955193 -0.266134 255 255 255 1.000000
0.205831 -0.149061 0.494385 -0.000000 0.289089 0.957302 213 213 213 1.000000
-0.086925 -0.182379 0.284889 -0.047996 -0.998658 -0.019443 217 217 217 1.000000
0.295688 -0.314575 -0.149721 0.446901 0.431108 -0.783853 235 235 235 1.000000
-0.306796 -0.068470 -0.043874 -0.218650 -0.926166 -0.307259 194 194 194 1.000000
0.189064 -0.164158 0.328439 -0.296763 0.954686 0.022520 200 200 200 1.000000
-0.036114 0.408503 -0.448493 0.045220 0.265327 0.963097 183 183 183 1.000000
0.304814 -0.076792 -0.009358 -0.260975 0.934932 0.240403 224 224 224 1.000000
0.063207 0.131537 -0.324374 0.038958 -0.592740 -0.804451 170 170 170 1.000000
-0.152609 0.059646 -0.266779 0.051725 0.709551 0.702753 187 187 187 1.000000
0.014133 0.349722 -0.325025 -0.009377 0.559813 0.828566 164 177 186 1.000000
0.321662 -0.093398 0.579910 0.295058 -0.938792 -0.177790 255 255 255 1.000000
0.061301 0.371875 -0.435910 -0.060832 0.265615 0.962158 194 194 194 1.000000
0.365546 -0.043912 -0.088013 0.177920 -0.968487 -0.174291 206 206 206 1.000000
-0.358907 0.119483 -0.285857 -0.014519 -0.418983 -0.907878 159 159 159 1.000000
0.022891 0.277002 -0.274017 -0.001817 -0.595676 -0.803223 255 255 255 1.000000
-0.139926 0.358415 -0.424772 0.146634 0.253372 0.956191 238 238 238 1.000000
0.082839 -0.173767 0.206146 -0.062161 0.990695 0.121072 155 155 155 1.000000
0.272012 -0.088707 0.483996 0.196621 -0.964757 -0.174884 255 255 255 1.000000
0.339953 0.111629 -0.271446 -0.133586 0.464086 0.875659 183 183 183 1.000000
0.311366 -0.083812 0.503389 0.234620 -0.959826 -0.153910 255 255 255 1.000000
-0.200128 -0.118066 0.029487 -0.215230 -0.935857 -0.279013 160 160 160 1.000000
0.203951 0.388216 -0.343755 0.069454 -0.467843 -0.881078 255 255 255 1.000000
0.075674 0.502611 -0.422977 0.057739 -0.547547 -0.834780 255 255 255 1.000000
0.051840 0.013598 0.041900 -0.054746 -0.916630 -0.395970 255 255 255 1.000000
-0.021803 -0.171520 0.160505 0.043083 0.973597 0.224171 223 223 223 1.000000
0.169282 0.195189 -0.349996 -0.116684 0.450934 0.884897 217 217 217 1.000000
-0.313128 0.335058 -0.371943 -0.329001 -0.251309 -0.910276 236 236 236 1.000000
0.017046 -0.173171 0.484645 0.050395 -0.976918 0.207585 185 185 185 1.000000
0.306415 -0.074647 0.435017 -0.186541 0.972632 0.138526 164 177 186 1.000000
0.309678 -0.009844 -0.043207 -0.388633 -0.888553 -0.243798 255 255 255 1.000000
0.279436 -0.079647 -0.030178 0.222414 -0.934934 -0.276459 191 191 191 1.000000
0.238930 -0.109192 0.549944 -0.207103 0.953682 0.218172 164 177 186 1.000000
-0.171498 -0.033345 0.170127 0.025378 -0.965852 -0.257850 255 255 255 1.000000
0.128976 -0.076162 -0.093124 0.094931 -0.894454 -0.436966 219 219 219 1.000000
-0.233144 0.425249 -0.364562 0.088408 0.442945 0.892179 164 177 186 1.000000
0.065270 -0.149520 -0.088043 0.000000 -0.200627 -0.979668 154 154 154 1.000000
0.191661 -0.097225 -0.032149 -0.163170 0.910360 0.380290 200 200 200 1.000000
0.355652 -0.087137 0.564133 -0.443153 0.893285 -0.075214 186 186 186 1.000000
0.030416 -0.109490 0.459756 -0.017671 0.965832 0.258567 164 177 186 1.000000
-0.384034 -0.062530 0.508730 0.276916 0.955938 0.097469 164 177 186 1.000000
-0.336969 -0.046691 -0.103565 -0.093871 -0.866812 -0.489719 174 174 174 1.000000
0.164553 -0.167975 0.275070 -0.174614 0.984392 0.021976 201 201 201 1.000000
-0.376906 0.190099 -0.278906 -0.244892 0.270131 0.931159 164 177 186 1.000000
0.319102 0.377472 -0.326139 -0.116910 0.350671 0.929173 164 177 186 1.000000
-0.383772 0.079366 -0.244506 -0.541970 0.467022 0.698684 164 177 186 1.000000
-0.063797 0.259257 -0.396378 -0.035386 -0.369013 -0.928750 209 209 209 1.000000
0.021392 0.052329 -0.032590 -0.038117 -0.868369 -0.494452 255 255 255 1.000000
-0.162171 0.345585 -0.417781 -0.141235 -0.339137 -0.930075 187 187 187 1.000000
-0.331847 -0.028535 -0.139179 -0.069558 -0.878509 -0.472635 225 225 225 1.000000
0.046102 -0.028497 0.158092 -0.029398 -0.952668 -0.302589 255 255 255 1.000000
0.203844 -0.079355 -0.067285 -0.151699 0.908091 0.390331 202 202 202 1.000000
-0.365100 0.304463 -0.343096 0.418642 0.209782 0.883590 230 230 230 1.000000
0.205871 -0.078143 0.375609 0.094012 -0.977252 -0.190108 255 255 255 1.000000
0.372941 -0.054095 0.009396 0.469094 -0.875133 -0.118714 194 194 194 1.000000
-0.139426 0.382346 -0.431344 -0.149191 -0.250952 -0.956433 239 239 239 1.000000
0.138717 -0.154453 -0.103685 0.000000 0.718345 0.695687 153 153 153 1.000000
0.114225 0.168550 -0.193460 -0.122467 -0.668702 -0.733375 255 255 255 1.000000
0.154791 -0.025400 0.132291 0.067662 0.959940 0.271915 164 177 186 1.000000
-0.274971 -0.033829 0.157978 0.039397 -0.982002 -0.184714 255 255 255 1.000000
-0.393450 -0.028930 -0.002720 -0.287402 0.952477 0.100936 164 177 186 1.000000
0.297963 -0.052102 0.249895 -0.046824 0.991368 0.122465 164 177 186 1.000000
-0.129220 0.011243 0.038659 -0.083812 0.923173 0.375136 164 177 186 1.000000
-0.228417 0.328266 -0.316737 -0.035721 0.455678 0.889428 164 177 186 1.000000
-0.181694 -0.157442 0.177836 0.150436 0.982951 0.105716 162 162 162 1.000000
0.090103 0.310019 -0.413269 -0.056099 0.367429 0.928358 210 210 210 1.000000
-0.114614 0.390131 -0.437097 0.147788 0.252280 0.956302 194 194 194 1.000000
0.413790 -0.040419 0.175835 0.039428 -0.998672 -0.033153 255 255 255 1.000000
-0.312687 0.552471 -0.408428 -0.001522 0.939250 0.343232 164 177 186 1.000000
-0.264038 -0.027319 -0.154569 0.105577 0.860848 0.497790 176 176 176 1.000000
-0.108296 0.095058 -0.297379 -0.063104 -0.585958 -0.807881 210 210 210 1.000000
-0.417962 -0.065545 0.412888 0.534393 0.845235 0.001206 216 216 216 1.000000
0.258802 -0.051556 0.244479 -0.027312 0.986811 0.159554 164 177 186 1.000000
0.161974 -0.132807 0.581036 0.150061 -0.949601 -0.275210 255 255 255 1.000000
0.288795 0.189404 -0.252940 0.244789 0.424037 0.871935 164 177 186 1.000000
-0.089947 -0.115313 0.489051 -0.070300 -0.962256 -0.262907 255 255 255 1.000000
-0.037433 0.237265 -0.245123 0.028288 -0.624914 -0.780181 255 255 255 1.000000
-0.286613 -0.000057 -0.001189 0.228546 -0.934079 -0.274343 255 255 255 1.000000
0.116876 -0.174525 0.411129 -0.164638 0.983074 -0.080375 167 167 167 1.000000
-0.321320 -0.044286 0.217617 0.023943 0.991969 0.124196 164 177 186 1.000000
0.359644 -0.029379 -0.039051 0.369497 0.924938 0.089232 164 177 186 1.000000
0.081885 0.428385 -0.450158 0.061869 -0.266447 -0.961862 152 152 152 1.000000
0.292057 -0.129318 0.350636 -0.429694 0.902387 0.032581 147 147 147 1.000000
-0.241009 0.463982 -0.381855 -0.136829 -0.444350 -0.885342 255 255 255 1.000000
-0.236387 0.284944 -0.292901 -0.090137 0.468407 0.878903 164 177 186 1.000000
0.225622 -0.153809 0.366611 0.294262 -0.955391 -0.025247 162 162 162 1.000000
0.163551 -0.014596 -0.183847 0.072985 -0.817910 -0.570698 186 186 186 1.000000
-0.391079 0.151574 -0.278810 0.353156 -0.174282 -0.919188 255 255 255 1.000000
-0.268338 -0.074146 -0.059833 -0.238703 -0.915824 -0.322937 193 193 193 1.000000
-0.411323 -0.620168 0.554123 -0.534924 0.033620 -0.844231 203 203 203 1.000000
-0.404678 -0.070577 0.300405 0.564176 0.824948 0.034137 228 228 228 1.000000
-0.321484 -0.037566 0.172572 -0.019615 0.990793 0.133954 164 177 186 1.000000
0.186749 0.377953 -0.417751 -0.283356 0.218888 0.933701 171 171 171 1.000000
-0.021218 -0.161473 0.538946 -0.046857 -0.976899 0.208503 185 185 185 1.000000
-0.103024 -0.168698 0.170872 -0.155494 -0.981663 -0.110271 209 209 209 1.000000
-0.208322 0.035666 -0.237586 0.070832 0.708683 0.701962 165 165 165 1.000000
0.310365 -0.089775 0.539819 -0.257870 0.952045 0.164661 164 177 186 1.000000
0.129177 0.216788 -0.366444 0.128502 -0.459083 -0.879051 237 237 237 1.000000
0.220162 -0.106535 0.519162 -0.174448 0.960347 0.217488 164 177 186 1.000000
0.061355 -0.057285 0.258318 -0.003121 -0.966397 -0.257037 255 255 255 1.000000
0.310843 -0.069045 0.403063 0.168295 -0.977342 -0.128374 255 255 255 1.000000
-0.345402 -0.009078 -0.037535 0.347327 -0.914054 -0.209448 255 255 255 1.000000
0.354516 0.113516 -0.244965 -0.515337 -0.394065 -0.761013 255 255 255 1.000000
0.171638 0.170545 -0.205963 -0.182122 -0.629100 -0.755688 255 255 255 1.000000
0.296392 0.188736 -0.316955 0.272516 -0.334066 -0.902294 220 220 220 1.000000
-0.137991 0.003225 0.059972 -0.075266 0.932757 0.352561 164 177 186 1.000000
-0.318926 0.196961 -0.327231 -0.236426 -0.345797 -0.908035 204 204 204 1.000000
-0.043754 -0.093176 -0.071367 -0.022878 -0.891305 -0.452827 181 181 181 1.000000
0.151925 -0.167878 0.421344 -0.162545 0.983601 -0.078149 187 187 187 1.000000
0.223222 -0.027269 0.119991 -0.087003 -0.971344 -0.221180 255 255 255 1.000000
-0.114562 0.205001 -0.366154 0.097019 0.460137 0.882531 201 201 201 1.000000
-0.408233 -0.031294 -0.152094 0.093597 -0.928676 -0.358889 235 235 235 1.000000
-0.276483 -0.140498 0.349160 -0.407521 -0.913119 -0.011837 175 175 175 1.000000
0.183960 -0.160393 0.445210 -0.276318 0.958629 -0.068404 175 175 175 1.000000
0.266821 -0.137161 0.445840 0.268551 -0.961422 0.059568 226 226 226 1.000000
0.022003 -0.182541 0.413984 -0.057006 0.994764 -0.084820 224 224 224 1.000000
0.363328 0.449620 -0.343100 -0.236366 0.331638 0.913317 164 177 186 1.000000
-0.431543 -0.055967 0.384428 -0.558300 -0.829161 -0.028164 238 238 238 1.000000
0.284086 0.135755 -0.218458 -0.347958 -0.512583 -0.784973 255 255 255 1.000000
-0.376029 -0.034889 0.109537 -0.065569 0.995216 0.072428 164 177 186 1.000000
0.336409 -0.026136 0.016994 0.233652 0.965303 0.116606 164 177 186 1.000000
-0.264562 -0.116362 0.075441 0.209085 0.938749 0.273924 155 155 155 1.000000
-0.277527 0.490410 -0.416138 0.364595 0.101500 0.925618 222 222 222 1.000000
-0.348381 -0.091699 0.121810 -0.364646 -0.923634 -0.118038 156 156 156 1.000000
-0.184896 -0.163919 0.416357 -0.262066 -0.961577 0.081796 175 175 175 1.000000
0.039126 0.517846 -0.434231 0.036466 -0.554902 -0.831116 255 255 255 1.000000
0.344006 -0.058240 0.357328 0.156562 -0.982797 -0.097968 255 255 255 1.000000
0.183340 0.457066 -0.438205 0.293273 -0.130196 -0.947122 172 172 172 1.000000
0.281399 0.326942 -0.308997 -0.022212 0.396040 0.917965 164 177 186 1.000000
0.067002 0.282838 -0.279208 0.015956 0.582098 0.812962 164 177 186 1.000000
0.270527 -0.136334 0.265847 0.302171 -0.948377 -0.096300 165 165 165 1.000000
0.252581 -0.149068 0.151840 0.980235 0.197836 -0.000000 211 211 211 1.000000
-0.418600 -0.037832 -0.045380 -0.230265 -0.969566 -0.083190 238 238 238 1.000000
-0.168284 -0.114005 -0.002921 -0.105297 -0.946737 -0.304305 156 156 156 1.000000
0.399472 0.463074 -0.347921 -0.490675 0.146202 0.858989 205 205 205 1.000000
-0.324449 0.455625 -0.363315 0.195705 0.348448 0.916670 164 177 186 1.000000
-0.119288 0.562273 -0.458577 -0.095797 -0.551754 -0.828487 255 255 255 1.000000
0.029158 -0.121651 0.502305 0.017428 -0.961550 -0.274075 255 255 255 1.000000
-0.146591 -0.173515 0.298390 0.160397 0.986919 0.016228 201 201 201 1.000000
0.314669 -0.060332 0.333376 -0.120810 0.985943 0.115415 164 177 186 1.000000
-0.150981 -0.156698 0.504395 -0.141659 -0.968411 0.205213 190 190 190 1.000000
0.073042 0.199964 -0.364445 -0.047328 0.475181 0.878614 221 221 221 1.000000
-0.133163 -0.143800 0.483325 -0.000000 0.981776 -0.190040 173 173 173 1.000000
-0.299246 0.007083 -0.036945 0.296182 -0.908900 -0.293559 255 255 255 1.000000
0.295934 -0.308276 0.502462 -0.091799 -0.188692 -0.977736 153 153 153 1.000000
-0.164884 -0.145204 0.103902 -0.135409 -0.969978 -0.202007 200 200 200 1.000000
-0.252636 -0.153775 0.083355 0.858902 -0.512140 0.000000 168 168 168 1.000000
-0.293199 -0.044042 0.214758 0.015747 0.988618 0.149623 164 177 186 1.000000
-0.419098 0.407381 -0.329429 -0.169171 -0.190592 -0.966983 255 255 255 1.000000
-0.004065 -0.180879 0.445611 -0.049474 -0.995059 0.086087 228 228 228 1.000000
-0.040760 0.387240 -0.442415 -0.044386 -0.266056 -0.962935 170 170 170 1.000000
-0.299228 -0.079281 -0.022563 0.244200 0.912850 0.327217 178 178 178 1.000000
-0.245312 0.141839 -0.203937 -0.305377 0.624849 0.718546 164 177 186 1.000000
0.099940 0.526946 -0.465079 0.180046 -0.155745 -0.971250 161 161 161 1.000000
-0.098893 -0.070124 0.313986 -0.034639 -0.969622 -0.242144 255 255 255 1.000000
0.350808 0.055797 -0.203857 0.590469 0.537789 0.601772 164 177 186 1.000000
-0.158306 0.563075 -0.454012 0.129375 0.543260 0.829537 164 177 186 1.000000
0.250039 -0.115175 0.075804 -0.252222 0.936505 0.243604 203 203 203 1.000000
-0.343578 -0.095038 0.554930 -0.334578 -0.929370 0.155977 202 202 202 1.000000
0.385816 -0.079326 0.444787 0.525841 -0.850533 -0.009197 219 219 219 1.000000
-0.357307 -0.102875 0.291579 0.557534 0.829702 0.027388 194 194 194 1.000000
-0.406013 -0.048908 0.047413 0.472650 0.875692 0.098822 168 168 168 1.000000
-0.323816 -0.077467 -0.006159 0.287974 0.940394 0.180915 216 216 216 1.000000
0.159698 -0.155181 0.160710 -0.167675 0.965239 0.200494 154 154 154 1.000000
-0.419982 -0.049133 0.142997 -0.533073 -0.842880 -0.073390 219 219 219 1.000000
-0.222362 -0.081672 0.407688 -0.125240 -0.973451 -0.191592 255 255 255 1.000000
-0.338044 -0.029422 0.092613 0.121864 -0.984218 -0.128316 255 255 255 1.000000
-0.400775 0.223581 -0.290100 0.182702 -0.244616 -0.952252 255 255 255 1.000000
-0.252656 -0.025181 0.115984 0.080884 -0.971892 -0.221097 255 255 255 1.000000
0.093044 -0.060005 0.268756 -0.005131 0.969034 0.246874 164 177 186 1.000000
-0.444008 -0.726519 0.220431 -0.093739 -0.995597 0.000000 206 206 206 1.000000
-0.279349 0.393785 -0.398449 -0.350251 -0.175718 -0.920026 159 159 159 1.000000
0.361328 -0.024002 -0.080957 0.478406 0.867705 0.134970 164 177 186 1.000000
0.298558 0.554187 -0.410769 0.274583 -0.462232 -0.843176 255 255 255 1.000000
-0.455035 -0.041691 0.539546 0.350659 0.935253 0.048375 164 177 186 1.000000
0.295400 0.424731 -0.391858 -0.385030 0.179438 0.905292 205 205 205 1.000000
-0.028387 -0.012198 -0.198961 -0.014037 -0.814247 -0.580349 175 175 175 1.000000
0.340514 -0.080554 0.533900 -0.278131 0.950378 0.139375 164 177 186 1.000000
-0.277541 0.350937 -0.327499 0.012941 0.399885 0.916474 164 177 186 1.000000
0.307916 0.458517 -0.393399 -0.387617 0.181042 0.903868 229 229 229 1.000000
0.337822 -0.053730 -0.066618 -0.235253 0.935222 0.264604 189 189 189 1.000000
-0.408696 -0.054644 0.490866 -0.278660 -0.957886 -0.069300 255 255 255 1.000000
-0.055099 0.139390 -0.332162 0.018782 0.592633 0.805253 224 224 224 1.000000
0.149494 0.083715 -0.109142 0.208287 0.785004 0.583425 164 177 186 1.000000
-0.307136 0.014601 -0.207796 0.045115 0.711563 0.701173 219 219 219 1.000000
-0.233567 0.117108 -0.174641 0.302112 -0.689618 -0.658145 255 255 255 1.000000
0.216634 0.480278 -0.391067 0.160864 -0.481418 -0.861603 255 255 255 1.000000
0.025859 -0.136978 0.554776 -0.021089 0.955370 0.294657 164 177 186 1.000000
-0.212108 0.133087 -0.183560 -0.264096 0.677284 0.686688 164 177 186 1.000000
0.025643 0.368823 -0.437261 -0.061750 0.266352 0.961896 215 215 215 1.000000
0.162845 -0.159905 0.196754 0.174122 -0.978069 -0.114288 226 226 226 1.000000
-0.053197 -0.162573 0.128011 0.040460 0.974243 0.221842 168 168 168 1.000000
-0.366212 -0.018995 -0.164299 0.095189 -0.918076 -0.384805 227 227 227 1.000000
-0.338683 -0.089314 0.080464 0.323411 0.922468 0.210850 173 173 173 1.000000
0.367356 -0.039748 -0.119171 0.160091 0.937756 0.308195 231 231 231 1.000000
0.113103 -0.171598 0.455107 -0.162656 0.983574 -0.078267 201 201 201 1.000000
-0.217598 -0.102124 0.503666 0.172277 0.960185 0.219921 164 177 186 1.000000
-0.142626 0.007084 -0.214438 0.051317 0.709806 0.702525 206 206 206 1.000000
-0.040786 0.027965 0.015656 0.017592 -0.901594 -0.432226 255 255 255 1.000000
0.374028 -0.062518 0.086559 -0.524435 0.847825 0.078493 199 199 199 1.000000
-0.271302 -0.175819 0.483671 -0.788431 0.155330 -0.595189 167 167 167 1.000000
0.284891 -0.089837 0.016596 -0.324779 0.922001 0.210793 190 190 190 1.000000
-0.447686 -0.727176 0.009849 -0.492347 0.870399 -0.000000 196 196 196 1.000000
-0.049440 0.206267 -0.218772 -0.045865 0.658959 0.750780 164 177 186 1.000000
-0.145944 -0.009194 0.094524 -0.056628 0.946192 0.318612 164 177 186 1.000000
0.008364 -0.001154 -0.211399 -0.031226 0.709649 0.703863 187 187 187 1.000000
0.324374 0.341470 -0.359440 -0.357035 0.261055 0.896870 220 220 220 1.000000
-0.366607 0.258017 -0.295933 -0.118713 0.298472 0.947007 164 177 186 1.000000
0.156454 -0.087353 -0.063686 -0.106081 0.897723 0.427599 231 231 231 1.000000
0.001377 -0.185108 0.398385 0.057730 -0.994660 0.085544 199 199 199 1.000000
0.147658 0.028925 -0.014430 -0.169913 -0.888282 -0.426713 255 255 255 1.000000
0.326103 0.492467 -0.392443 0.388907 -0.181843 -0.903152 210 210 210 1.000000
-0.442070 -0.739216 -0.198836 -0.346167 0.938173 -0.000000 213 213 213 1.000000
0.277383 0.079733 -0.262572 -0.145110 0.472063 0.869540 223 223 223 1.000000
-0.327059 0.167203 -0.253571 0.319764 -0.428137 -0.845252 255 255 255 1.000000
0.094175 0.060531 -0.269634 -0.071756 0.707255 0.703308 158 158 158 1.000000
0.171985 0.415479 -0.361872 -0.074992 0.498429 0.863681 164 177 186 1.000000
-0.101902 0.494735 -0.461107 0.161034 0.145036 0.976234 189 189 189 1.000000
0.193056 0.537600 -0.430119 0.160543 -0.536565 -0.828447 255 255 255 1.000000
0.152738 -0.061689 0.280718 -0.023672 0.975301 0.219607 164 177 186 1.000000
0.026265 -0.086920 0.372243 0.007034 -0.968909 -0.247317 255 255 255 1.000000
-0.120164 0.415886 -0.443151 0.151077 0.249165 0.956605 219 219 219 1.000000
-0.419967 -0.058547 0.278901 0.564771 0.823428 0.054766 187 187 187 1.000000
-0.016272 0.014538 0.044888 -0.003649 -0.915883 -0.401428 255 255 255 1.000000
0.338715 -0.051380 0.280751 -0.093343 0.991290 0.092903 164 177 186 1.000000
-0.212486 0.540286 -0.442898 -0.291826 -0.128645 -0.947781 164 164 164 1.000000
0.342658 -0.105363 0.443823 0.386224 -0.921910 0.030233 240 240 240 1.000000
0.064236 -0.114736 -0.025662 0.048043 -0.941927 -0.332363 147 147 147 1.000000
0.186013 -0.064125 0.297451 0.042727 -0.978699 -0.200806 255 255 255 1.000000
0.342852 -0.468398 0.543373 -0.777714 -0.149373 0.610613 209 209 209 1.000000
0.076084 0.029970 0.005355 0.085036 0.895548 0.436764 164 177 186 1.000000
0.021303 0.154256 -0.168839 -0.029962 -0.721048 -0.692237 255 255 255 1.000000
0.333894 -0.100542 0.530819 0.326292 -0.935900 0.132755 160 160 160 1.000000
0.252489 0.045509 -0.102871 -0.365201 -0.792822 -0.487916 255 255 255 1.000000
-0.162333 0.028781 -0.007502 0.139054 -0.898787 -0.415748 255 255 255 1.000000
-0.237467 0.241967 -0.270244 0.162979 -0.502272 -0.849212 255 255 255 1.000000
0.145043 0.393578 -0.429927 0.168650 -0.249228 -0.953647 184 184 184 1.000000
0.103060 0.247777 -0.255338 -0.051939 -0.592471 -0.803915 255 255 255 1.000000
-0.438117 -0.733676 0.049677 -0.988100 0.153811 0.000000 174 174 174 1.000000
0.370534 -0.090327 0.412497 -0.539727 0.841790 -0.009173 156 156 156 1.000000
-0.263031 -0.145621 0.484269 0.727143 -0.686486 -0.000000 234 234 234 1.000000
-0.395172 0.373794 -0.343844 0.451481 0.179464 0.874046 148 148 148 1.000000
0.429464 -0.046653 0.460531 0.295391 -0.953803 -0.054804 255 255 255 1.000000
-0.048809 0.324036 -0.422501 0.038416 0.366553 0.929604 157 157 157 1.000000
0.340145 -0.072053 0.475530 0.238343 -0.963178 -0.124420 255 255 255 1.000000
-0.304935 0.049544 -0.144565 -0.466682 0.732036 0.496318 164 177 186 1.000000
0.149995 0.471638 -0.447211 0.173606 -0.150822 -0.973198 195 195 195 1.000000
0.268993 -0.098191 0.526874 0.217964 -0.956899 -0.191926 255 255 255 1.000000
0.133769 -0.114890 0.501675 -0.098615 0.963211 0.249997 164 177 186 1.000000
-0.187314 0.300344 -0.298087 -0.058228 0.506274 0.860405 164 177 186 1.000000
-0.305313 0.083708 -0.270819 -0.102014 -0.518799 -0.848788 155 155 155 1.000000
-0.439931 -0.039890 0.279973 -0.795789 -0.603863 -0.045484 150 150 150 1.000000
-0.162595 0.405876 -0.358971 0.040643 0.498885 0.865715 164 177 186 1.000000
-0.207462 0.401410 -0.422185 -0.264956 -0.216238 -0.939702 154 154 154 1.000000
-0.217400 -0.060336 0.291532 -0.054644 -0.980139 -0.190634 255 255 255 1.000000
0.416976 0.334060 -0.309557 -0.480338 0.213719 0.850647 147 147 147 1.000000
0.157317 0.375549 -0.338845 -0.042908 0.505398 0.861819 164 177 186 1.000000
0.330986 -0.084353 0.078228 0.377357 -0.912544 -0.157683 163 163 163 1.000000
0.080984 -0.180496 0.260642 0.062841 -0.990731 -0.120427 208 208 208 1.000000
-0.225431 0.210673 -0.353086 0.172882 0.414743 0.893364 155 155 155 1.000000
-0.357659 -0.015559 -0.021962 0.318032 -0.931503 -0.176517 255 255 255 1.000000
0.234536 0.376598 -0.334575 0.072805 -0.445248 -0.892442 255 255 255 1.000000
-0.204176 -0.042743 0.204233 0.003111 -0.975918 -0.218117 255 255 255 1.000000
0.154550 0.133940 -0.316592 0.092368 -0.578182 -0.810662 155 155 155 1.000000
-0.165683 -0.103534 -0.031650 -0.086508 -0.895755 -0.436049 237 237 237 1.000000
0.362244 0.020515 -0.210198 -0.190213 -0.680753 -0.707385 212 212 212 1.000000
0.258184 0.127662 -0.295845 -0.126505 0.540146 0.832009 172 172 172 1.000000
0.369849 0.376861 -0.319985 0.139638 -0.283237 -0.948830 255 255 255 1.000000
0.209563 0.527096 -0.420153 -0.175324 0.537423 0.824887 164 177 186 1.000000
-0.005918 -0.066005 -0.124494 -0.018024 -0.812175 -0.583135 223 223 223 1.000000
0.047957 0.199277 -0.212546 -0.037699 -0.660572 -0.749816 255 255 255 1.000000
-0.379103 -0.043676 0.255626 -0.079100 -0.994070 -0.074618 255 255 255 1.000000
-0.421845 -0.677221 -0.297402 0.798776 -0.034854 -0.600618 163 163 163 1.000000
-0.008379 0.333857 -0.428147 -0.036923 -0.367766 -0.929185 236 236 236 1.000000
0.217161 -0.036106 0.157794 -0.057408 -0.976209 -0.209096 255 255 255 1.000000
0.327839 0.163989 -0.300993 0.240867 -0.313693 -0.918466 177 177 177 1.000000
-0.416240 -0.048721 0.105779 -0.525392 -0.848295 -0.066014 146 146 146 1.000000
-0.229392 0.028927 -0.042573 -0.237704 0.885994 0.398135 164 177 186 1.000000
0.011543 0.517959 -0.435479 0.014419 -0.556459 -0.830750 255 255 255 1.000000
-0.074676 0.021751 -0.233474 -0.012794 -0.710852 -0.703225 231 231 231 1.000000
-0.357112 0.476849 -0.362230 -0.245795 -0.320841 -0.914683 255 255 255 1.000000
0.263294 -0.091939 -0.001929 -0.230391 0.936464 0.264489 173 173 173 1.000000
0.048843 -0.042432 0.203785 -0.012472 -0.961146 -0.275759 255 255 255 1.000000
0.356796 0.259228 -0.288954 0.092372 0.284411 0.954242 164 177 186 1.000000
-0.063396 0.173009 -0.189786 -0.064225 0.695653 0.715501 164 177 186 1.000000
-0.190572 -0.024464 -0.169345 -0.090697 -0.833440 -0.545116 190 190 190 1.000000
-0.230777 0.360186 -0.331613 0.011027 0.448310 0.893810 164 177 186 1.000000
-0.201526 -0.134346 0.559593 -0.200681 -0.923545 0.326789 151 151 151 1.000000
-0.262339 0.027859 -0.224276 0.046257 0.710904 0.701766 173 173 173 1.000000
-0.274124 -0.011987 0.056048 0.150137 -0.959384 -0.238835 255 255 255 1.000000
-0.079110 0.390481 -0.441395 0.046240 0.264437 0.963294 194 194 194 1.000000
0.094910 0.189148 -0.207652 0.089764 0.656932 0.748587 164 177 186 1.000000
-0.175606 -0.019565 0.117414 0.059508 -0.957601 -0.281886 255 255 255 1.000000
-0.288959 0.464606 -0.374687 0.173320 0.391947 0.903514 164 177 186 1.000000
-0.066472 0.359419 -0.433534 0.044160 0.266252 0.962891 186 186 186 1.000000
0.161494 0.092623 -0.125329 -0.225093 -0.763363 -0.605483 255 255 255 1.000000
0.182402 0.038363 -0.238470 0.087488 -0.701999 -0.706784 175 175 175 1.000000
-0.151849 -0.078599 0.361064 0.070052 0.972615 0.221616 164 177 186 1.000000
0.104159 0.416324 -0.365799 0.049785 -0.530110 -0.846466 255 255 255 1.000000
0.221860 0.196075 -0.237319 0.185167 0.532914 0.825661 164 177 186 1.000000
0.170383 -0.085358 0.392363 -0.083440 0.973695 0.212029 164 177 186 1.000000
0.037599 0.224908 -0.235004 0.026482 0.633316 0.773440 164 177 186 1.000000
0.136855 -0.091951 0.408907 0.068364 -0.971707 -0.226082 255 255 255 1.000000
0.264273 0.108907 -0.189371 0.370899 0.606682 0.703115 164 177 186 1.000000
0.335600 -0.108799 0.418882 -0.392036 0.919193 -0.037308 181 181 181 1.000000
0.076786 0.313276 -0.301319 0.009068 0.559911 0.828503 164 177 186 1.000000
-0.050696 -0.066911 0.296146 0.017432 0.967746 0.251324 164 177 186 1.000000
-0.026406 0.351227 -0.432912 0.041996 0.268137 0.962465 202 202 202 1.000000
-0.074941 -0.126801 0.006898 -0.029831 -0.943654 -0.329586 167 167 167 1.000000
-0.182383 0.081568 -0.281666 0.087419 0.569472 0.817349 177 177 177 1.000000
-0.226430 -0.120331 0.583025 -0.208471 -0.943236 -0.258547 255 255 255 1.000000
0.327530 -0.094968 0.137788 -0.419630 0.898622 0.128018 224 224 224 1.000000
0.231788 -0.150378 0.309712 -0.296029 0.954894 0.023321 238 238 238 1.000000
-0.029383 0.078629 -0.073181 -0.018570 0.834138 0.551243 164 177 186 1.000000
0.162580 0.169423 -0.337950 0.112721 -0.448181 -0.886808 205 205 205 1.000000
0.139042 -0.026309 -0.170041 0.072372 -0.817640 -0.571163 233 233 233 1.000000
0.101628 -0.052284 0.238966 0.004534 0.967842 0.251519 164 177 186 1.000000
-0.050447 0.014142 -0.226224 -0.012851 -0.710817 -0.703259 226 226 226 1.000000
-0.322836 -0.111742 0.197680 -0.405436 -0.911474 -0.069547 199 199 199 1.000000
0.043204 -0.183975 0.285449 0.061383 -0.997874 -0.021883 239 239 239 1.000000
-0.005003 0.130404 -0.326723 -0.016851 -0.593959 -0.804319 195 195 195 1.000000
-0.404347 0.348902 -0.334231 0.445557 0.185026 0.875925 177 177 177 1.000000
-0.266731 0.024159 -0.060169 -0.304734 0.876974 0.371557 164 177 186 1.000000
-0.212431 -0.159262 0.305114 -0.279530 -0.960047 -0.013148 166 166 166 1.000000
0.358123 0.454103 -0.369852 -0.489981 0.150524 0.858639 239 239 239 1.000000
-0.207150 0.192237 -0.231777 0.207034 -0.593244 -0.777945 255 255 255 1.000000
-0.247757 -0.147074 0.410865 0.268046 0.960370 -0.076427 234 234 234 1.000000
0.141463 -0.123629 0.021902 0.135223 -0.941097 -0.309922 192 192 192 1.000000
0.164157 0.476752 -0.398025 0.112625 -0.512413 -0.851322 255 255 255 1.000000
-0.351612 -0.019118 0.002257 -0.262893 0.950393 0.166255 164 177 186 1.000000
-0.121821 0.072458 -0.076289 0.126500 -0.837948 -0.530888 255 255 255 1.000000
0.372317 -0.073944 0.179843 0.582786 -0.808998 -0.076691 196 196 196 1.000000
0.140380 -0.144520 0.094193 -0.158086 0.964917 0.209627 147 147 147 1.000000
-0.314665 -0.019635 0.058421 -0.160321 0.970024 0.182622 164 177 186 1.000000
-0.128504 0.273985 -0.396280 -0.124983 -0.353158 -0.927178 170 170 170 1.000000
0.066303 -0.094032 0.402613 0.028544 -0.968928 -0.245690 255 255 255 1.000000
0.384071 -0.061027 0.132489 0.574307 -0.814237 -0.084798 206 206 206 1.000000
0.288670 -0.100551 0.064341 0.351128 -0.917958 -0.184560 197 197 197 1.000000
0.016797 -0.181079 0.434355 -0.056691 0.994809 -0.084506 183 183 183 1.000000
-0.373421 -0.089200 0.255312 0.567077 0.821683 0.057102 225 225 225 1.000000
0.224439 -0.085689 0.421339 -0.126413 0.974082 0.187576 164 177 186 1.000000
0.230819 0.154656 -0.318270 -0.145276 0.552281 0.820903 195 195 195 1.000000
-0.226077 -0.010042 0.073677 0.109502 -0.954525 -0.277292 255 255 255 1.000000
-0.327943 -0.037518 -0.121076 0.086727 0.870346 0.484744 220 220 220 1.000000
-0.279865 -0.085343 0.476930 -0.199379 -0.965074 -0.169940 255 255 255 1.000000
0.145965 0.251505 -0.262267 -0.074163 -0.562881 -0.823204 255 255 255 1.000000
0.104372 0.120243 -0.140771 -0.134752 -0.746052 -0.652111 255 255 255 1.000000
0.195467 0.133738 -0.310801 0.148459 -0.554310 -0.818963 204 204 204 1.000000
-0.210672 0.491694 -0.400791 0.139827 0.479482 0.866340 164 177 186 1.000000
0.115902 0.244869 -0.383657 -0.136795 0.464749 0.874812 212 212 212 1.000000
0.040627 -0.020801 -0.185697 -0.030765 0.812630 0.581968 204 204 204 1.000000
-0.326903 -0.106935 0.517789 -0.338940 -0.928413 0.152215 210 210 210 1.000000
-0.221175 -0.030564 -0.154516 0.086631 0.835651 0.542386 156 156 156 1.000000
-0.095160 -0.172765 0.194984 -0.157678 -0.981091 -0.112237 180 180 180 1.000000
-0.243506 0.534372 -0.432606 0.289009 0.130297 0.948418 151 151 151 1.000000
-0.365099 0.030433 -0.178859 -0.572155 0.648146 0.502539 164 177 186 1.000000
-0.405771 -0.065764 0.238669 -0.563415 -0.824447 -0.053395 193 193 193 1.000000
-0.256807 -0.094648 -0.013358 0.181864 0.950671 0.251295 217 217 217 1.000000
0.300025 0.088038 -0.264198 0.138704 -0.467639 -0.872969 202 202 202 1.000000
-0.444836 -0.726521 -0.022661 0.041629 -0.999133 0.000000 145 145 145 1.000000
-0.280487 -0.137949 0.284649 0.410715 0.911643 0.014811 238 238 238 1.000000
0.244610 -0.105084 0.029669 0.235363 -0.936549 -0.259771 202 202 202 1.000000
0.324555 0.331963 -0.311708 -0.049386 0.333946 0.941297 164 177 186 1.000000
0.050286 0.046184 -0.024315 0.070158 0.874470 0.479980 164 177 186 1.000000
0.054516 0.004307 0.064955 -0.056123 -0.925597 -0.374326 255 255 255 1.000000
0.042436 0.124094 -0.136520 0.058087 0.760245 0.647034 164 177 186 1.000000
0.292263 0.476041 -0.404083 0.394099 -0.185066 -0.900243 187 187 187 1.000000
0.269816 -0.138617 0.307799 0.294863 -0.955223 -0.024592 220 220 220 1.000000
0.139478 0.097821 -0.292806 -0.087935 0.575309 0.813196 205 205 205 1.000000
0.336826 0.441808 -0.349713 -0.211496 0.349020 0.912937 164 177 186 1.000000
0.207096 0.228305 -0.358034 0.213833 -0.422370 -0.880840 150 150 150 1.000000
0.284834 0.155918 -0.229917 -0.303285 -0.480657 -0.822792 255 255 255 1.000000
-0.293519 0.512502 -0.412236 0.366024 0.103459 0.924837 231 231 231 1.000000
-0.091011 -0.109565 0.468708 0.067324 0.964565 0.255111 164 177 186 1.000000
0.381247 0.030957 -0.219464 -0.666677 -0.505893 -0.547370 255 255 255 1.000000
0.346557 0.382066 -0.327000 0.136248 -0.312090 -0.940232 255 255 255 1.000000
-0.190529 -0.097736 0.462666 0.132283 0.967040 0.217567 164 177 186 1.000000
-0.313479 -0.096273 0.581645 0.275148 0.940718 0.198353 164 177 186 1.000000
-0.014425 -0.012309 0.112797 -0.005444 -0.940673 -0.339271 255 255 255 1.000000
-0.140239 0.175236 -0.347757 0.095243 0.461518 0.882003 228 228 228 1.000000
-0.385001 -0.054544 0.415915 0.210972 0.974481 0.076672 164 177 186 1.000000
-0.265944 0.018129 -0.037670 -0.264612 0.898411 0.350483 164 177 186 1.000000
-0.224302 -0.135574 0.533567 -0.232288 -0.952846 0.195263 238 238 238 1.000000
-0.288693 0.098008 -0.281376 0.101821 0.518926 0.848733 197 197 197 1.000000
-0.061884 0.543374 -0.471748 -0.055612 -0.065183 -0.996323 209 209 209 1.000000
-0.000416 0.252245 -0.255160 -0.002219 0.618351 0.785899 164 177 186 1.000000
-0.325978 -0.371372 -0.170608 0.451986 -0.431568 0.780677 231 231 231 1.000000
0.232484 -0.141206 0.196426 -0.296059 0.949632 0.102708 231 231 231 1.000000
-0.382054 0.418208 -0.357982 0.472518 0.127999 0.871977 234 234 234 1.000000
-0.141365 -0.166323 0.203304 -0.155007 -0.981789 -0.109831 165 165 165 1.000000
-0.248211 -0.065241 -0.090112 -0.122356 -0.919941 -0.372475 183 183 183 1.000000
0.259896 -0.044247 0.198077 0.010523 0.986634 0.162611 164 177 186 1.000000
-0.209320 -0.047704 0.232443 0.018482 0.977553 0.209878 164 177 186 1.000000
-0.260553 0.008921 -0.008802 0.226550 -0.919362 -0.321633 255 255 255 1.000000
-0.091479 -0.081360 0.357002 -0.041233 -0.969529 -0.241483 255 255 255 1.000000
0.034941 0.001410 0.074574 0.040327 0.928339 0.369540 164 177 186 1.000000
-0.122402 -0.018864 -0.184917 0.055627 0.820912 0.568340 217 217 217 1.000000
0.197448 -0.160956 0.301217 -0.297430 0.954495 0.021792 217 217 217 1.000000
-0.418317 -0.041640 0.255975 0.099608 0.994207 0.040372 164 177 186 1.000000
0.056462 -0.071212 0.311360 0.006336 -0.969011 -0.246935 255 255 255 1.000000
-0.255178 0.123843 -0.191029 -0.332190 0.646351 0.686935 164 177 186 1.000000
0.399873 -0.633914 -0.284635 -0.255114 0.260594 -0.931132 213 213 213 1.000000
0.089156 0.470122 -0.401049 -0.059087 0.536593 0.841770 164 177 186 1.000000
0.134309 -0.077869 0.347936 -0.044893 0.973887 0.222551 164 177 186 1.000000
-0.309727 -0.078307 0.473744 0.217100 0.965007 0.147068 164 177 186 1.000000
-0.252547 0.277434 -0.374219 0.225320 0.310891 0.923351 222 222 222 1.000000
-0.402921 -0.075132 0.399100 -0.532390 -0.846499 0.000769 238 238 238 1.000000
-0.080712 0.573368 -0.470579 0.062419 0.565447 0.822419 164 177 186 1.000000
-0.046376 -0.160916 0.535892 -0.046792 -0.976889 0.208565 152 152 152 1.000000
-0.078525 -0.165008 0.509529 0.046659 0.976868 -0.208690 224 224 224 1.000000
0.081617 0.156865 -0.340916 -0.044047 0.472814 0.880061 238 238 238 1.000000
-0.247559 0.126093 -0.303981 -0.117806 -0.548173 -0.828027 183 183 183 1.000000
-0.029332 0.438575 -0.383663 -0.000827 0.542369 0.840140 164 177 186 1.000000
-0.120857 -0.011345 0.103407 0.043821 -0.945688 -0.322107 255 255 255 1.000000
0.401768 0.509281 -0.349532 -0.326926 0.317340 0.890177 164 177 186 1.000000
0.196237 0.151290 -0.322829 -0.154934 0.558413 0.814967 198 198 198 1.000000
0.150004 -0.152471 0.138943 -0.164194 0.965142 0.203818 206 206 206 1.000000
-0.135352 -0.048507 0.230962 0.011880 0.968755 0.247734 164 177 186 1.000000
0.088870 -0.083272 -0.086171 -0.041031 0.891648 0.450867 200 200 200 1.000000
-0.243505 0.054601 -0.097549 0.302404 -0.821425 -0.483543 255 255 255 1.000000
-0.410307 0.374432 -0.324919 0.137327 0.203733 0.969347 164 177 186 1.000000
0.057690 0.409373 -0.363637 0.028154 -0.540252 -0.841032 255 255 255 1.000000
0.328752 0.264088 -0.287953 0.074798 0.330445 0.940857 164 177 186 1.000000
-0.170250 0.011291 0.028548 0.121428 -0.923272 -0.364450 255 255 255 1.000000
0.341323 -0.043335 0.193640 -0.016047 0.996147 0.086222 164 177 186 1.000000
0.209753 0.305250 -0.387357 0.254548 -0.313866 -0.914709 210 210 210 1.000000
0.000749 0.306398 -0.417464 0.034827 0.369467 0.928591 239 239 239 1.000000
-0.109044 -0.038763 -0.157830 -0.061317 -0.817821 -0.572197 215 215 215 1.000000
-0.048231 -0.019584 0.133170 0.005067 -0.947132 -0.320804 255 255 255 1.000000
-0.068462 -0.177800 0.224466 -0.045744 -0.991719 -0.120003 189 189 189 1.000000
0.284862 -0.132074 0.403110 0.403682 -0.913443 0.051603 211 211 211 1.000000
0.082321 0.044064 -0.023757 -0.100127 -0.875356 -0.472998 255 255 255 1.000000
-0.140868 0.194140 -0.218401 0.136317 -0.642640 -0.753944 255 255 255 1.000000
-0.338706 0.019150 -0.210481 0.043340 0.712583 0.700248 238 238 238 1.000000
-0.119695 -0.031361 0.169198 -0.011869 0.959521 0.281386 164 177 186 1.000000
0.079868 0.535435 -0.444177 -0.067267 0.555712 0.828649 164 177 186 1.000000
0.190543 -0.158145 0.232438 0.295856 -0.949672 -0.102921 184 184 184 1.000000
0.173077 -0.092681 0.426572 -0.100154 0.971071 0.216773 164 177 186 1.000000
-0.314290 -0.110057 0.157891 0.385975 0.912266 0.137091 195 195 195 1.000000
0.214936 0.276458 -0.282820 0.059331 0.485548 0.872195 164 177 186 1.000000
0.012254 -0.184720 0.259375 0.061977 -0.990686 -0.121248 238 238 238 1.000000
-0.447373 -0.739211 -0.130678 0.387300 0.921954 -0.000000 160 160 160 1.000000
-0.232319 0.522703 -0.414420 -0.169614 -0.484588 -0.858141 255 255 255 1.000000
-0.274922 0.465665 -0.414115 -0.362424 -0.162120 -0.917805 168 168 168 1.000000
-0.334401 0.108714 -0.281217 0.132182 0.498566 0.856715 190 190 190 1.000000
-0.274692 -0.053276 0.270829 0.055609 0.985959 0.157454 164 177 186 1.000000
-0.222864 0.265738 -0.376745 -0.215165 -0.319986 -0.922666 154 154 154 1.000000
0.202980 -0.008951 -0.186784 0.081293 -0.827865 -0.555005 149 149 149 1.000000
0.008743 0.491545 -0.418138 0.012985 -0.550922 -0.834456 255 255 255 1.000000
-0.364587 -0.491014 0.549260 0.461568 -0.003144 0.887099 210 210 210 1.000000
0.386230 -0.038634 0.062897 0.117590 0.992242 0.040355 164 177 186 1.000000
-0.416253 -0.037047 -0.110495 0.425847 -0.904581 0.019716 255 255 255 1.000000
-0.342871 -0.022955 0.040669 0.193987 -0.968695 -0.154916 255 255 255 1.000000
-0.293927 0.161044 -0.317076 -0.196047 -0.376418 -0.905469 201 201 201 1.000000
-0.432073 -0.691672 0.565006 0.162366 0.107860 0.980818 214 214 214 1.000000
-0.178493 0.262138 -0.273231 0.100936 -0.546581 -0.831301 255 255 255 1.000000
0.034284 0.007129 -0.218623 0.031037 -0.709539 -0.703983 191 191 191 1.000000
0.087006 0.053966 -0.044283 -0.111619 -0.859738 -0.498389 255 255 255 1.000000
0.223868 -0.007892 0.042712 -0.177883 -0.944571 -0.275942 255 255 255 1.000000
-0.009726 -0.087986 0.375431 0.008623 0.968314 0.249587 164 177 186 1.000000
0.121648 0.107320 -0.130965 0.163496 0.758539 0.630784 164 177 186 1.000000
-0.142576 -0.130101 0.564119 0.130222 0.951171 0.279849 164 177 186 1.000000
0.223475 0.489504 -0.430321 -0.297909 0.131701 0.945465 219 219 219 1.000000
0.195498 -0.159120 0.254641 0.297420 -0.949359 -0.101284 162 162 162 1.000000
0.000307 0.278959 -0.406429 0.033226 0.370764 0.928133 238 238 238 1.000000
-0.266130 0.061115 -0.124614 0.359870 -0.784679 -0.504751 255 255 255 1.000000
-0.173869 0.039860 -0.035912 -0.169644 0.880045 0.443555 164 177 186 1.000000
0.379133 0.408655 -0.327974 0.192385 -0.277102 -0.941383 255 255 255 1.000000
0.079703 -0.167490 0.159955 0.060666 -0.973764 -0.219322 192 192 192 1.000000
-0.048986 0.542625 -0.450523 -0.033937 -0.556783 -0.829964 255 255 255 1.000000
0.075781 0.349253 -0.324617 -0.009137 0.549163 0.835666 164 177 186 1.000000
0.343343 -0.036778 0.117699 0.070120 0.993755 0.086797 164 177 186 1.000000
-0.377464 -0.050159 0.344854 -0.151976 -0.985379 -0.077011 255 255 255 1.000000
0.015579 -0.021589 0.139206 0.017203 0.947247 0.320041 164 177 186 1.000000
0.204100 0.233184 -0.257746 0.122126 0.521575 0.844420 164 177 186 1.000000
-0.077422 -0.177715 0.440020 0.049060 0.995045 -0.086480 233 233 233 1.000000
-0.375895 -0.090150 0.466692 -0.500050 -0.865405 0.031996 192 192 192 1.000000
0.119402 0.074943 -0.086245 0.163048 0.814364 0.556980 164 177 186 1.000000
0.169145 0.013565 -0.215115 -0.067662 0.704935 0.706037 234 234 234 1.000000
-0.004642 0.382188 -0.347201 -0.008031 0.549594 0.835393 164 177 186 1.000000
-0.360726 0.347830 -0.323796 -0.073694 -0.278641 -0.957564 255 255 255 1.000000
-0.135009 -0.141640 0.068765 0.123787 0.939411 0.319663 162 162 162 1.000000
0.053484 0.516724 -0.468022 -0.062139 0.163891 0.984519 228 228 228 1.000000
0.089721 -0.178448 0.417501 0.055571 -0.994967 0.083385 227 227 227 1.000000
0.351862 0.403402 -0.364438 -0.485661 0.147452 0.861621 237 237 237 1.000000
-0.346167 0.244719 -0.334209 -0.278339 -0.312547 -0.908208 221 221 221 1.000000
0.265571 -0.202983 -0.109077 -0.556017 0.124139 -0.821849 148 148 148 1.000000
0.061912 0.557494 -0.460014 -0.054241 0.565220 0.823155 164 177 186 1.000000
0.276146 0.202077 -0.329282 -0.293393 0.347357 0.890654 238 238 238 1.000000
-0.029352 0.103419 -0.110270 0.023420 -0.796014 -0.604824 255 255 255 1.000000
0.317113 0.201693 -0.316115 0.268501 -0.331497 -0.904443 210 210 210 1.000000
-0.220863 0.243343 -0.368367 0.183380 0.406323 0.895139 174 174 174 1.000000
0.357214 0.034282 -0.191398 -0.616401 -0.581095 -0.531393 255 255 255 1.000000
0.150101 -0.116008 0.513880 0.117473 -0.961402 -0.248808 255 255 255 1.000000
0.132454 0.492824 -0.410948 0.095844 -0.529150 -0.843098 255 255 255 1.000000
0.345899 0.214729 -0.313306 0.260061 -0.326081 -0.908867 153 153 153 1.000000
0.189938 0.505311 -0.410883 -0.147191 0.525221 0.838139 164 177 186 1.000000
0.315312 0.149243 -0.238747 0.350203 0.426406 0.833988 164 177 186 1.000000
-0.295347 0.268272 -0.358281 0.304123 0.274070 0.912357 169 169 169 1.000000
0.401788 -0.057082 0.239027 -0.603959 0.792778 0.082077 223 223 223 1.000000
-0.169652 -0.157641 0.486514 0.143314 0.968480 -0.203732 147 147 147 1.000000
-0.329166 -0.064108 -0.041476 -0.200584 -0.934820 -0.293048 182 182 182 1.000000
-0.077601 0.498115 -0.420683 0.043487 0.542672 0.838818 164 177 186 1.000000
0.356693 0.206291 -0.272844 0.227619 0.287497 0.930341 164 177 186 1.000000
0.104956 -0.133529 0.559398 0.093430 -0.955017 -0.281450 255 255 255 1.000000
-0.302065 -0.026328 -0.145848 0.085816 0.870790 0.484107 211 211 211 1.000000
-0.436997 -0.039427 0.231472 0.130370 0.991332 0.016292 164 177 186 1.000000
0.020547 -0.120877 -0.014239 0.046405 -0.941507 -0.333783 228 228 228 1.000000
-0.190032 -0.090687 0.430979 0.118316 0.969903 0.212814 164 177 186 1.000000
0.186616 -0.106499 0.495294 0.139073 -0.963915 -0.226994 255 255 255 1.000000
-0.140631 -0.161175 0.162604 -0.145758 -0.966549 -0.211039 239 239 239 1.000000
-0.026091 -0.090611 0.387183 0.018547 0.968172 0.249599 164 177 186 1.000000
-0.117545 0.044849 -0.029113 0.104709 -0.879056 -0.465078 255 255 255 1.000000
-0.178773 -0.001607 0.063378 -0.098734 0.940149 0.326148 164 177 186 1.000000
-0.442937 -0.739481 -0.236861 0.222472 -0.974939 0.000000 200 200 200 1.000000
-0.184268 -0.114624 0.528941 -0.155257 -0.956519 -0.246913 255 255 255 1.000000
0.149141 -0.172191 0.340429 0.174129 -0.984466 -0.022474 216 216 216 1.000000
-0.108602 0.542305 -0.446407 -0.082143 -0.545740 -0.833919 255 255 255 1.000000
-0.251039 0.464106 -0.422215 0.288090 0.192013 0.938155 216 216 216 1.000000
0.419620 -0.040614 0.217456 -0.082376 0.996068 0.032584 164 177 186 1.000000
0.054849 0.043446 -0.254334 -0.031468 0.709791 0.703709 194 194 194 1.000000
0.012259 -0.178733 0.210855 0.061352 -0.990652 -0.121841 201 201 201 1.000000
-0.253030 -0.085301 0.446001 0.163415 0.969652 0.181855 164 177 186 1.000000
-0.259557 0.090861 -0.279290 0.109790 0.553883 0.825324 216 216 216 1.000000
0.216870 0.054038 -0.097612 -0.313196 -0.794704 -0.519956 255 255 255 1.000000
0.060704 -0.116029 0.485930 -0.039235 0.963667 0.264208 164 177 186 1.000000
0.295619 0.091030 -0.193577 -0.453933 -0.576287 -0.679587 255 255 255 1.000000
-0.356152 -0.049431 0.285277 0.095026 0.991317 0.090891 164 177 186 1.000000
-0.309074 -0.070704 0.423918 -0.183088 -0.973367 -0.137965 255 255 255 1.000000
-0.222937 -0.140399 0.148343 0.256789 0.949265 0.181538 152 152 152 1.000000
0.093386 -0.090323 0.392014 -0.043022 0.970068 0.238992 164 177 186 1.000000
0.306253 0.382293 -0.379423 -0.376322 0.174041 0.909995 209 209 209 1.000000
0.307168 -0.119639 0.453972 -0.390423 0.919957 -0.035340 219 219 219 1.000000
-0.319530 0.127576 -0.294435 0.135740 0.496126 0.857574 156 156 156 1.000000
0.368298 -0.063263 0.451525 -0.242102 0.965120 0.099649 164 177 186 1.000000
-0.133052 -0.075993 -0.095591 0.079374 0.899064 0.430562 223 223 223 1.000000
0.069129 -0.159774 0.122614 -0.058928 0.973511 0.220914 156 156 156 1.000000
-0.352377 0.174497 -0.308369 -0.314836 -0.228141 -0.921320 183 183 183 1.000000
-0.322459 0.128545 -0.230609 0.424403 -0.516500 -0.743713 255 255 255 1.000000
-0.051955 -0.126204 0.003267 -0.030799 -0.943337 -0.330405 225 225 225 1.000000
-0.119952 -0.072710 0.329575 0.048001 0.970990 0.234252 164 177 186 1.000000
0.013133 0.188362 -0.361477 0.049962 -0.477074 -0.877442 238 238 238 1.000000
-0.073141 -0.089850 -0.076792 0.021033 0.892083 0.451381 151 151 151 1.000000
0.306595 -0.078526 0.468905 0.211074 -0.966470 -0.146228 255 255 255 1.000000
0.377032 0.315907 -0.302655 -0.036890 0.255239 0.966174 164 177 186 1.000000
0.049965 -0.127423 0.525777 -0.038464 0.959352 0.279578 164 177 186 1.000000
0.049970 -0.048390 -0.146656 -0.032503 0.813468 0.580701 189 189 189 1.000000
0.122131 -0.163077 0.490919 -0.145495 0.968692 -0.201162 239 239 239 1.000000
-0.352776 0.222343 -0.281829 -0.192041 0.330957 0.923898 164 177 186 1.000000
