ply
format ascii 1.0
element vertex 1241
property float x
property float y
property float z
property uchar red
property uchar green
property uchar blue
end_header
0.342111 -0.407097 0.017752 153 76 0
-0.238093 0.005741 0.523694 204 51 127
-0.315277 -0.144037 0.517389 0 127 127
-0.399827 -0.735197 -0.231811 76 0 153
-0.392055 -0.080561 -0.242322 204 51 127
-0.386834 -0.108905 0.565195 0 127 127
0.370983 -0.179327 -0.160127 76 153 0
-0.386161 -0.205890 -0.240409 76 0 153
0.406461 -0.434007 0.425900 153 76 0
-0.331199 -0.506206 -0.240346 76 0 153
0.201589 0.006517 -0.172757 204 51 127
-0.276254 0.005742 0.469345 204 51 127
0.391458 0.005145 0.398221 204 51 127
0.388090 0.006043 0.512219 204 51 127
0.383965 -0.058293 0.526288 204 51 127
-0.399988 -0.010014 0.488743 204 51 127
-0.114962 0.747097 -0.445084 76 0 153
0.143952 0.006743 0.151761 204 51 127
-0.334024 -0.382174 0.565875 0 127 127
0.336926 0.702202 -0.269565 153 0 76
0.325893 -0.452607 0.440798 153 76 0
-0.328278 -0.518030 0.479273 0 127 127
-0.128935 0.006743 -0.103914 204 51 127
0.369121 -0.760940 -0.218954 76 153 0
-0.043739 0.005742 0.194868 204 51 127
0.228613 -0.058321 -0.135640 204 51 127
-0.277857 0.301470 -0.291446 127 127 0
-0.141858 0.749356 -0.306846 76 0 153
-0.084693 0.730687 -0.364585 76 0 153
-0.400097 -0.465227 -0.105710 76 0 153
0.406714 -0.265459 -0.179873 76 153 0
-0.347827 -0.043164 -0.300387 204 51 127
0.375150 -0.636448 -0.162777 76 153 0
0.408717 -0.181958 -0.198540 76 153 0
0.406463 -0.432139 0.058235 153 76 0
-0.376540 -0.058204 0.225471 204 51 127
0.012728 0.828865 -0.457060 76 0 153
-0.046845 -0.058321 0.082174 204 51 127
0.081393 0.003034 -0.434772 204 51 127
0.147730 0.082277 -0.374561 76 153 0
-0.184716 0.199235 -0.362384 127 0 127
0.031918 0.572433 -0.391496 0 127 127
0.406460 -0.435516 0.311003 153 76 0
0.246585 0.006550 -0.227749 204 51 127
0.406460 -0.178911 0.527758 153 0 76
-0.298667 0.197085 -0.235883 127 127 0
-0.393964 0.842265 -0.274928 76 0 153
0.381495 -0.147883 -0.160219 76 153 0
0.306106 0.040166 -0.239333 153 0 76
0.024805 0.006743 0.084496 204 51 127
0.288455 -0.058321 -0.286268 204 51 127
0.325975 -0.479876 0.194642 153 76 0
0.180224 -0.058321 0.468377 204 51 127
-0.168537 0.896429 -0.363295 76 0 153
0.212487 -0.058321 -0.061211 204 51 127
0.379218 -0.495936 -0.240670 76 153 0
-0.374375 -0.718002 -0.156383 76 0 153
-0.273552 0.005742 0.261846 204 51 127
0.345524 -0.409838 -0.044111 153 76 0
0.389467 -0.490442 0.278240 153 76 0
-0.262404 0.005742 0.317110 204 51 127
0.408365 -0.626845 0.488591 153 0 76
0.355118 -0.534572 -0.162774 76 153 0
-0.223352 0.891513 -0.405662 76 0 153
-0.013019 0.006743 0.041623 204 51 127
-0.269946 0.006052 -0.105460 204 51 127
0.400700 -0.086698 0.565052 153 0 76
0.033015 0.142393 -0.375005 0 127 127
0.213174 0.778097 -0.262397 76 0 153
0.127456 0.019489 -0.349284 76 153 0
0.288561 -0.058321 -0.329054 204 51 127
0.406460 -0.447407 0.226440 153 76 0
0.351993 0.006453 -0.197793 204 51 127
0.353335 -0.087223 0.562333 153 0 76
-0.291856 0.120508 -0.297468 127 127 0
0.125606 0.847903 -0.308559 76 0 153
-0.054126 0.764417 -0.454873 76 0 153
-0.400147 -0.314766 0.517098 0 127 127
0.111188 0.860991 -0.443388 76 0 153
-0.002119 0.039364 -0.350162 0 127 127
-0.323300 0.539606 -0.282308 127 127 0
0.346308 -0.149603 -0.240593 76 153 0
-0.400147 -0.446990 -0.183426 76 0 153
-0.165908 0.070262 -0.323268 127 0 127
-0.018569 0.480465 -0.402385 0 127 127
-0.396990 0.838603 -0.242160 76 0 153
0.340166 0.006743 0.085838 204 51 127
-0.329151 -0.219620 0.481235 0 127 127
-0.297696 0.749983 -0.194997 76 0 153
-0.347301 0.005767 0.140847 204 51 127
-0.164843 -0.058321 0.359333 204 51 127
-0.398668 -0.006300 0.334755 204 51 127
-0.164337 -0.058321 -0.177406 204 51 127
-0.301730 0.005742 0.322696 204 51 127
-0.392092 0.002583 -0.056152 204 51 127
0.321786 0.006743 0.489665 204 51 127
-0.018334 0.512849 -0.402540 0 127 127
0.277172 0.006743 0.379502 204 51 127
-0.316850 0.727700 -0.216573 76 0 153
-0.399489 -0.478275 0.379853 76 0 153
0.316046 0.006710 -0.040793 204 51 127
-0.315667 -0.141655 -0.204049 76 0 153
-0.140965 0.325224 -0.377413 127 0 127
-0.052902 -0.058138 0.553214 204 51 127
-0.084081 0.732382 -0.339694 76 0 153
0.166562 0.367654 -0.321070 76 153 0
0.195611 0.870463 -0.415228 76 0 153
0.140728 -0.058321 0.461720 204 51 127
-0.388859 0.003768 0.540686 204 51 127
0.136421 -0.058321 0.181030 204 51 127
0.347961 -0.584868 -0.163136 76 153 0
0.146332 -0.058321 -0.198126 204 51 127
0.139388 0.704747 -0.371104 76 153 0
0.200908 0.713248 -0.355939 76 153 0
0.023053 0.010353 -0.424453 204 51 127
-0.317679 -0.110707 0.561445 0 127 127
-0.313639 -0.005650 -0.330522 204 51 127
-0.400147 -0.349923 0.534993 0 127 127
0.141494 0.638671 -0.333525 76 153 0
-0.395864 -0.425721 0.304476 76 0 153
0.025517 -0.058321 0.449756 204 51 127
-0.279547 0.541573 -0.292604 127 127 0
0.321020 -0.008092 0.565579 204 51 127
-0.319765 0.198811 -0.287823 127 127 0
-0.353658 -0.492368 0.423718 76 0 153
-0.161942 -0.058321 0.221501 204 51 127
-0.053539 0.896324 -0.424653 76 0 153
-0.319011 0.169669 -0.245727 127 127 0
0.356405 -0.762556 0.518930 153 0 76
0.408834 -0.045122 -0.104818 204 51 127
0.269076 -0.058321 0.365775 204 51 127
0.139815 0.362393 -0.336159 76 153 0
0.213545 0.896308 -0.369762 76 0 153
-0.083473 -0.058321 0.506949 204 51 127
-0.125568 0.113211 -0.348786 127 0 127
0.304676 0.365422 -0.239676 153 0 76
-0.356660 0.809602 -0.315964 76 0 153
-0.316228 -0.469984 0.311212 76 0 153
0.408755 -0.442125 -0.179675 76 153 0
-0.025127 0.388790 -0.372698 0 127 127
-0.305305 0.005742 0.049538 204 51 127
0.212341 0.848013 -0.263424 76 0 153
0.281317 0.672465 -0.252742 153 0 76
-0.296431 0.786219 -0.196351 76 0 153
0.138364 0.368165 -0.361799 76 153 0
0.285295 0.734134 -0.363116 76 0 153
-0.122792 -0.058321 -0.047990 204 51 127
0.318759 0.787985 -0.183171 76 0 153
0.343387 -0.296606 0.565111 153 0 76
-0.027866 0.888694 -0.451540 76 0 153
0.191865 0.006743 0.338308 204 51 127
0.046430 0.896274 -0.433981 76 0 153
-0.260752 0.829526 -0.233549 76 0 153
-0.315121 -0.426151 0.100309 76 0 153
-0.398649 -0.479734 -0.064899 76 0 153
0.392473 -0.407097 0.000220 153 76 0
-0.400147 -0.453377 0.161099 76 0 153
0.373381 -0.407283 0.085687 153 76 0
-0.330920 0.823007 -0.338217 76 0 153
-0.238349 0.005742 0.079138 204 51 127
0.409079 -0.483571 0.249011 153 76 0
0.332090 -0.058321 0.431247 204 51 127
0.336391 0.472215 -0.273796 153 0 76
0.388196 -0.409849 0.099822 153 76 0
-0.315928 -0.720965 0.543645 0 127 127
0.308157 0.403782 -0.299330 153 0 76
-0.089919 -0.026950 0.565383 204 51 127
-0.381925 -0.412244 0.181177 76 0 153
-0.071878 0.006743 -0.214014 204 51 127
-0.239733 -0.058321 -0.159832 204 51 127
-0.173577 0.006408 -0.042460 204 51 127
-0.124945 0.036127 -0.361667 127 0 127
-0.400147 -0.448104 0.420264 76 0 153
-0.032839 0.019565 -0.362935 204 51 127
0.349017 -0.264329 0.565111 153 0 76
0.154385 0.235888 -0.378440 76 153 0
0.076986 -0.058321 -0.023819 204 51 127
-0.326049 -0.610833 -0.240368 76 0 153
-0.283047 0.470372 -0.295118 127 127 0
-0.257142 0.895815 -0.255910 76 0 153
0.359150 -0.386801 0.481799 153 0 76
-0.341019 0.818186 -0.193196 76 0 153
0.064466 -0.030978 -0.441027 204 51 127
-0.314964 -0.448860 0.456340 0 127 127
0.290383 0.709327 -0.301183 153 0 76
0.188279 0.826261 -0.278696 76 0 153
-0.294426 0.005742 0.072397 204 51 127
-0.384252 -0.491253 0.336406 76 0 153
-0.015905 0.054166 -0.357594 0 127 127
0.089580 0.006743 -0.122725 204 51 127
-0.315173 -0.485539 -0.166059 76 0 153
0.346522 -0.058321 0.177807 204 51 127
0.325893 -0.368973 -0.183499 76 153 0
0.015475 0.006743 -0.133204 204 51 127
-0.387887 -0.409772 -0.240227 76 0 153
-0.141478 0.005742 0.438437 204 51 127
-0.379482 -0.749410 0.565436 0 127 127
-0.197179 -0.021434 -0.401985 204 51 127
-0.372813 -0.409030 -0.055270 76 0 153
0.068015 0.006743 0.067830 204 51 127
0.064707 -0.058321 0.230825 204 51 127
-0.196431 0.005742 0.160051 204 51 127
-0.126873 0.005741 0.524719 204 51 127
-0.324174 0.740438 -0.343445 76 0 153
0.284052 0.164707 -0.247766 153 0 76
-0.315276 -0.246268 0.521179 0 127 127
-0.364678 -0.700939 0.565377 0 127 127
0.200904 0.006700 -0.195249 204 51 127
-0.015964 -0.058321 0.455758 204 51 127
-0.102129 -0.058321 0.234256 204 51 127
-0.379938 -0.058172 0.306087 204 51 127
0.308424 -0.058321 -0.287998 204 51 127
-0.263541 -0.058321 0.105294 204 51 127
0.122687 -0.058321 0.272578 204 51 127
-0.303604 0.893538 -0.201025 76 0 153
0.380931 -0.720998 0.481765 153 0 76
0.388665 -0.123267 -0.163419 76 153 0
0.038004 0.006743 -0.014666 204 51 127
0.353642 -0.058321 0.102417 204 51 127
0.406464 -0.236771 0.541687 153 0 76
0.307536 0.006717 -0.166735 204 51 127
0.138356 0.464613 -0.361781 76 153 0
-0.226798 0.005742 0.382671 204 51 127
-0.068681 -0.058321 -0.322977 204 51 127
0.408398 -0.430170 -0.198670 76 153 0
-0.134371 0.374391 -0.373642 127 0 127
0.377574 0.820592 -0.280396 76 0 153
0.189278 0.006743 0.003699 204 51 127
0.137261 0.511571 -0.357298 76 153 0
0.406460 -0.460954 0.276157 153 76 0
-0.300926 0.005957 -0.131259 204 51 127
0.406483 -0.693547 -0.181994 76 153 0
-0.333952 -0.574097 0.481093 0 127 127
-0.305308 0.018697 -0.308627 204 51 127
0.318048 0.290654 -0.241427 153 0 76
-0.169840 -0.058321 -0.299637 204 51 127
0.390260 -0.407097 0.163149 153 76 0
0.275929 0.006743 0.270309 204 51 127
-0.196433 0.821126 -0.280446 76 0 153
0.170884 0.196856 -0.380141 76 153 0
0.328784 -0.381044 -0.222205 76 153 0
-0.400147 -0.458471 0.471009 0 127 127
-0.332070 -0.408165 0.039767 76 0 153
0.134258 0.006743 0.290018 204 51 127
-0.017593 0.597422 -0.403031 0 127 127
-0.367691 -0.408495 0.049905 76 0 153
-0.031137 0.779010 -0.456637 76 0 153
-0.313421 -0.057983 -0.309071 204 51 127
-0.315610 -0.443144 0.525950 0 127 127
-0.317508 -0.315907 0.489101 0 127 127
0.024418 -0.058321 0.174133 204 51 127
-0.080317 -0.058321 0.404521 204 51 127
0.095742 0.006743 -0.246348 204 51 127
0.201708 0.751471 -0.412636 76 0 153
0.063172 0.006743 0.197721 204 51 127
-0.399943 -0.034648 0.192967 204 51 127
-0.346147 -0.187272 0.480836 0 127 127
0.160345 0.272873 -0.321711 76 153 0
-0.236914 0.730713 -0.289929 76 0 153
-0.139923 -0.058321 -0.337532 204 51 127
-0.339403 -0.207590 0.565485 0 127 127
0.011563 0.096983 -0.409772 0 127 127
0.219935 -0.058321 0.459964 204 51 127
0.340192 -0.485565 0.326705 153 76 0
0.409237 -0.334867 0.536060 153 0 76
0.284972 0.006743 0.307633 204 51 127
-0.333350 0.729445 -0.227359 76 0 153
-0.400147 -0.527397 0.516678 0 127 127
-0.317786 -0.596210 0.560880 0 127 127
-0.063166 -0.058321 0.523154 204 51 127
0.009689 0.807965 -0.457236 76 0 153
0.373259 0.781763 -0.285323 76 0 153
-0.335442 -0.058321 0.391872 204 51 127
-0.400147 -0.240004 0.533685 0 127 127
-0.153014 0.011603 -0.301768 204 51 127
0.325893 -0.743383 0.510371 153 0 76
0.381253 -0.487823 0.335196 153 76 0
-0.209554 -0.058321 -0.018754 204 51 127
0.409618 -0.023296 -0.033420 204 51 127
0.373683 -0.634427 -0.240567 76 153 0
0.325894 -0.424702 0.378963 153 76 0
-0.202828 0.727380 -0.322574 76 0 153
0.029561 0.138903 -0.396985 0 127 127
0.313204 0.006743 0.511161 204 51 127
0.267599 -0.058321 -0.035906 204 51 127
-0.132092 0.661470 -0.331593 127 0 127
-0.120654 0.005742 0.320453 204 51 127
0.027497 -0.058321 -0.110837 204 51 127
-0.300580 -0.025601 -0.341589 204 51 127
0.178924 -0.058321 0.508538 204 51 127
0.005286 0.332125 -0.410379 0 127 127
0.343766 -0.193288 0.481766 153 0 76
0.404239 -0.750742 0.538911 153 0 76
-0.284891 0.005742 0.005744 204 51 127
0.327662 -0.428822 0.151430 153 76 0
0.406328 -0.411527 0.495926 153 0 76
-0.271761 0.005742 -0.030974 204 51 127
0.195109 0.685638 -0.341718 76 153 0
0.012032 0.878150 -0.331638 76 0 153
0.335669 -0.481805 0.097832 153 76 0
0.408878 -0.332351 -0.194020 76 153 0
0.120061 -0.058321 0.220193 204 51 127
0.409129 -0.412958 -0.126436 153 76 0
0.285548 -0.058321 -0.091485 204 51 127
-0.173439 -0.058321 0.315730 204 51 127
0.050630 0.873703 -0.328479 76 0 153
-0.008126 -0.058162 -0.429177 204 51 127
-0.349044 -0.673132 0.480836 0 127 127
0.264897 -0.058321 -0.324503 204 51 127
0.267273 0.006743 0.215671 204 51 127
0.277361 0.896391 -0.230480 76 0 153
0.371295 -0.313145 -0.159999 76 153 0
-0.391108 -0.328925 -0.239888 76 0 153
0.353956 0.856708 -0.306266 76 0 153
-0.116676 -0.058321 -0.274219 204 51 127
0.138813 0.006527 -0.413330 204 51 127
-0.400013 -0.471565 -0.030247 76 0 153
0.409237 -0.446662 -0.060867 153 76 0
-0.329809 -0.676337 0.565579 0 127 127
0.325948 -0.083070 -0.231709 76 153 0
-0.093371 0.006743 -0.038261 204 51 127
-0.339496 -0.578250 0.565660 0 127 127
0.136728 0.176086 -0.351069 76 153 0
-0.319893 -0.413485 0.239774 76 0 153
-0.068795 -0.058321 0.229471 204 51 127
0.027112 -0.058321 0.290555 204 51 127
0.409236 -0.419824 0.468059 153 76 0
0.088630 0.769538 -0.320384 76 0 153
0.359394 0.858580 -0.219073 76 0 153
-0.315252 -0.426909 0.373489 76 0 153
-0.316552 0.107550 -0.291203 127 127 0
0.359572 -0.761307 -0.184532 76 153 0
0.161980 0.090952 -0.321292 76 153 0
0.325893 -0.427068 -0.133703 153 76 0
-0.279899 0.671709 -0.292852 127 127 0
-0.321986 0.247609 -0.285487 127 127 0
0.134296 0.006743 0.347915 204 51 127
-0.246098 0.005742 0.184216 204 51 127
0.387087 -0.487207 0.473708 153 0 76
-0.269532 0.013034 -0.300986 204 51 127
-0.354280 0.005895 0.058099 204 51 127
0.328670 -0.423138 0.505194 153 0 76
0.395695 -0.485003 0.123487 153 76 0
0.406463 -0.107162 0.540198 153 0 76
0.155294 0.006240 -0.271186 204 51 127
-0.369284 -0.220430 0.480874 0 127 127
0.369596 -0.350729 -0.159999 76 153 0
0.301208 0.804325 -0.178648 76 0 153
0.091293 -0.058321 -0.230480 204 51 127
-0.324611 0.006044 0.546114 204 51 127
-0.186194 0.075151 -0.356025 127 0 127
-0.300657 0.229653 -0.236048 127 127 0
0.383011 -0.409874 0.020789 153 76 0
-0.335645 -0.239733 0.565535 0 127 127
0.278958 0.607054 -0.281732 153 0 76
0.258857 -0.058321 0.455470 204 51 127
0.149054 0.871283 -0.299142 76 0 153
-0.399212 -0.428000 0.457170 0 127 127
0.326972 -0.409958 0.440168 153 76 0
0.277515 0.129580 -0.263404 153 0 76
-0.065828 0.005742 0.462933 204 51 127
0.163418 0.705145 -0.381838 76 153 0
-0.096288 0.005742 0.325261 204 51 127
-0.394180 -0.041360 -0.245696 204 51 127
-0.379945 -0.763269 -0.173603 76 0 153
-0.129062 -0.058321 0.284325 204 51 127
0.159103 0.869893 -0.429936 76 0 153
0.338093 -0.042856 -0.318179 204 51 127
0.316614 0.133346 -0.241121 153 0 76
0.326314 -0.060177 -0.188559 76 153 0
0.331212 -0.762348 -0.200618 76 153 0
0.399003 -0.646382 0.565067 153 0 76
0.346168 -0.407097 0.048886 153 76 0
-0.137871 -0.058321 0.525145 204 51 127
0.380521 -0.760340 0.563197 153 0 76
-0.349005 -0.194422 -0.241092 76 0 153
0.325986 -0.512306 -0.232716 76 153 0
0.163905 -0.058321 -0.360171 204 51 127
-0.315174 -0.420509 -0.207827 76 0 153
0.336162 0.429985 -0.265931 153 0 76
0.236471 0.896226 -0.264506 76 0 153
0.098705 0.006743 0.168467 204 51 127
0.193625 0.596196 -0.336594 76 153 0
0.328262 -0.520527 0.518487 153 0 76
0.277221 0.006430 -0.175728 204 51 127
-0.400147 -0.310226 -0.182925 76 0 153
0.125379 0.731745 -0.426792 76 0 153
-0.397236 0.814316 -0.242179 76 0 153
0.329077 0.356465 -0.248556 153 0 76
-0.182728 0.466447 -0.367349 127 0 127
0.154666 0.187607 -0.323033 76 153 0
0.104631 0.809500 -0.315907 76 0 153
0.251372 0.007003 -0.300606 204 51 127
-0.400147 -0.657067 -0.185513 76 0 153
-0.028827 0.895414 -0.345472 76 0 153
0.125841 0.006743 0.261082 204 51 127
-0.036811 -0.058321 0.398517 204 51 127
-0.328934 -0.408654 -0.086479 76 0 153
-0.335252 -0.002135 -0.310647 204 51 127
0.174811 0.006304 -0.206637 204 51 127
0.095134 0.730660 -0.406477 76 0 153
-0.324704 -0.090359 0.564994 0 127 127
0.331581 -0.484263 -0.080442 153 76 0
0.305073 0.641637 -0.239628 153 0 76
-0.357131 0.006612 -0.223206 204 51 127
-0.025060 0.767737 -0.331301 76 0 153
0.362295 -0.187957 0.484179 153 0 76
-0.353368 -0.492368 0.033383 76 0 153
-0.006025 -0.001135 0.564428 204 51 127
0.107222 0.734697 -0.318414 76 0 153
0.325893 -0.325930 0.522442 153 0 76
-0.344863 0.770015 -0.326582 76 0 153
0.390196 -0.461529 -0.241280 76 153 0
-0.147036 0.775915 -0.437383 76 0 153
0.391504 -0.254457 -0.243344 76 153 0
0.232603 0.006743 0.190351 204 51 127
0.409057 -0.631653 0.529476 153 0 76
0.409237 -0.231452 -0.212800 76 153 0
-0.020428 0.005741 0.359638 204 51 127
-0.119346 0.765090 -0.314842 76 0 153
0.248117 -0.058321 -0.159983 204 51 127
-0.322706 -0.305333 0.565134 0 127 127
0.266518 0.006743 0.241130 204 51 127
-0.325661 0.005742 0.510747 204 51 127
0.329578 -0.538293 0.550314 153 0 76
0.409149 -0.250366 0.509971 153 0 76
-0.347749 -0.058321 0.249544 204 51 127
-0.094076 -0.002625 -0.430884 204 51 127
-0.315488 -0.411441 0.532803 0 127 127
0.198622 0.006743 0.285513 204 51 127
-0.327897 -0.058321 -0.040568 204 51 127
0.100583 0.006743 -0.063497 204 51 127
0.382102 -0.409874 0.357612 153 76 0
0.283098 0.112211 -0.249434 153 0 76
-0.023452 -0.058321 -0.067542 204 51 127
0.209639 0.730555 -0.292041 76 0 153
0.141209 0.461772 -0.333972 76 153 0
0.343561 -0.489637 0.059034 153 76 0
0.328392 -0.256792 0.505828 153 0 76
-0.256181 0.800000 -0.390587 76 0 153
-0.186104 -0.058321 -0.211634 204 51 127
0.008716 0.787863 -0.331446 76 0 153
-0.145214 0.840007 -0.305482 76 0 153
-0.206258 -0.058321 0.425354 204 51 127
0.311930 0.006464 -0.090310 204 51 127
0.388233 -0.460792 0.562354 153 0 76
0.092878 0.868704 -0.318968 76 0 153
-0.349045 -0.525450 0.565705 0 127 127
-0.323535 0.479962 -0.253842 127 127 0
0.270923 -0.004125 -0.368274 204 51 127
-0.346502 0.005752 -0.068533 204 51 127
-0.250692 0.770922 -0.393882 76 0 153
-0.182405 0.005742 0.094567 204 51 127
-0.386572 0.803216 -0.283342 76 0 153
0.329486 -0.263180 0.549095 153 0 76
-0.362615 -0.259307 -0.241092 76 0 153
0.173571 0.006553 -0.118487 204 51 127
0.293113 0.767500 -0.186740 76 0 153
0.277980 0.366412 -0.258980 153 0 76
0.238873 -0.058320 0.535579 204 51 127
0.409237 -0.475632 0.230526 153 76 0
-0.350474 -0.047127 0.565744 204 51 127
-0.370818 -0.058258 -0.013405 204 51 127
0.215593 0.006743 0.050061 204 51 127
0.295784 -0.058321 0.007474 204 51 127
0.406295 -0.562770 0.544350 153 0 76
-0.391799 -0.417708 0.131113 76 0 153
0.406460 -0.449714 0.132154 153 76 0
-0.322174 -0.086508 0.482050 0 127 127
-0.072058 0.005741 0.524106 204 51 127
0.242726 -0.058321 -0.100611 204 51 127
-0.296786 0.005742 0.401926 204 51 127
-0.069741 0.006601 -0.369218 204 51 127
-0.025104 0.655792 -0.372498 0 127 127
-0.378944 -0.232602 -0.240896 76 0 153
0.299841 0.006743 0.064944 204 51 127
-0.286745 0.006048 -0.191061 204 51 127
-0.139346 0.038096 -0.323697 127 0 127
-0.393782 -0.418703 -0.124006 76 0 153
0.276824 0.052688 -0.269760 153 0 76
0.408446 -0.633755 -0.171369 76 153 0
0.053007 -0.058321 0.345263 204 51 127
-0.393202 -0.564351 0.484106 0 127 127
0.012497 0.006743 -0.095627 204 51 127
0.249167 0.851618 -0.233549 76 0 153
-0.281855 0.818262 -0.213578 76 0 153
-0.320306 0.299821 -0.287254 127 127 0
0.242973 0.006743 0.487433 204 51 127
-0.003792 -0.058321 0.209062 204 51 127
-0.125470 0.292798 -0.350578 127 0 127
0.336661 0.451779 -0.272818 153 0 76
-0.374030 0.006067 0.025510 204 51 127
-0.279303 0.181696 -0.242628 127 127 0
0.362349 -0.005102 0.565278 204 51 127
-0.400147 -0.481035 -0.199937 76 0 153
0.322757 0.426115 -0.295052 153 0 76
0.325893 -0.674484 0.502349 153 0 76
0.127916 -0.058321 0.522395 204 51 127
0.193080 0.282428 -0.335357 76 153 0
0.195727 0.076399 -0.356180 76 153 0
0.368340 -0.319409 -0.243345 76 153 0
0.158035 -0.058321 0.302435 204 51 127
-0.348372 -0.492368 0.153862 76 0 153
-0.325847 0.005742 0.092057 204 51 127
0.194447 -0.034697 -0.407048 204 51 127
0.406596 -0.004870 0.478740 204 51 127
0.052475 0.006743 -0.046285 204 51 127
-0.356911 -0.052182 -0.286234 204 51 127
-0.325760 0.594248 -0.258068 127 127 0
0.246648 0.896222 -0.285708 76 0 153
0.351503 -0.526926 -0.240567 76 153 0
0.009999 0.893728 -0.451283 76 0 153
-0.343582 -0.291954 -0.240991 76 0 153
-0.369551 -0.764171 -0.219714 76 0 153
0.405362 -0.001226 0.348501 204 51 127
0.301745 0.307559 -0.298630 153 0 76
0.406018 -0.407872 -0.074540 153 76 0
0.355530 -0.515378 0.564993 153 0 76
-0.184211 0.692913 -0.365821 127 0 127
0.325905 -0.747504 -0.213969 76 153 0
-0.368999 -0.572538 -0.156922 76 0 153
-0.320757 0.887172 -0.343081 76 0 153
0.328627 -0.469125 -0.022598 153 76 0
0.358370 0.815734 -0.218418 76 0 153
0.408415 -0.078642 0.529555 153 0 76
0.036973 -0.058321 0.386155 204 51 127
-0.291926 0.183330 -0.297498 127 127 0
0.247757 -0.058321 0.495801 204 51 127
0.406479 -0.572271 0.504459 153 0 76
0.146672 0.006743 0.045717 204 51 127
-0.122966 0.725345 -0.320329 76 0 153
0.322050 0.006740 0.541447 204 51 127
-0.112647 0.896050 -0.430536 76 0 153
0.407956 -0.246237 0.487363 153 0 76
0.225676 0.824052 -0.253419 76 0 153
-0.078876 -0.058321 0.442184 204 51 127
-0.399953 -0.742308 0.548050 0 127 127
0.327382 0.275105 -0.247200 153 0 76
-0.399977 -0.293133 -0.226012 76 0 153
-0.399573 -0.007908 0.199609 204 51 127
0.191174 -0.058321 0.177585 204 51 127
-0.118061 -0.058321 0.354275 204 51 127
-0.299281 0.473576 -0.235911 127 127 0
0.364606 -0.488221 -0.075599 153 76 0
0.325893 -0.471394 0.497738 153 0 76
0.347462 -0.409854 0.362864 153 76 0
-0.399960 -0.573969 -0.226664 76 0 153
-0.400147 -0.031424 -0.174351 204 51 127
-0.200839 -0.058321 -0.084767 204 51 127
0.326149 0.881724 -0.190007 76 0 153
0.074801 -0.058321 -0.001958 204 51 127
-0.146693 0.124898 -0.380128 127 0 127
0.357155 -0.490333 0.093562 153 76 0
-0.182135 0.005742 0.340940 204 51 127
0.175882 0.006743 0.468956 204 51 127
-0.400147 -0.446526 -0.057936 76 0 153
-0.385940 -0.490580 0.451495 76 0 153
-0.307506 0.855389 -0.357752 76 0 153
0.376087 -0.153575 0.565111 153 0 76
-0.373298 0.744244 -0.222273 76 0 153
0.340157 -0.643634 -0.164634 76 153 0
-0.315702 -0.527372 0.547404 0 127 127
-0.279156 -0.058321 0.174385 204 51 127
0.253129 -0.058321 0.169107 204 51 127
-0.232009 0.006743 -0.200003 204 51 127
0.406460 -0.440622 0.509998 153 0 76
0.023918 0.251358 -0.404100 0 127 127
0.408681 -0.744890 -0.207556 76 153 0
-0.154797 -0.058321 0.464799 204 51 127
0.409549 -0.023920 0.107761 204 51 127
0.328670 -0.546758 -0.212471 76 153 0
0.335851 -0.407357 -0.090300 153 76 0
0.285200 0.006743 0.456758 204 51 127
0.375445 0.006405 0.048116 204 51 127
-0.315525 -0.378448 -0.214243 76 0 153
-0.314944 -0.609592 -0.212748 76 0 153
-0.301742 0.249118 -0.236095 127 127 0
-0.400147 -0.051219 0.509297 204 51 127
-0.205859 -0.058321 -0.325284 204 51 127
-0.286066 -0.058321 0.116428 204 51 127
0.033359 0.608439 -0.384590 0 127 127
-0.002508 0.380164 -0.351445 0 127 127
-0.385473 -0.245358 0.565271 0 127 127
-0.363418 -0.466475 -0.241092 76 0 153
-0.375620 0.860834 -0.295809 76 0 153
-0.396157 -0.042368 0.562108 204 51 127
0.371626 -0.118610 0.481765 153 0 76
-0.234304 0.006571 -0.337084 204 51 127
-0.116457 0.005742 0.359171 204 51 127
-0.092174 0.006408 0.026739 204 51 127
0.277247 0.507564 -0.265684 153 0 76
0.328597 -0.451572 0.114820 153 76 0
0.328670 -0.457316 0.286418 153 76 0
-0.024054 -0.018686 -0.443394 204 51 127
0.070638 0.851367 -0.451892 76 0 153
0.031339 0.300768 -0.394272 0 127 127
-0.093898 -0.058321 0.272109 204 51 127
-0.248957 0.729509 -0.253440 76 0 153
-0.359398 -0.498563 -0.241092 76 0 153
0.078659 -0.058321 -0.135697 204 51 127
0.123468 -0.052553 0.564778 204 51 127
0.075514 0.006743 0.404132 204 51 127
0.409237 -0.535666 0.545074 153 0 76
0.144906 -0.016396 0.565507 204 51 127
-0.144447 0.160815 -0.323163 127 0 127
0.332118 -0.089121 0.555914 153 0 76
-0.315298 -0.267938 0.507681 0 127 127
0.139331 0.006743 0.214413 204 51 127
0.165618 0.336104 -0.320987 76 153 0
-0.317299 -0.471874 0.112900 76 0 153
-0.097007 0.767853 -0.320743 76 0 153
-0.400002 -0.268325 0.502920 0 127 127
-0.221084 -0.058321 0.141986 204 51 127
0.356789 -0.228454 0.565111 153 0 76
-0.016680 -0.058321 -0.317333 204 51 127
-0.296849 0.005742 0.103757 204 51 127
0.007486 0.634616 -0.410166 0 127 127
-0.397275 -0.046649 0.464735 204 51 127
-0.043623 -0.049604 -0.440666 204 51 127
-0.320395 -0.058321 -0.057866 204 51 127
0.186341 0.793446 -0.279414 76 0 153
-0.399837 -0.261174 0.557128 0 127 127
-0.260052 -0.058321 0.143505 204 51 127
0.385100 0.005827 -0.015847 204 51 127
0.325893 -0.449853 0.036464 153 76 0
-0.399862 -0.038512 0.229251 204 51 127
0.300671 0.006743 0.438819 204 51 127
0.370389 -0.494777 -0.162612 76 153 0
-0.400022 -0.226450 0.503710 0 127 127
-0.315612 -0.511068 0.514093 0 127 127
0.379149 -0.058320 0.187648 204 51 127
0.316470 0.431233 -0.241090 153 0 76
-0.393561 -0.421181 0.067559 76 0 153
-0.241085 -0.058321 0.175848 204 51 127
0.340446 -0.058321 0.125368 204 51 127
-0.400095 -0.324617 -0.221212 76 0 153
-0.377475 0.848298 -0.225887 76 0 153
0.079206 -0.058321 0.461713 204 51 127
0.409230 -0.212950 0.498494 153 0 76
0.148918 -0.058321 0.197227 204 51 127
0.100820 0.789035 -0.445839 76 0 153
-0.383075 -0.561233 0.565705 0 127 127
0.339506 -0.058321 0.464153 204 51 127
-0.166041 -0.058319 -0.377268 204 51 127
0.345304 -0.409836 0.409606 153 76 0
0.408794 -0.574907 -0.219076 76 153 0
0.091934 0.764297 -0.447929 76 0 153
0.319035 -0.058321 0.467613 204 51 127
0.387476 0.874974 -0.243694 76 0 153
0.203473 0.016377 -0.340216 204 51 127
-0.395205 -0.757407 0.534309 0 127 127
0.003451 0.006689 0.120704 204 51 127
0.406463 -0.431809 -0.039705 153 76 0
0.199315 -0.058321 -0.337313 204 51 127
-0.073463 -0.058321 -0.388935 204 51 127
0.333016 -0.252521 0.482478 153 0 76
0.409109 -0.543214 -0.226849 76 153 0
-0.316167 -0.465969 0.060224 76 0 153
0.240917 0.006537 -0.005033 204 51 127
0.018948 0.386444 -0.406766 0 127 127
0.327295 -0.096579 0.487007 153 0 76
0.408980 -0.697623 0.527406 153 0 76
0.328606 -0.714939 0.509316 153 0 76
-0.376027 -0.734574 0.481054 0 127 127
-0.024780 -0.058321 0.083308 204 51 127
-0.150027 0.192173 -0.321668 127 0 127
0.230493 -0.058321 -0.245594 204 51 127
0.151584 0.769738 -0.298644 76 0 153
0.400403 -0.481358 0.000665 153 76 0
0.382750 -0.759830 0.526092 153 0 76
-0.400147 -0.458694 0.351822 76 0 153
0.282112 0.574426 -0.287325 153 0 76
-0.321615 0.005742 0.403594 204 51 127
-0.350728 -0.328496 0.480836 0 127 127
-0.290766 0.620639 -0.236648 127 127 0
0.087127 -0.040435 -0.438051 204 51 127
-0.315505 -0.124137 0.494093 0 127 127
0.155733 -0.058085 0.555662 204 51 127
0.211257 0.006938 -0.386301 204 51 127
0.328632 -0.468260 0.126891 153 76 0
0.327817 -0.421831 -0.241036 76 153 0
0.240844 -0.058321 0.215078 204 51 127
-0.352766 0.005869 0.526822 204 51 127
0.331392 -0.221414 -0.242764 76 153 0
0.282404 0.082817 -0.287681 153 0 76
0.332459 -0.186581 -0.160513 76 153 0
0.285488 0.368590 -0.291446 153 0 76
0.366683 0.881431 -0.225476 76 0 153
0.325935 -0.141257 -0.231369 76 153 0
-0.253255 0.731148 -0.378040 76 0 153
0.190163 0.254919 -0.331980 76 153 0
-0.348916 -0.127450 0.565094 0 127 127
-0.158504 -0.058320 0.536874 204 51 127
0.003770 0.548825 -0.410526 0 127 127
0.247270 0.006743 0.280549 204 51 127
0.399485 -0.701285 -0.161017 76 153 0
0.247768 -0.058321 -0.268119 204 51 127
-0.222612 -0.058321 -0.116979 204 51 127
-0.315611 -0.482318 0.513452 0 127 127
0.378082 0.006741 0.435680 204 51 127
-0.318584 -0.415785 0.281323 76 0 153
-0.154443 0.419577 -0.380784 127 0 127
-0.249568 0.005742 -0.024991 204 51 127
-0.108970 -0.058321 -0.139803 204 51 127
0.378124 -0.409874 0.468461 153 0 76
-0.297653 0.716093 -0.308917 76 0 153
0.267102 0.781874 -0.216232 76 0 153
0.037408 0.006743 -0.144666 204 51 127
-0.380155 0.006062 -0.181490 204 51 127
-0.117109 0.006144 0.042318 204 51 127
0.400800 -0.763316 -0.175254 76 153 0
-0.397933 -0.283826 0.490514 0 127 127
-0.267325 0.142425 -0.262223 127 127 0
0.108170 0.006743 0.078479 204 51 127
0.111615 -0.058321 -0.045727 204 51 127
0.409237 -0.467301 -0.071252 153 76 0
0.389143 -0.601236 -0.163511 76 153 0
-0.154415 0.088567 -0.380784 127 0 127
-0.079126 -0.058321 0.148093 204 51 127
0.327873 -0.755916 -0.240136 76 153 0
0.387161 -0.440733 0.565111 153 0 76
0.066342 -0.058321 0.123948 204 51 127
0.089856 -0.058321 -0.210496 204 51 127
0.059078 0.896421 -0.358675 76 0 153
-0.315960 -0.635939 0.546199 0 127 127
0.271789 0.006415 0.096584 204 51 127
0.312678 0.253823 -0.240280 153 0 76
0.406163 -0.424901 0.112047 153 76 0
0.364927 -0.058321 0.152384 204 51 127
-0.310302 0.407110 -0.238974 127 127 0
0.395511 -0.685582 0.486436 153 0 76
-0.315476 -0.569737 0.507145 0 127 127
-0.400147 -0.622872 0.510056 0 127 127
-0.202645 -0.058175 0.551495 204 51 127
0.325895 -0.421279 0.192367 153 76 0
-0.024994 0.644374 -0.388684 0 127 127
-0.284905 0.006011 -0.118181 204 51 127
-0.395845 -0.120721 -0.237201 76 0 153
-0.084572 0.005742 0.456441 204 51 127
0.388852 -0.407632 0.318405 153 76 0
0.311793 0.542959 -0.240091 153 0 76
-0.019123 0.005741 0.285480 204 51 127
-0.315557 0.507614 -0.292250 127 127 0
-0.172936 0.782033 -0.428928 76 0 153
0.026694 0.608680 -0.360210 0 127 127
0.343009 -0.490206 0.241385 153 76 0
-0.303716 -0.058321 0.037606 204 51 127
0.405170 -0.142916 0.552514 153 0 76
-0.307074 -0.058321 0.232018 204 51 127
0.325893 -0.265436 -0.193178 76 153 0
0.206300 0.896310 -0.330624 76 0 153
0.370045 -0.407297 0.162677 153 76 0
0.316669 -0.058321 0.352326 204 51 127
-0.114919 -0.058321 0.006872 204 51 127
0.408603 -0.012951 0.172174 204 51 127
-0.318761 -0.672184 -0.162225 76 0 153
0.101089 -0.058321 0.347051 204 51 127
-0.077739 0.896406 -0.421131 76 0 153
0.048073 0.006743 0.513353 204 51 127
0.327889 -0.597144 0.540228 153 0 76
-0.006552 0.643358 -0.352438 0 127 127
0.354057 -0.058321 0.229596 204 51 127
0.111130 0.827601 -0.443405 76 0 153
0.140619 0.430814 -0.366455 76 153 0
0.377870 0.739579 -0.278269 76 0 153
0.180085 0.006743 0.047686 204 51 127
-0.060246 -0.058321 0.053422 204 51 127
0.141922 0.531985 -0.369146 76 153 0
-0.399968 -0.385539 -0.226341 76 0 153
0.334237 -0.078474 -0.168429 76 153 0
0.200027 -0.058321 0.422103 204 51 127
0.025501 0.006743 -0.213281 204 51 127
0.291444 0.896371 -0.298137 76 0 153
0.026828 0.055082 -0.360417 0 127 127
0.409236 -0.099600 -0.229906 76 153 0
-0.299441 0.780097 -0.363718 76 0 153
-0.314304 0.005742 0.289339 204 51 127
0.333326 0.306150 -0.255449 153 0 76
-0.310315 0.832489 -0.355408 76 0 153
-0.017986 0.702873 -0.404869 76 0 153
-0.126812 -0.058321 -0.122461 204 51 127
-0.168561 0.148902 -0.323916 127 0 127
-0.233752 0.006072 -0.136757 204 51 127
0.001905 0.664481 -0.410706 0 127 127
-0.379825 -0.557500 -0.157002 76 0 153
-0.023984 0.005741 0.239919 204 51 127
0.325893 -0.356591 0.512842 153 0 76
-0.041311 -0.058321 0.224598 204 51 127
-0.317353 -0.536634 -0.163661 76 0 153
-0.188259 -0.058321 -0.140718 204 51 127
-0.330948 -0.159702 0.481028 0 127 127
0.375093 -0.409793 -0.155321 76 153 0
-0.384255 -0.491252 0.160456 76 0 153
0.148502 0.006743 0.003638 204 51 127
-0.165276 -0.058321 -0.063680 204 51 127
-0.271141 0.594538 -0.283425 127 127 0
0.025270 0.693381 -0.403935 0 127 127
0.052057 0.006743 0.481377 204 51 127
0.343236 -0.128850 0.485502 153 0 76
0.323286 0.796898 -0.335135 76 0 153
0.390238 -0.553816 0.565110 153 0 76
0.276712 0.691078 -0.264569 153 0 76
0.252280 0.006743 0.325265 204 51 127
0.366415 -0.553264 0.484521 153 0 76
0.098435 -0.012987 -0.435681 204 51 127
-0.195210 -0.058321 -0.065391 204 51 127
0.207676 -0.058321 0.200128 204 51 127
-0.004050 0.006743 -0.259925 204 51 127
0.118137 -0.058321 0.368142 204 51 127
-0.233746 0.732250 -0.392173 76 0 153
-0.274976 0.508253 -0.247016 127 127 0
0.099578 0.006549 -0.407719 204 51 127
0.363965 -0.058321 0.437776 204 51 127
0.325893 -0.446245 0.199592 153 76 0
0.194489 0.732820 -0.281008 76 0 153
0.067512 -0.058321 -0.096743 204 51 127
-0.310887 0.092383 -0.238970 127 127 0
-0.126403 0.396515 -0.343797 127 0 127
0.348817 -0.487396 0.151780 153 76 0
0.178349 0.080206 -0.322996 76 153 0
-0.270126 0.432533 -0.253681 127 127 0
0.387606 -0.055727 0.560253 204 51 127
0.402616 -0.149999 -0.234766 76 153 0
-0.104896 0.829633 -0.447472 76 0 153
0.396628 -0.528439 -0.239700 76 153 0
-0.097053 0.829229 -0.320617 76 0 153
0.163687 0.559281 -0.380646 76 153 0
-0.120065 -0.058320 0.533818 204 51 127
0.328969 -0.164214 -0.176453 76 153 0
-0.022887 0.065857 -0.395297 0 127 127
-0.110876 -0.058321 0.306157 204 51 127
0.409011 -0.429694 0.293311 153 76 0
-0.026189 0.359936 -0.382091 0 127 127
-0.330207 -0.066638 -0.254985 204 51 127
0.325893 -0.098433 -0.199550 76 153 0
0.385292 0.006151 0.284644 204 51 127
-0.135667 0.274149 -0.374902 127 0 127
-0.175711 0.130530 -0.328344 127 0 127
-0.371024 -0.500266 -0.143584 76 0 153
-0.016167 0.006743 -0.173830 204 51 127
-0.318587 -0.563318 0.562296 0 127 127
-0.009365 0.830334 -0.331818 76 0 153
0.020460 0.896429 -0.377188 76 0 153
0.327733 -0.298792 -0.164018 76 153 0
-0.373541 -0.063464 -0.256951 204 51 127
-0.355814 -0.492369 0.274260 76 0 153
0.325808 0.006743 -0.168869 204 51 127
-0.323856 0.071955 -0.280592 127 127 0
-0.386733 -0.204496 0.482265 0 127 127
-0.388967 -0.640719 -0.240114 76 0 153
0.394973 -0.582865 -0.243337 76 153 0
-0.359804 -0.140092 0.480835 0 127 127
0.408358 -0.070006 0.546206 153 0 76
0.409237 -0.472629 0.300612 153 76 0
0.406120 -0.604620 -0.223840 76 153 0
0.058884 -0.058321 0.189026 204 51 127
0.332648 -0.576773 -0.169286 76 153 0
-0.132613 0.489602 -0.330815 127 0 127
-0.316540 -0.318933 -0.165846 76 0 153
-0.341702 0.009492 -0.279719 204 51 127
-0.264217 0.001815 -0.362541 204 51 127
-0.319390 -0.481292 0.418979 76 0 153
0.097623 0.006601 -0.329484 204 51 127
0.408298 -0.096416 -0.184233 76 153 0
-0.285028 0.022960 -0.304070 204 51 127
-0.325722 0.646963 -0.274826 127 127 0
0.032939 0.546938 -0.374393 0 127 127
-0.150370 0.744156 -0.436309 76 0 153
-0.313810 -0.058321 0.424575 204 51 127
0.328450 -0.225403 -0.206420 76 153 0
-0.354607 -0.493716 0.456592 0 127 127
-0.013541 0.183367 -0.355656 0 127 127
-0.006687 0.238880 -0.352478 0 127 127
0.409828 -0.034635 -0.063944 204 51 127
-0.144013 -0.045295 -0.421662 204 51 127
-0.099508 0.006136 0.060389 204 51 127
-0.204714 0.006743 -0.172954 204 51 127
0.294609 0.894557 -0.195529 76 0 153
-0.182189 -0.058321 0.163386 204 51 127
-0.121790 -0.058321 -0.080529 204 51 127
0.370256 -0.613915 -0.240567 76 153 0
-0.257692 0.749640 -0.236185 76 0 153
0.325893 -0.418032 -0.175447 76 153 0
-0.094254 -0.058321 -0.231073 204 51 127
-0.080302 0.890966 -0.446969 76 0 153
0.047919 0.731357 -0.335054 76 0 153
-0.155337 0.005742 0.344381 204 51 127
0.347860 -0.709943 0.562347 153 0 76
0.376793 -0.418771 -0.240756 76 153 0
-0.105995 0.005742 0.381051 204 51 127
-0.347357 -0.274148 0.565372 0 127 127
-0.400056 -0.336401 0.548483 0 127 127
-0.059046 0.005742 0.397190 204 51 127
-0.269550 0.749186 -0.382522 76 0 153
-0.096999 -0.058321 -0.292945 204 51 127
-0.338470 0.006391 -0.192554 204 51 127
-0.184035 0.210834 -0.341073 127 0 127
0.052406 -0.029065 0.565724 204 51 127
-0.255564 0.870667 -0.238083 76 0 153
0.136681 0.137798 -0.347001 76 153 0
-0.315293 -0.214188 -0.173328 76 0 153
0.348326 -0.711234 -0.163064 76 153 0
-0.365605 0.006074 0.312026 204 51 127
-0.069993 0.896271 -0.348412 76 0 153
0.131384 -0.058321 -0.101588 204 51 127
0.409213 -0.472971 -0.033407 153 76 0
-0.173437 0.615967 -0.326155 127 0 127
0.351101 0.006637 -0.013127 204 51 127
-0.394504 -0.051897 0.336387 204 51 127
0.406014 -0.407871 0.119305 153 76 0
-0.016165 0.539741 -0.357779 0 127 127
-0.323152 -0.391951 -0.155124 76 0 153
-0.314951 -0.580347 -0.211492 76 0 153
-0.368520 0.006072 0.193489 204 51 127
0.030322 -0.058321 -0.012283 204 51 127
-0.372341 -0.266763 0.565419 0 127 127
-0.066690 0.817123 -0.327385 76 0 153
-0.105546 0.896291 -0.340080 76 0 153
-0.155912 0.686555 -0.380803 127 0 127
-0.118520 0.006472 -0.031484 204 51 127
0.389859 -0.662583 0.485080 153 0 76
-0.312145 0.388990 -0.240102 127 127 0
-0.400147 -0.449324 0.258971 76 0 153
-0.140533 0.006743 -0.228201 204 51 127
-0.030455 0.006743 0.023114 204 51 127
-0.003135 -0.058321 0.508908 204 51 127
-0.285324 -0.008547 0.564969 204 51 127
-0.371703 -0.058249 0.339834 204 51 127
0.341990 -0.058321 0.523261 204 51 127
-0.316298 -0.422509 0.425965 76 0 153
0.125545 -0.058321 -0.378935 204 51 127
0.034368 0.033277 -0.385495 0 127 127
-0.172894 0.005742 0.239231 204 51 127
-0.048909 0.896429 -0.387243 76 0 153
0.334141 -0.641893 0.558953 153 0 76
-0.355569 -0.058320 0.274503 204 51 127
-0.367947 -0.408625 0.380600 76 0 153
0.285411 -0.058321 0.043134 204 51 127
-0.236656 0.730657 -0.351508 76 0 153
0.408966 -0.014963 0.377252 204 51 127
0.409117 -0.412349 0.075920 153 76 0
-0.145144 0.179117 -0.379394 127 0 127
-0.216337 0.896375 -0.371066 76 0 153
-0.072728 0.006743 -0.054808 204 51 127
0.330846 0.896429 -0.255895 76 0 153
0.064000 0.006743 0.287678 204 51 127
-0.008891 -0.058321 0.027834 204 51 127
0.397420 -0.057856 0.046753 204 51 127
0.059720 0.876780 -0.453045 76 0 153
-0.159934 0.515093 -0.380909 127 0 127
-0.268240 0.005742 0.279277 204 51 127
0.382034 -0.187051 0.481765 153 0 76
0.409059 -0.437810 -0.216631 76 153 0
-0.380496 -0.492083 0.372638 76 0 153
0.393587 -0.174176 -0.243344 76 153 0
-0.324926 0.315430 -0.256483 127 127 0
0.185470 0.006743 0.377810 204 51 127
0.115657 -0.058321 -0.360920 204 51 127
0.296979 0.896082 -0.339635 76 0 153
0.348106 -0.126902 0.562345 153 0 76
0.330565 -0.489563 0.553477 153 0 76
0.367240 -0.283889 -0.240580 76 153 0
0.406136 -0.465420 -0.223701 76 153 0
0.405639 -0.472911 0.430466 153 76 0
-0.344299 -0.492122 0.191249 76 0 153
-0.303457 -0.058321 0.266448 204 51 127
-0.168512 0.202780 -0.323853 127 0 127
0.338989 -0.394182 -0.240156 76 153 0
-0.400147 -0.258466 -0.217083 76 0 153
-0.346574 -0.751307 -0.240673 76 0 153
0.408541 -0.434302 0.172558 153 76 0
0.387452 0.005616 0.123182 204 51 127
-0.066000 0.804323 -0.453737 76 0 153
-0.315496 -0.455298 0.122254 76 0 153
-0.311524 -0.058321 -0.097845 204 51 127
0.327832 -0.626215 0.529955 153 0 76
-0.395783 -0.484708 0.039722 76 0 153
-0.348476 -0.302668 0.565539 0 127 127
0.387179 -0.123212 -0.243345 76 153 0
-0.315075 -0.451264 -0.170426 76 0 153
-0.325363 0.005742 0.130791 204 51 127
-0.118921 -0.058321 -0.207662 204 51 127
-0.397068 -0.003458 0.013154 204 51 127
-0.197788 -0.058321 0.090927 204 51 127
0.342287 0.006743 0.503285 204 51 127
-0.158459 0.479398 -0.380876 127 0 127
0.336995 -0.058321 0.266452 204 51 127
-0.302838 -0.064226 0.538281 204 51 127
0.089270 -0.058321 -0.257802 204 51 127
0.334430 -0.079799 0.482067 153 0 76
-0.046729 0.006743 -0.187129 204 51 127
0.196412 0.006563 -0.045480 204 51 127
0.297624 0.042897 -0.299495 153 0 76
0.276431 0.757556 -0.205729 76 0 153
-0.068534 0.005742 0.369327 204 51 127
0.171371 -0.004799 0.564923 204 51 127
0.110847 0.881387 -0.313883 76 0 153
-0.399899 -0.442006 0.282162 76 0 153
-0.376552 -0.387004 -0.153395 76 0 153
0.336206 -0.280972 -0.160387 76 153 0
-0.111088 0.872046 -0.317299 76 0 153
-0.071454 0.006258 0.081747 204 51 127
-0.383812 -0.607499 -0.240657 76 0 153
-0.198507 -0.058321 0.460869 204 51 127
0.054281 0.728857 -0.398840 76 0 153
-0.025520 0.484526 -0.376175 0 127 127
-0.314959 -0.114918 0.544110 0 127 127
0.328599 -0.412869 0.527695 153 0 76
0.370295 0.833238 -0.228440 76 0 153
-0.315438 -0.727873 -0.192246 76 0 153
-0.127078 0.267033 -0.342155 127 0 127
0.325893 -0.498675 0.517502 153 0 76
-0.078804 -0.056148 -0.425152 204 51 127
0.024613 0.366882 -0.403224 0 127 127
-0.124897 -0.058321 -0.362400 204 51 127
0.211464 -0.058321 0.228429 204 51 127
0.406460 -0.448921 0.487493 153 0 76
0.145487 -0.049406 -0.423641 204 51 127
0.408622 -0.131244 -0.184434 76 153 0
-0.126286 -0.058321 -0.241396 204 51 127
-0.035001 0.005742 0.259111 204 51 127
-0.213260 0.005742 0.267093 204 51 127
-0.315300 -0.124351 -0.168450 76 0 153
-0.352412 -0.060064 0.457480 204 51 127
0.111875 -0.058321 -0.259766 204 51 127
-0.182963 -0.058321 0.477012 204 51 127
0.258571 -0.058321 -0.012535 204 51 127
0.106005 0.006743 -0.175132 204 51 127
-0.299974 0.005742 0.157767 204 51 127
0.396396 -0.490442 0.391889 153 76 0
0.409712 -0.021152 0.230339 204 51 127
0.249072 0.742081 -0.235019 76 0 153
-0.397194 -0.003681 -0.152113 204 51 127
-0.366422 -0.492328 0.334324 76 0 153
-0.116987 0.006408 -0.007161 204 51 127
0.325893 -0.140978 -0.199146 76 153 0
0.140874 0.735534 -0.303055 76 0 153
0.168473 0.625761 -0.321239 76 153 0
-0.108234 0.006743 -0.100289 204 51 127
0.019985 0.300162 -0.355173 0 127 127
-0.129370 0.540147 -0.368639 127 0 127
-0.289388 0.617517 -0.296778 127 127 0
-0.400103 -0.026979 -0.071522 204 51 127
-0.343515 -0.709742 -0.241089 76 0 153
0.327244 -0.327732 -0.239865 76 153 0
0.365826 -0.191864 -0.240567 76 153 0
0.210678 0.006405 -0.081213 204 51 127
-0.076053 0.791717 -0.325798 76 0 153
-0.280187 -0.058286 -0.226134 204 51 127
-0.277176 -0.058321 -0.031979 204 51 127
0.076252 0.873994 -0.323160 76 0 153
-0.316409 -0.467126 0.156814 76 0 153
-0.176019 0.151445 -0.374580 127 0 127
0.328172 -0.615920 -0.180270 76 153 0
0.011697 -0.058321 -0.312829 204 51 127
0.139697 0.391607 -0.336345 76 153 0
0.409237 -0.474997 0.367517 153 76 0
-0.305798 0.566382 -0.296917 127 127 0
0.246021 0.006743 -0.154595 204 51 127
0.406490 -0.331397 0.502597 153 0 76
-0.104289 -0.058321 -0.349782 204 51 127
-0.303524 -0.058321 0.359831 204 51 127
-0.180101 0.531037 -0.332654 127 0 127
-0.348950 0.847404 -0.322985 76 0 153
0.124622 0.006604 -0.254820 204 51 127
0.118084 0.006743 0.010587 204 51 127
0.302754 0.006660 0.135780 204 51 127
-0.107291 0.005742 0.164192 204 51 127
0.354183 -0.099710 -0.159999 76 153 0
-0.264301 0.005742 -0.066885 204 51 127
-0.319475 -0.583027 -0.236368 76 0 153
0.174085 -0.058321 -0.294482 204 51 127
0.218407 -0.058321 0.494673 204 51 127
0.407271 -0.386121 0.485430 153 0 76
0.069452 -0.058321 0.365656 204 51 127
0.406460 -0.456029 0.519090 153 0 76
-0.016704 0.005774 0.462374 204 51 127
0.408641 -0.015985 0.065142 204 51 127
0.235345 -0.058321 -0.208787 204 51 127
-0.323047 0.590702 -0.283089 127 127 0
-0.013124 0.005840 0.205408 204 51 127
0.342807 -0.673338 -0.243345 76 153 0
-0.381758 -0.411900 0.079792 76 0 153
-0.220955 0.005742 0.443726 204 51 127
-0.400090 -0.065468 -0.221682 204 51 127
-0.013406 0.164199 -0.405802 0 127 127
-0.385034 -0.337668 0.481817 0 127 127
0.356534 -0.487920 0.071206 153 76 0
-0.320687 -0.484050 0.179399 76 0 153
0.308824 0.874072 -0.176611 76 0 153
-0.334911 -0.490725 0.356129 76 0 153
0.408506 -0.492439 -0.199070 76 153 0
0.140940 0.273344 -0.367119 76 153 0
0.115021 -0.058321 0.030742 204 51 127
0.032714 -0.058321 0.497898 204 51 127
-0.395337 -0.092634 0.486498 0 127 127
-0.400147 -0.397868 -0.192718 76 0 153
-0.101393 -0.058321 -0.212218 204 51 127
0.021537 0.531164 -0.405474 0 127 127
0.388733 -0.241746 -0.160274 76 153 0
-0.317466 -0.447085 -0.231098 76 0 153
0.173376 0.553970 -0.321672 76 153 0
-0.318635 0.653109 -0.245354 127 127 0
-0.311698 -0.058321 0.108921 204 51 127
-0.291227 0.091420 -0.297302 127 127 0
0.045817 0.006743 -0.121175 204 51 127
-0.340275 0.786825 -0.330410 76 0 153
-0.004698 0.730216 -0.338522 76 0 153
-0.285120 0.005742 0.377581 204 51 127
-0.074859 0.867608 -0.452738 76 0 153
-0.315287 -0.279757 -0.201585 76 0 153
-0.078391 -0.058321 -0.066298 204 51 127
-0.257960 -0.058321 0.063034 204 51 127
-0.276586 0.472378 -0.245694 127 127 0
0.390282 0.822344 -0.246230 76 0 153
0.307925 -0.058321 0.082651 204 51 127
0.388861 -0.058235 0.076804 204 51 127
0.407856 -0.048278 -0.011552 204 51 127
-0.157972 0.752888 -0.300128 76 0 153
-0.315774 -0.605415 0.495122 0 127 127
0.338605 -0.058321 -0.174875 204 51 127
-0.312509 0.005742 0.215405 204 51 127
-0.115718 0.716831 -0.335426 127 0 127
-0.061902 -0.058321 0.374642 204 51 127
0.139479 0.006743 0.129042 204 51 127
-0.141736 -0.058126 -0.406839 204 51 127
0.022454 0.480385 -0.356515 0 127 127
-0.160888 0.397752 -0.380931 127 0 127
0.276486 0.006683 0.000449 204 51 127
-0.222779 -0.058321 0.100808 204 51 127
0.406499 -0.468867 0.192671 153 76 0
-0.315735 -0.122693 -0.207653 76 0 153
0.169756 -0.028033 -0.417170 204 51 127
0.119391 0.006743 0.490312 204 51 127
-0.051238 0.005742 0.177262 204 51 127
0.264568 0.006502 0.119496 204 51 127
-0.146169 0.896429 -0.374534 76 0 153
-0.261556 0.005742 0.204952 204 51 127
0.325893 -0.462982 0.515066 153 0 76
-0.397896 -0.431918 0.182887 76 0 153
0.349107 -0.115652 -0.240572 76 153 0
0.120601 -0.058321 -0.189017 204 51 127
-0.045962 0.011204 -0.393449 204 51 127
0.292167 -0.058321 -0.152007 204 51 127
0.391460 -0.751662 -0.243206 76 153 0
-0.294151 -0.058312 -0.269160 204 51 127
-0.342925 -0.210790 -0.156019 76 0 153
0.090308 0.006743 0.264238 204 51 127
0.346536 -0.409795 -0.144163 76 153 0
-0.379110 -0.492107 0.100004 76 0 153
0.370995 -0.407892 0.332911 153 76 0
0.336439 0.671163 -0.268969 153 0 76
0.000214 -0.058321 0.148422 204 51 127
0.192501 0.258418 -0.366196 76 153 0
0.391454 -0.601166 -0.243344 76 153 0
-0.005812 0.073324 -0.352256 0 127 127
-0.322686 0.895787 -0.321991 76 0 153
-0.400071 -0.028489 0.073768 204 51 127
0.293653 0.054567 -0.241571 153 0 76
-0.341315 0.005741 -0.127251 204 51 127
0.136464 0.475758 -0.347923 76 153 0
0.358524 -0.649541 -0.243345 76 153 0
-0.392156 -0.053802 0.197764 204 51 127
0.118732 0.006743 0.427371 204 51 127
0.340558 -0.392192 0.562136 153 0 76
-0.185839 0.381990 -0.359579 127 0 127
0.123074 0.002285 -0.426317 204 51 127
0.327766 -0.266560 -0.240927 76 153 0
0.172212 0.006743 0.106211 204 51 127
-0.177067 -0.018576 -0.410122 204 51 127
-0.191371 0.776034 -0.283763 76 0 153
0.323752 0.565962 -0.244296 153 0 76
0.137589 0.077890 -0.343542 76 153 0
0.137883 0.609688 -0.342398 76 153 0
0.044046 0.006742 0.441906 204 51 127
-0.381468 -0.412029 0.162818 76 0 153
0.381605 -0.058320 -0.125019 204 51 127
-0.295959 0.372866 -0.235599 127 127 0
0.151403 0.804319 -0.298650 76 0 153
-0.267214 0.173985 -0.270882 127 127 0
-0.276285 0.145300 -0.245524 127 127 0
0.406460 -0.454653 0.402465 153 76 0
0.347663 -0.759581 0.540685 153 0 76
-0.272884 0.607758 -0.248867 127 127 0
-0.346202 0.005747 0.158699 204 51 127
0.308998 0.006707 0.049794 204 51 127
0.254317 -0.058321 0.329454 204 51 127
-0.165814 0.612124 -0.379510 127 0 127
0.329518 -0.472966 0.001095 153 76 0
-0.161549 -0.058321 -0.256553 204 51 127
0.325893 -0.426032 0.341683 153 76 0
0.406228 -0.450794 0.544836 153 0 76
0.062701 -0.058106 0.554682 204 51 127
0.361366 0.006596 0.374978 204 51 127
-0.028253 -0.058320 0.537966 204 51 127
-0.238134 -0.058321 0.003274 204 51 127
0.309786 0.093442 -0.239663 153 0 76
-0.071774 0.005742 0.488950 204 51 127
0.139432 0.006244 0.556474 204 51 127
-0.400147 -0.343724 -0.182861 76 0 153
-0.399879 -0.069437 -0.165184 204 51 127
-0.091626 0.005742 0.347727 204 51 127
-0.281470 0.386874 -0.294004 127 127 0
0.276930 0.290188 -0.273845 153 0 76
0.374058 -0.750582 -0.165800 76 153 0
0.216173 0.884934 -0.261473 76 0 153
-0.407299 0.881660 -0.256052 76 0 153
-0.128293 0.736374 -0.440630 76 0 153
-0.104499 -0.058321 0.179619 204 51 127
0.089223 -0.058321 -0.060719 204 51 127
-0.234319 -0.019256 -0.384218 204 51 127
-0.315725 -0.464411 0.178846 76 0 153
-0.204010 -0.058321 -0.242891 204 51 127
-0.075887 0.006743 -0.096447 204 51 127
-0.400112 -0.486315 -0.158521 76 0 153
-0.062891 0.006743 -0.290620 204 51 127
0.144520 0.006743 -0.142190 204 51 127
-0.316228 -0.478843 0.482072 0 127 127
0.369501 -0.409874 -0.069976 153 76 0
0.328670 -0.447517 0.505221 153 0 76
-0.013414 0.342733 -0.355554 0 127 127
0.328666 -0.430651 0.396145 153 76 0
0.351866 0.006743 0.446222 204 51 127
-0.092572 0.006743 -0.163438 204 51 127
0.344924 -0.166966 -0.243345 76 153 0
0.325893 -0.455589 0.369691 153 76 0
-0.271501 -0.058321 -0.111467 204 51 127
0.328247 -0.423807 0.073112 153 76 0
-0.366866 -0.545798 -0.241056 76 0 153
-0.316789 0.361872 -0.290954 127 127 0
-0.159093 0.005742 0.308549 204 51 127
0.325893 -0.084115 0.538387 153 0 76
0.177787 0.818101 -0.422577 76 0 153
-0.346998 -0.025655 -0.302077 204 51 127
0.328669 -0.427972 0.485703 153 0 76
-0.399049 -0.549827 0.492159 0 127 127
-0.045365 0.002559 0.562829 204 51 127
0.113534 0.896322 -0.358132 76 0 153
0.363690 -0.150017 -0.243345 76 153 0
-0.053295 0.771097 -0.329084 76 0 153
0.406339 -0.185686 -0.165008 76 153 0
