ply
format ascii 1.0
element vertex 1239
property float x
property float y
property float z
property uchar red
property uchar green
property uchar blue
end_header
0.142597 0.004424 -0.267491 204 51 127
0.038101 0.004424 0.537251 204 51 127
0.258220 -0.056002 -0.307299 204 51 127
-0.397829 -0.015095 0.195432 204 51 127
-0.371292 -0.108392 -0.238774 76 0 153
0.336554 0.616251 -0.269195 153 0 76
-0.010401 -0.056002 0.148994 204 51 127
-0.185659 0.210948 -0.350925 127 0 127
-0.339335 0.894110 -0.195406 76 0 153
-0.221700 0.004424 -0.010992 204 51 127
0.167380 -0.005204 0.563722 204 51 127
-0.019183 0.391115 -0.361715 0 127 127
0.380058 -0.276603 -0.161388 76 153 0
-0.286952 0.352164 -0.239213 127 127 0
-0.175199 0.245878 -0.374646 127 0 127
0.169434 0.605183 -0.381131 76 153 0
-0.305264 0.732974 -0.224667 76 0 153
0.287606 0.004424 0.033784 204 51 127
0.025725 0.396800 -0.359317 0 127 127
-0.157773 -0.056002 0.348576 204 51 127
-0.112588 0.004424 -0.322062 204 51 127
0.384862 -0.056002 0.238412 204 51 127
0.320827 -0.056002 0.223440 204 51 127
0.407849 -0.035974 0.349774 204 51 127
0.407849 -0.454249 -0.086018 153 76 0
-0.312427 0.004424 -0.032984 204 51 127
0.226585 0.004424 0.441761 204 51 127
-0.185024 0.110314 -0.346103 127 0 127
0.019879 0.830454 -0.354740 76 0 153
0.059684 0.861246 -0.451246 76 0 153
-0.268244 0.298070 -0.274922 127 127 0
-0.145538 0.847097 -0.307376 76 0 153
-0.183760 0.846474 -0.362186 76 0 153
0.215419 0.004424 -0.299437 204 51 127
-0.254265 -0.056002 -0.266745 204 51 127
-0.189012 0.868518 -0.420159 76 0 153
0.005910 0.267299 -0.410445 0 127 127
0.216758 -0.056002 0.167342 204 51 127
-0.324977 0.373769 -0.255463 127 127 0
0.176765 0.230908 -0.379584 76 153 0
-0.235557 0.751304 -0.400310 76 0 153
0.046228 0.889466 -0.331074 76 0 153
0.183563 -0.056002 0.195981 204 51 127
-0.150103 0.004424 0.551997 204 51 127
0.327367 -0.696978 0.563722 153 0 76
-0.339507 -0.083350 -0.238774 76 0 153
0.322818 0.300510 -0.243765 153 0 76
0.405294 0.004424 -0.209683 204 51 127
0.052243 -0.056002 -0.092449 204 51 127
-0.070798 -0.056002 0.196719 204 51 127
0.335934 0.822513 -0.201072 76 0 153
-0.128116 0.685384 -0.363913 127 0 127
0.110881 -0.056002 -0.116219 204 51 127
-0.203802 0.004424 0.381746 204 51 127
-0.313662 0.874957 -0.179711 76 0 153
0.138077 0.004424 -0.244003 204 51 127
-0.376070 -0.490051 0.237912 76 0 153
-0.349761 -0.409483 -0.053652 76 0 153
0.020971 0.484829 -0.405339 0 127 127
0.132954 -0.055387 0.563722 204 51 127
0.159277 0.337403 -0.380464 76 153 0
0.316796 0.695093 -0.240799 153 0 76
-0.396123 -0.690878 -0.238774 76 0 153
-0.300178 0.674683 -0.237432 127 127 0
-0.317261 -0.324437 -0.225409 76 0 153
-0.331837 -0.222885 -0.238774 76 0 153
-0.218564 0.816868 -0.408137 76 0 153
-0.327472 0.189909 -0.265822 127 127 0
0.386438 -0.489054 0.058711 153 76 0
-0.335044 -0.490051 0.197313 76 0 153
0.327281 -0.370245 0.531958 153 0 76
0.245264 -0.056002 -0.075583 204 51 127
-0.385301 0.004424 -0.155482 204 51 127
-0.175263 -0.022369 -0.408489 204 51 127
0.181908 -0.056002 -0.299691 204 51 127
0.371314 -0.124363 0.483154 153 0 76
0.407849 -0.019385 -0.151745 204 51 127
0.407849 -0.122146 0.483588 153 0 76
0.249742 -0.056002 0.001328 204 51 127
-0.346395 -0.372182 0.563722 0 127 127
-0.044287 -0.056002 0.068624 204 51 127
0.151790 -0.056002 0.452944 204 51 127
-0.382164 0.004424 0.019033 204 51 127
0.149714 0.894110 -0.353672 76 0 153
-0.113408 0.894110 -0.428673 76 0 153
-0.223978 -0.056002 0.534670 204 51 127
0.215539 -0.056002 -0.047129 204 51 127
0.151604 0.782717 -0.430784 76 0 153
-0.377412 -0.409483 0.452491 76 0 153
-0.341117 -0.289805 0.483154 0 127 127
0.385019 -0.593567 0.563722 153 0 76
-0.010307 -0.056002 0.044407 204 51 127
-0.397829 -0.514064 -0.173822 76 0 153
0.407849 -0.678663 -0.170343 76 153 0
-0.397829 -0.466760 0.392556 76 0 153
0.260201 0.004424 0.144940 204 51 127
-0.353957 -0.502555 -0.238774 76 0 153
0.269994 0.880280 -0.216568 76 0 153
0.291422 0.792423 -0.192175 76 0 153
-0.373104 -0.368202 -0.158206 76 0 153
-0.276672 0.152124 -0.245474 127 127 0
0.407849 -0.037625 0.244153 204 51 127
0.407849 -0.241665 -0.183979 76 153 0
-0.288225 0.749199 -0.208669 76 0 153
0.387088 0.004424 -0.149220 204 51 127
-0.323417 0.125695 -0.282653 127 127 0
0.407849 -0.667567 0.541283 153 0 76
-0.120016 0.765412 -0.317428 76 0 153
-0.244950 0.004424 -0.265688 204 51 127
0.211386 0.747533 -0.267067 76 0 153
-0.065995 0.004424 0.145053 204 51 127
0.327281 -0.588963 0.500276 153 0 76
-0.397829 -0.700493 0.542680 0 127 127
-0.377563 -0.677491 0.563722 0 127 127
0.285237 -0.056002 0.563577 204 51 127
-0.324675 -0.056002 0.382238 204 51 127
0.312543 0.732974 -0.331189 76 0 153
0.327281 -0.447065 0.480130 153 0 76
0.388606 -0.378992 0.483154 153 0 76
0.114831 0.004424 -0.013100 204 51 127
-0.326755 -0.490051 -0.001637 76 0 153
-0.329146 0.004424 0.546022 204 51 127
0.407849 -0.427389 0.308394 153 76 0
-0.005497 -0.014900 -0.442561 204 51 127
0.157624 0.004424 -0.206602 204 51 127
-0.189120 -0.056002 -0.019915 204 51 127
-0.127846 -0.056002 0.317226 204 51 127
0.283441 0.765287 -0.249594 76 0 153
-0.358846 -0.528340 -0.238774 76 0 153
0.065147 0.894110 -0.406806 76 0 153
0.277102 0.507949 -0.276019 153 0 76
0.407849 -0.044587 -0.220501 204 51 127
0.397908 -0.023804 -0.253272 204 51 127
0.327281 -0.459590 -0.128530 153 76 0
-0.357162 -0.048967 -0.288250 204 51 127
0.244173 -0.056002 0.292270 204 51 127
0.407849 -0.488179 -0.202240 76 153 0
-0.383915 -0.127476 -0.238774 76 0 153
-0.184903 0.430974 -0.345177 127 0 127
0.012908 0.732974 -0.454611 76 0 153
0.269945 -0.056002 0.356302 204 51 127
-0.397829 -0.015816 0.085115 204 51 127
0.250119 -0.056002 0.536599 204 51 127
-0.340657 -0.490051 0.349410 76 0 153
0.332921 -0.056002 -0.275629 204 51 127
-0.379042 -0.409483 0.038297 76 0 153
-0.225762 0.004424 0.331015 204 51 127
-0.246766 -0.056002 0.172426 204 51 127
-0.049497 0.004424 -0.400451 204 51 127
-0.345974 -0.056002 0.242860 204 51 127
0.062493 -0.056002 0.030501 204 51 127
0.293841 0.859874 -0.189421 76 0 153
-0.319352 -0.061231 0.563722 204 51 127
0.077614 -0.056002 0.373122 204 51 127
-0.376630 -0.761967 -0.180953 76 0 153
-0.274750 0.373505 -0.286906 127 127 0
0.231590 0.004424 -0.083365 204 51 127
-0.261474 0.004424 0.299953 204 51 127
-0.320867 0.004424 0.043584 204 51 127
-0.327055 0.068296 -0.262651 127 127 0
-0.070272 0.004424 -0.316856 204 51 127
0.360463 -0.261004 0.563722 153 0 76
0.018680 0.594687 -0.354037 0 127 127
0.029335 -0.005018 0.563722 204 51 127
0.148492 0.004424 0.015823 204 51 127
-0.239607 0.894110 -0.280792 76 0 153
0.389225 -0.276929 0.483154 153 0 76
0.194277 0.850003 -0.277344 76 0 153
0.089225 -0.056002 -0.262682 204 51 127
0.282382 0.754598 -0.202465 76 0 153
0.359909 -0.615920 -0.241956 76 153 0
0.012689 0.797627 -0.454884 76 0 153
-0.317261 -0.475596 0.540735 0 127 127
0.081252 0.004424 -0.109149 204 51 127
0.218835 0.732974 -0.334355 76 0 153
0.095631 -0.056002 0.337547 204 51 127
0.327281 -0.133401 -0.188496 76 153 0
0.249525 0.749932 -0.385136 76 0 153
0.196055 0.004424 0.320308 204 51 127
0.363879 -0.160115 -0.161388 76 153 0
0.384525 -0.056002 0.540704 204 51 127
0.254687 -0.056002 0.052774 204 51 127
0.327238 0.894110 -0.245141 76 0 153
-0.143197 0.761444 -0.308328 76 0 153
-0.170525 0.788270 -0.378175 76 0 153
0.327281 -0.634158 -0.226626 76 153 0
-0.125766 0.552445 -0.348917 127 0 127
-0.153400 -0.056002 -0.095178 204 51 127
-0.397829 -0.410828 0.202455 76 0 153
-0.349098 -0.056002 0.290904 204 51 127
-0.013947 0.074332 -0.356619 0 127 127
0.328318 0.264963 -0.248293 153 0 76
-0.317261 -0.578210 -0.187855 76 0 153
0.078943 0.004424 0.315028 204 51 127
0.197932 0.004424 0.292293 204 51 127
-0.020378 0.004424 0.306724 204 51 127
-0.262953 0.004424 0.450749 204 51 127
0.405005 -0.759306 -0.161388 76 153 0
-0.317261 -0.448457 -0.180699 76 0 153
-0.350082 0.746042 -0.319214 76 0 153
-0.317261 -0.386934 0.493214 0 127 127
-0.183008 -0.056002 0.175982 204 51 127
0.327281 -0.513656 0.554102 153 0 76
-0.249240 -0.056002 0.383599 204 51 127
0.407849 -0.472883 0.513222 153 0 76
0.327281 -0.163438 -0.217669 76 153 0
-0.375182 -0.267461 0.563722 0 127 127
0.334120 0.343372 -0.257605 153 0 76
0.316556 0.330461 -0.240700 153 0 76
0.180297 -0.056002 0.077975 204 51 127
0.195278 0.373389 -0.341516 76 153 0
0.293710 0.894110 -0.219767 76 0 153
0.302156 -0.056002 0.081622 204 51 127
-0.222069 0.792617 -0.406711 76 0 153
0.016816 0.787454 -0.333352 76 0 153
0.260408 0.004424 0.312540 204 51 127
0.002420 0.894110 -0.436244 76 0 153
0.407849 -0.008443 -0.032564 204 51 127
0.369409 0.763571 -0.286513 76 0 153
0.278562 0.397780 -0.257788 153 0 76
0.397931 -0.134821 -0.161388 76 153 0
-0.114380 0.004424 -0.031464 204 51 127
-0.214462 -0.056002 0.370213 204 51 127
0.190105 0.682864 -0.370202 76 153 0
-0.358507 -0.610856 -0.238774 76 0 153
-0.161521 0.004424 -0.029370 204 51 127
-0.130860 0.004424 0.063276 204 51 127
-0.035854 -0.056002 0.535444 204 51 127
0.325530 0.691191 -0.291968 153 0 76
-0.348559 -0.056002 0.490152 204 51 127
-0.156390 -0.056002 0.306750 204 51 127
-0.397829 -0.228250 -0.191368 76 0 153
0.387602 -0.489054 0.129126 153 76 0
0.032854 0.521740 -0.371382 0 127 127
0.327281 -0.715768 0.553892 153 0 76
-0.189541 0.004424 0.333439 204 51 127
-0.300099 0.188141 -0.237422 127 127 0
0.017111 -0.056002 0.292934 204 51 127
0.376978 -0.653524 -0.241956 76 153 0
-0.317261 -0.741507 0.543740 0 127 127
0.355448 -0.082623 -0.241956 76 153 0
-0.242026 -0.056002 0.052481 204 51 127
-0.269659 0.649251 -0.256108 127 127 0
-0.397829 -0.661785 0.502266 0 127 127
-0.200812 0.894110 -0.388503 76 0 153
0.179191 0.732974 -0.311442 76 0 153
0.331797 0.004424 -0.060381 204 51 127
0.128146 -0.056002 -0.057654 204 51 127
0.056697 0.004424 0.091699 204 51 127
-0.267743 0.827956 -0.271112 76 0 153
-0.386858 -0.152392 -0.158206 76 0 153
0.217880 0.004424 -0.371502 204 51 127
0.269641 0.004424 0.444392 204 51 127
-0.332979 0.004424 -0.240952 204 51 127
-0.160813 0.661234 -0.381467 127 0 127
-0.397829 -0.387365 0.513269 0 127 127
-0.291073 0.004424 0.471932 204 51 127
-0.006138 -0.056002 0.086493 204 51 127
0.336555 0.818999 -0.268630 76 0 153
0.062830 -0.056002 0.053988 204 51 127
0.044038 -0.056002 -0.243264 204 51 127
0.273139 0.004424 0.563257 204 51 127
0.198252 -0.056002 0.415132 204 51 127
0.153964 0.892943 -0.429824 76 0 153
0.108740 0.004424 0.152554 204 51 127
-0.299757 0.803117 -0.195541 76 0 153
-0.217515 -0.056002 0.019810 204 51 127
-0.284139 -0.056002 -0.261246 204 51 127
0.376121 -0.056002 0.192564 204 51 127
-0.091780 -0.045813 -0.432823 204 51 127
0.239643 0.772644 -0.244551 76 0 153
-0.397829 -0.718545 0.499902 0 127 127
-0.292304 -0.056002 0.448652 204 51 127
-0.005331 -0.056002 0.259151 204 51 127
-0.156479 0.290369 -0.321849 127 0 127
0.152513 -0.016845 -0.420851 204 51 127
-0.148001 -0.056002 0.548217 204 51 127
-0.310115 -0.056002 -0.015791 204 51 127
0.362436 -0.190305 -0.161388 76 153 0
0.402401 -0.359250 0.563722 153 0 76
0.218968 0.004424 -0.246753 204 51 127
0.407849 -0.045501 0.272773 204 51 127
0.363781 -0.408486 0.181119 153 76 0
-0.109684 -0.056002 0.376796 204 51 127
0.369382 0.894110 -0.254235 76 0 153
0.026259 -0.056002 -0.117755 204 51 127
-0.139189 -0.056002 0.169790 204 51 127
-0.269121 0.534154 -0.257408 127 127 0
0.406563 -0.240394 0.563722 153 0 76
0.266174 -0.035321 0.563722 204 51 127
-0.319626 0.738552 -0.344632 76 0 153
0.407849 -0.343331 0.505812 153 0 76
-0.279783 0.075418 -0.243087 127 127 0
-0.219287 -0.056002 0.047616 204 51 127
-0.227596 -0.056002 0.387602 204 51 127
-0.166845 -0.056002 -0.207050 204 51 127
-0.001925 0.679376 -0.351050 0 127 127
0.153053 0.197183 -0.377944 76 153 0
0.293761 0.004424 -0.010710 204 51 127
-0.269937 0.245015 -0.255438 127 127 0
-0.379635 -0.330568 0.483154 0 127 127
-0.228788 0.004424 0.425233 204 51 127
-0.191326 0.894110 -0.345141 76 0 153
0.363558 -0.172282 -0.241956 76 153 0
-0.183660 0.004424 0.108491 204 51 127
0.032870 -0.056002 0.470713 204 51 127
0.383292 -0.602197 -0.161388 76 153 0
0.013427 -0.056002 0.182139 204 51 127
0.262609 0.732974 -0.246804 76 0 153
0.407849 -0.011028 0.355327 204 51 127
-0.397829 -0.480857 0.426089 76 0 153
-0.242352 -0.056002 0.339480 204 51 127
-0.397829 -0.760649 0.489945 0 127 127
0.327281 -0.208352 -0.209514 76 153 0
0.407849 -0.003507 0.259165 204 51 127
-0.237565 -0.056002 -0.036248 204 51 127
0.310872 0.556726 -0.298528 153 0 76
0.297745 0.789363 -0.353469 76 0 153
-0.397829 -0.394783 0.555454 0 127 127
-0.187276 0.004424 -0.170565 204 51 127
-0.162122 0.494367 -0.381295 127 0 127
-0.317261 -0.359161 0.559198 0 127 127
-0.138220 0.004424 0.159552 204 51 127
-0.169698 0.004424 0.309905 204 51 127
-0.268738 0.471948 -0.276238 127 127 0
-0.397829 -0.435698 -0.064177 76 0 153
-0.171389 -0.056002 0.015221 204 51 127
-0.352156 -0.056002 -0.178307 76 0 153
0.387282 -0.150098 0.563722 153 0 76
-0.073681 -0.011342 -0.437095 204 51 127
0.031924 0.004424 -0.303353 204 51 127
0.399010 -0.671144 0.483154 153 0 76
0.305700 -0.056002 -0.125473 204 51 127
-0.374636 -0.504721 -0.158206 76 0 153
-0.340396 -0.590891 -0.238774 76 0 153
-0.203306 -0.056002 -0.146928 204 51 127
-0.330728 -0.169349 0.563722 0 127 127
0.137602 0.315085 -0.344215 76 153 0
-0.281856 0.004424 -0.086808 204 51 127
0.327281 -0.434220 0.561815 153 0 76
-0.317452 0.089844 -0.289696 127 127 0
-0.128524 0.102628 -0.338988 127 0 127
-0.397829 -0.094290 0.559198 0 127 127
-0.021492 0.659016 -0.396193 0 127 127
0.297414 -0.056002 0.285761 204 51 127
0.343346 -0.056002 0.319946 204 51 127
0.244218 -0.056002 0.557526 204 51 127
0.195773 0.537911 -0.342712 76 153 0
-0.271485 -0.028483 -0.359398 204 51 127
-0.349575 -0.757106 0.563722 0 127 127
0.190721 0.880417 -0.333106 76 0 153
-0.134599 0.004424 0.283175 204 51 127
0.297030 -0.056002 -0.209760 204 51 127
-0.178793 0.732974 -0.336084 127 0 127
0.123352 0.004424 0.117659 204 51 127
-0.181183 -0.056002 -0.084546 204 51 127
-0.125657 0.235879 -0.354144 127 0 127
-0.237680 0.004424 -0.028060 204 51 127
-0.338652 -0.683855 -0.158206 76 0 153
0.334071 0.894110 -0.284975 76 0 153
0.407849 -0.440414 -0.009602 153 76 0
-0.377498 0.804847 -0.290159 76 0 153
-0.169753 0.004424 0.171145 204 51 127
0.119674 -0.056002 0.308714 204 51 127
-0.334281 -0.276069 0.563722 0 127 127
0.228430 -0.056002 0.440166 204 51 127
-0.126063 0.321682 -0.346662 127 0 127
-0.299692 0.546066 -0.237368 127 127 0
-0.376740 -0.282833 0.483154 0 127 127
0.354419 -0.056002 0.004890 204 51 127
-0.275010 0.004424 0.268092 204 51 127
-0.397829 -0.301423 0.496934 0 127 127
-0.380278 0.004424 -0.248689 204 51 127
0.400529 -0.056002 -0.249615 204 51 127
0.189308 -0.056002 0.383711 204 51 127
-0.390112 -0.227604 -0.238774 76 0 153
-0.317261 -0.453974 0.138172 76 0 153
0.388400 -0.056002 -0.119473 204 51 127
-0.172174 0.770254 -0.296540 76 0 153
-0.096904 0.865020 -0.447058 76 0 153
0.352138 -0.693842 -0.241956 76 153 0
0.385170 -0.079942 0.483154 153 0 76
0.103681 -0.024686 0.563722 204 51 127
0.196781 0.053135 -0.348820 76 153 0
-0.324890 0.601585 -0.279320 127 127 0
-0.274759 0.004424 -0.356489 204 51 127
0.327281 -0.426059 -0.232968 76 153 0
0.069268 -0.056002 -0.132365 204 51 127
0.359145 0.004424 -0.122685 204 51 127
0.159388 0.004424 0.317232 204 51 127
-0.125949 0.342626 -0.347527 127 0 127
0.327281 -0.512406 0.519596 153 0 76
0.327281 -0.172196 0.484696 153 0 76
-0.397829 -0.159027 0.510344 0 127 127
0.328163 -0.408486 -0.007339 153 76 0
0.013640 0.004424 0.357175 204 51 127
-0.156995 0.084540 -0.321916 127 0 127
-0.022857 0.854475 -0.367484 76 0 153
-0.362226 -0.744834 -0.158206 76 0 153
-0.029271 0.004424 0.001062 204 51 127
-0.179745 0.871204 -0.369656 76 0 153
0.188852 0.836973 -0.371835 76 0 153
0.407849 -0.649125 -0.218310 76 153 0
-0.172262 0.567856 -0.326986 127 0 127
-0.243316 0.784968 -0.250909 76 0 153
-0.348229 -0.490051 0.271882 76 0 153
0.000472 0.329246 -0.410181 0 127 127
0.254519 0.800384 -0.232135 76 0 153
0.327281 -0.483327 -0.004104 153 76 0
0.360785 -0.489054 -0.087323 153 76 0
-0.317261 -0.421694 -0.131920 76 0 153
-0.380489 -0.409483 0.426148 76 0 153
0.368727 -0.489054 0.190478 153 76 0
-0.279182 0.894110 -0.238641 76 0 153
0.407849 -0.440092 0.551716 153 0 76
0.029690 0.004424 -0.428998 204 51 127
0.137885 -0.056002 -0.079546 204 51 127
-0.125839 0.751243 -0.348360 76 0 153
-0.299121 0.452216 -0.297279 127 127 0
-0.368126 -0.236228 0.563722 0 127 127
0.382468 -0.056002 0.387997 204 51 127
0.222811 0.877723 -0.401183 76 0 153
-0.389946 -0.409483 -0.066515 76 0 153
-0.174478 0.675666 -0.375199 127 0 127
-0.221373 -0.056002 0.336860 204 51 127
0.317253 -0.056002 -0.195770 204 51 127
0.035538 0.732974 -0.337299 76 0 153
-0.337800 -0.056002 0.007278 204 51 127
0.029240 0.691770 -0.397019 0 127 127
0.388705 -0.364825 -0.241956 76 153 0
-0.341288 -0.138773 -0.158206 76 0 153
0.407849 -0.059186 0.516017 153 0 76
-0.269633 0.372304 -0.256171 127 127 0
0.025572 -0.056002 -0.227268 204 51 127
0.407849 -0.060326 -0.200148 204 51 127
-0.367264 -0.409483 0.055787 76 0 153
-0.315226 0.004424 0.249306 204 51 127
-0.046874 0.004424 0.217436 204 51 127
0.327281 -0.701285 0.497948 153 0 76
0.327281 -0.579085 -0.179657 76 153 0
-0.112405 0.004424 0.475073 204 51 127
0.265936 0.004424 0.069185 204 51 127
-0.171631 -0.056002 0.124759 204 51 127
-0.396550 -0.027150 -0.243412 204 51 127
0.341434 0.826259 -0.317008 76 0 153
-0.199323 -0.056002 -0.381633 204 51 127
0.022574 -0.056002 0.262379 204 51 127
0.327281 -0.520127 -0.217444 76 153 0
-0.311938 0.166315 -0.293708 127 127 0
-0.397829 -0.320403 -0.188869 76 0 153
0.327281 -0.348403 -0.181138 76 153 0
-0.144498 0.447395 -0.324111 127 0 127
-0.152289 0.208496 -0.322164 127 0 127
0.081438 0.004424 -0.152594 204 51 127
0.327281 -0.465507 -0.220401 76 153 0
-0.348127 -0.409483 -0.026359 76 0 153
0.238001 0.004424 0.318451 204 51 127
0.294697 0.883729 -0.241323 76 0 153
-0.289905 0.801808 -0.296505 76 0 153
-0.132761 -0.056002 -0.135171 204 51 127
0.326266 0.779682 -0.329667 76 0 153
0.407849 -0.183692 -0.202563 76 153 0
-0.397829 -0.553109 -0.158567 76 0 153
0.203157 -0.056002 -0.218557 204 51 127
-0.069637 -0.056002 -0.034342 204 51 127
-0.376781 -0.760970 0.541082 0 127 127
0.202867 -0.024897 0.563722 204 51 127
0.088624 0.732974 -0.381497 76 0 153
0.002184 0.095638 -0.350510 0 127 127
-0.160528 0.004424 0.378751 204 51 127
0.334269 -0.489054 0.311976 153 76 0
0.264060 0.004424 -0.151030 204 51 127
0.402247 -0.635065 -0.161388 76 153 0
-0.317261 -0.242789 -0.231983 76 0 153
-0.046101 0.004424 -0.030276 204 51 127
-0.112367 0.894110 -0.359300 76 0 153
0.191302 -0.056002 -0.019610 204 51 127
0.029440 0.018538 -0.364157 0 127 127
-0.111803 -0.038045 -0.428096 204 51 127
-0.198815 0.894110 -0.364599 76 0 153
0.071347 0.004424 -0.017542 204 51 127
-0.397829 -0.118004 -0.220184 76 0 153
0.327281 -0.747532 -0.178669 76 153 0
-0.104586 -0.056002 -0.340202 204 51 127
-0.311483 0.441088 -0.240675 127 127 0
0.357801 -0.489054 0.224038 153 76 0
0.387580 -0.075018 0.563722 153 0 76
-0.397829 -0.463930 0.331418 76 0 153
0.276473 0.199168 -0.266575 153 0 76
0.407849 -0.732531 0.552047 153 0 76
0.110014 0.732974 -0.368499 76 0 153
-0.397829 -0.040064 0.276609 204 51 127
0.192112 0.004424 -0.182422 204 51 127
0.231416 0.004424 0.153908 204 51 127
-0.354049 -0.409483 0.479940 0 127 127
0.132509 -0.056002 0.089966 204 51 127
0.175359 0.519327 -0.380166 76 153 0
-0.094786 -0.056002 0.159142 204 51 127
0.144029 0.277342 -0.331838 76 153 0
0.344260 -0.056002 -0.060719 204 51 127
0.328533 0.780845 -0.248574 76 0 153
0.148689 0.502442 -0.327461 76 153 0
-0.118764 -0.014912 0.563722 204 51 127
0.186444 0.305785 -0.374004 76 153 0
-0.001330 0.004424 0.411922 204 51 127
-0.317261 -0.635752 -0.197268 76 0 153
-0.317261 -0.201722 0.521939 0 127 127
0.279033 -0.019113 0.563722 204 51 127
-0.060154 0.004424 0.366029 204 51 127
0.115034 0.004424 0.545346 204 51 127
-0.305653 0.255285 -0.238260 127 127 0
0.277491 0.431574 -0.277440 153 0 76
-0.017317 0.732974 -0.434649 76 0 153
0.242374 0.004424 -0.218009 204 51 127
0.345640 -0.335811 0.483154 153 0 76
-0.379322 -0.516071 0.563722 0 127 127
0.164101 -0.056002 -0.240995 204 51 127
0.258200 -0.056002 -0.126502 204 51 127
-0.376433 0.784666 -0.226729 76 0 153
0.074424 -0.056002 -0.375067 204 51 127
-0.396941 0.004424 0.165429 204 51 127
-0.397829 -0.041825 0.522743 204 51 127
-0.317261 -0.329371 -0.172757 76 0 153
0.190036 0.195553 -0.370291 76 153 0
0.382517 -0.762155 -0.228618 76 153 0
-0.166477 0.004424 -0.165538 204 51 127
0.407849 -0.444500 0.483446 153 0 76
-0.341538 -0.391209 -0.238774 76 0 153
0.315088 0.062359 -0.240092 153 0 76
0.006017 0.147694 -0.350486 0 127 127
-0.184864 0.590093 -0.359006 127 0 127
0.327281 -0.388762 -0.162191 76 153 0
0.387498 0.004424 0.248000 204 51 127
0.407849 -0.421593 -0.067590 153 76 0
0.327281 -0.067517 -0.238435 76 153 0
-0.356342 -0.634174 -0.158206 76 0 153
-0.175814 0.026118 -0.329712 127 0 127
-0.346118 0.004424 0.526288 204 51 127
-0.061550 0.004424 0.520256 204 51 127
-0.096766 0.004424 -0.043246 204 51 127
0.335048 0.537070 -0.277967 153 0 76
-0.397829 -0.208894 0.562748 0 127 127
-0.317261 -0.432221 0.537611 0 127 127
-0.325351 0.167679 -0.278205 127 127 0
-0.009010 0.687483 -0.407413 0 127 127
-0.397829 -0.282021 0.541503 0 127 127
-0.317261 -0.706104 -0.175175 76 0 153
-0.012044 0.361586 -0.355159 0 127 127
0.327281 -0.414365 0.181438 153 76 0
0.136688 -0.056002 0.501526 204 51 127
0.008966 0.759096 -0.410042 76 0 153
0.407849 -0.463877 -0.212937 76 153 0
0.136919 0.015933 -0.349403 76 153 0
-0.372260 -0.490051 -0.101641 76 0 153
-0.015144 0.004424 0.128473 204 51 127
0.275241 0.732974 -0.366378 76 0 153
-0.357955 0.004424 0.240928 204 51 127
-0.258133 0.836157 -0.238543 76 0 153
-0.307523 0.360466 -0.295537 127 127 0
-0.341872 -0.435616 0.563722 0 127 127
0.288546 0.264053 -0.244834 153 0 76
-0.197878 0.004424 0.457306 204 51 127
-0.273833 0.179305 -0.285711 127 127 0
0.310326 0.639665 -0.239214 153 0 76
0.194778 0.088150 -0.340310 76 153 0
0.064310 -0.006127 0.563722 204 51 127
-0.280370 0.826676 -0.291935 76 0 153
-0.317261 -0.503339 -0.197200 76 0 153
-0.211552 0.732974 -0.289738 76 0 153
-0.138601 0.862311 -0.437214 76 0 153
0.288998 -0.056002 0.266067 204 51 127
-0.397829 -0.670123 0.547429 0 127 127
-0.321058 0.004424 0.405938 204 51 127
0.193948 0.462906 -0.338305 76 153 0
-0.127384 0.464757 -0.341741 127 0 127
-0.149867 0.703154 -0.322482 127 0 127
-0.317261 -0.403994 -0.191972 76 0 153
-0.367045 0.004424 0.429416 204 51 127
0.313925 0.451223 -0.239687 153 0 76
0.407849 -0.153402 -0.225101 76 153 0
-0.017108 -0.056002 -0.191265 204 51 127
0.175434 0.064623 -0.322370 76 153 0
0.151944 0.894110 -0.302086 76 0 153
-0.317261 -0.136810 0.501370 0 127 127
-0.317261 -0.734773 0.503082 0 127 127
-0.109246 -0.056002 0.180243 204 51 127
0.327281 -0.410013 0.042927 153 76 0
-0.317261 -0.233198 0.550474 0 127 127
0.369328 0.744468 -0.230407 76 0 153
-0.074586 -0.056002 -0.405436 204 51 127
-0.032451 -0.019045 -0.440474 204 51 127
0.019673 0.091171 -0.406335 0 127 127
-0.396441 0.004424 0.434900 204 51 127
0.363654 0.004424 -0.041736 204 51 127
0.055995 0.769652 -0.329876 76 0 153
-0.164965 -0.056002 -0.153068 204 51 127
0.407849 -0.466953 0.236664 153 76 0
-0.396732 -0.551773 0.563722 0 127 127
-0.129005 0.793576 -0.366059 76 0 153
0.171475 0.120464 -0.380862 76 153 0
0.034116 0.722387 -0.378272 76 0 153
-0.378339 -0.269834 -0.158206 76 0 153
-0.333261 -0.490051 0.172394 76 0 153
0.387539 0.004424 0.162985 204 51 127
-0.078445 0.004424 0.056671 204 51 127
0.032796 0.585531 -0.389675 0 127 127
0.075928 0.004424 0.070552 204 51 127
0.205074 0.732974 -0.406838 76 0 153
0.104990 0.004424 -0.112135 204 51 127
-0.092423 -0.056002 -0.187412 204 51 127
-0.317261 -0.430092 -0.054283 76 0 153
-0.319907 -0.120496 -0.158206 76 0 153
0.350832 -0.489054 0.140209 153 76 0
0.152673 -0.056002 -0.032596 204 51 127
0.377214 0.801240 -0.277628 76 0 153
-0.017310 0.267551 -0.359273 0 127 127
-0.259347 0.004424 -0.284021 204 51 127
-0.147285 0.894110 -0.325562 76 0 153
-0.053518 0.894110 -0.409397 76 0 153
-0.325974 -0.650183 0.483154 0 127 127
-0.397829 -0.007558 0.297834 204 51 127
0.000774 -0.056002 -0.389396 204 51 127
-0.238982 0.004424 0.183254 204 51 127
0.225306 0.894110 -0.279872 76 0 153
-0.027741 0.751727 -0.333380 76 0 153
0.254594 0.004424 0.186119 204 51 127
-0.298035 0.579844 -0.297422 127 127 0
-0.397829 -0.253396 -0.225110 76 0 153
0.333193 0.192267 -0.255368 153 0 76
0.114268 0.004424 0.517950 204 51 127
0.233275 0.004424 0.542675 204 51 127
0.279879 0.305054 -0.254608 153 0 76
-0.153211 -0.056002 0.451272 204 51 127
-0.379727 -0.627572 0.563722 0 127 127
-0.185729 0.004424 -0.203222 204 51 127
0.333740 -0.368308 -0.161388 76 153 0
0.035913 -0.056002 0.396217 204 51 127
0.163452 0.004424 0.129572 204 51 127
-0.327278 0.891043 -0.264347 76 0 153
0.164683 0.004424 0.103282 204 51 127
0.130565 0.004424 0.505633 204 51 127
0.290723 -0.056002 0.462217 204 51 127
0.398006 -0.408486 0.346764 153 76 0
0.138781 0.738891 -0.361671 76 153 0
0.327281 -0.621820 -0.182275 76 153 0
0.310162 0.846492 -0.239192 76 0 153
-0.078356 -0.056002 -0.314003 204 51 127
0.356586 -0.056002 0.294676 204 51 127
0.357331 -0.553965 0.563722 153 0 76
-0.182210 0.333833 -0.365928 127 0 127
0.249377 0.004424 0.471388 204 51 127
0.407849 -0.016069 0.515029 204 51 127
-0.293353 0.004424 0.404824 204 51 127
0.387851 0.004424 0.543014 204 51 127
0.187414 -0.056002 0.022643 204 51 127
0.383819 0.840403 -0.270109 76 0 153
-0.178796 0.532547 -0.370893 127 0 127
0.407849 -0.546904 0.523541 153 0 76
-0.196689 0.784360 -0.417036 76 0 153
0.386274 -0.056002 0.021882 204 51 127
0.170881 0.732974 -0.369746 76 153 0
0.300165 0.475919 -0.298302 153 0 76
0.346755 -0.708360 0.483154 153 0 76
0.354755 -0.582021 0.483154 153 0 76
-0.370492 0.004424 -0.028066 204 51 127
0.407849 -0.484671 0.176543 153 76 0
-0.204448 0.004424 -0.215439 204 51 127
0.331417 0.148398 -0.252332 153 0 76
0.407849 -0.433917 0.438669 153 76 0
0.086598 0.894110 -0.443612 76 0 153
-0.397829 -0.041686 0.446620 204 51 127
-0.155172 0.247695 -0.382102 127 0 127
0.407849 -0.098648 0.493808 153 0 76
-0.134260 0.227343 -0.373340 127 0 127
-0.343485 -0.754609 -0.158206 76 0 153
0.176910 -0.056002 0.230737 204 51 127
-0.005545 0.004424 -0.091561 204 51 127
-0.236423 -0.056002 -0.287313 204 51 127
-0.244654 0.004424 0.411101 204 51 127
-0.297688 0.523937 -0.297468 127 127 0
0.214658 -0.056002 -0.382619 204 51 127
0.407849 -0.523121 -0.167416 76 153 0
-0.325054 0.004424 0.473258 204 51 127
0.327281 -0.450375 0.409395 153 76 0
-0.397829 -0.462932 0.007585 76 0 153
-0.081997 -0.056002 0.258188 204 51 127
0.336146 0.228913 -0.272289 153 0 76
-0.295715 -0.032798 -0.342765 204 51 127
-0.162322 0.413595 -0.322618 127 0 127
0.327761 0.004424 0.280157 204 51 127
-0.299514 -0.056002 0.156988 204 51 127
-0.394747 -0.731486 0.483154 0 127 127
0.345676 -0.592352 -0.161388 76 153 0
-0.317796 0.018021 -0.245140 127 127 0
-0.160587 0.790539 -0.431723 76 0 153
0.407849 -0.430306 0.367477 153 76 0
0.190571 0.638848 -0.369594 76 153 0
-0.113170 0.732974 -0.368317 76 0 153
-0.364590 0.747806 -0.304853 76 0 153
-0.317261 -0.413541 0.007897 76 0 153
0.025589 -0.056002 -0.283840 204 51 127
-0.394674 0.873167 -0.242753 76 0 153
0.096893 0.004424 0.441109 204 51 127
0.327281 -0.471544 0.329278 153 76 0
0.059798 0.838002 -0.328978 76 0 153
0.327281 -0.418265 0.442719 153 76 0
0.395979 0.004424 0.030555 204 51 127
-0.380651 -0.490051 0.212553 76 0 153
0.095628 0.751005 -0.320520 76 0 153
0.407849 -0.488431 0.393769 153 76 0
0.326343 0.004424 0.504573 204 51 127
0.381757 -0.160111 -0.241956 76 153 0
0.120699 0.004424 -0.233532 204 51 127
-0.104091 -0.056002 0.467766 204 51 127
0.286642 0.375607 -0.291519 153 0 76
-0.277113 0.277955 -0.245136 127 127 0
-0.254680 0.894110 -0.263468 76 0 153
-0.297244 0.004424 -0.046717 204 51 127
0.005033 0.719309 -0.410560 0 127 127
-0.317261 -0.564344 0.507001 0 127 127
-0.274094 0.705597 -0.286051 127 127 0
0.222196 -0.056002 -0.004065 204 51 127
0.003672 0.004424 -0.330288 204 51 127
0.323123 0.786205 -0.189819 76 0 153
0.407849 -0.186076 -0.163113 76 153 0
-0.308023 0.004424 0.340077 204 51 127
-0.257298 0.867726 -0.387250 76 0 153
-0.285186 0.790139 -0.370498 76 0 153
0.033188 0.004424 -0.018746 204 51 127
-0.281522 -0.016877 0.563722 204 51 127
0.210214 -0.056002 -0.186564 204 51 127
0.334273 -0.489054 0.397102 153 76 0
0.166976 0.877805 -0.321051 76 0 153
0.378230 0.778151 -0.238227 76 0 153
0.006545 0.776250 -0.350555 76 0 153
0.031770 -0.056002 -0.061041 204 51 127
0.142185 0.566417 -0.334241 76 153 0
-0.397829 -0.035870 -0.079844 204 51 127
0.307232 0.232145 -0.299007 153 0 76
-0.397829 -0.485997 0.313732 76 0 153
-0.360612 0.004424 0.300575 204 51 127
-0.015564 0.761721 -0.455536 76 0 153
0.386331 -0.056002 0.367093 204 51 127
0.136892 0.865422 -0.349604 76 0 153
-0.077170 0.004424 -0.006959 204 51 127
-0.310716 -0.056002 -0.182129 204 51 127
-0.378339 -0.409483 -0.157469 76 0 153
0.407849 -0.055509 -0.037938 204 51 127
0.357696 -0.053292 -0.299049 204 51 127
0.396480 0.004424 0.397022 204 51 127
0.107156 0.004424 0.299738 204 51 127
-0.397829 -0.468483 0.169735 76 0 153
0.181571 0.668218 -0.324912 76 153 0
-0.397829 -0.432304 0.455027 0 127 127
0.188842 0.362623 -0.371848 76 153 0
-0.111213 0.004424 -0.097980 204 51 127
0.132146 -0.056002 -0.212545 204 51 127
-0.298462 -0.001175 -0.340472 204 51 127
0.380483 0.732974 -0.262097 76 0 153
0.313162 0.004424 0.297544 204 51 127
0.348846 -0.408486 0.371259 153 76 0
0.277189 0.734391 -0.276681 76 0 153
0.407849 -0.536684 -0.230258 76 153 0
0.184007 0.004424 -0.080541 204 51 127
-0.378705 0.004424 -0.102193 204 51 127
-0.317261 -0.433416 0.486001 0 127 127
-0.317458 -0.056002 -0.058364 204 51 127
0.006831 -0.056002 -0.154722 204 51 127
0.052741 -0.056002 0.436295 204 51 127
0.022311 0.322270 -0.404311 0 127 127
0.103473 0.004424 -0.368746 204 51 127
-0.118056 -0.056002 0.560402 204 51 127
-0.236419 0.741987 -0.256665 76 0 153
-0.377292 -0.310630 0.483154 0 127 127
-0.176409 0.004424 0.544507 204 51 127
-0.025768 0.558761 -0.382384 0 127 127
-0.204038 0.004424 -0.268177 204 51 127
0.006593 0.051386 -0.350562 0 127 127
0.407849 -0.700075 0.536146 153 0 76
-0.023235 0.004424 0.030588 204 51 127
-0.163894 0.746819 -0.380922 76 0 153
0.044463 0.004424 -0.102870 204 51 127
0.124581 -0.019439 0.563722 204 51 127
-0.376074 -0.056002 0.423932 204 51 127
-0.368301 -0.125697 0.483154 0 127 127
-0.319456 -0.490051 -0.096363 76 0 153
0.407849 -0.128599 -0.227954 76 153 0
-0.286420 0.004424 -0.160372 204 51 127
0.352406 -0.419551 -0.241956 76 153 0
0.407849 -0.032905 0.109178 204 51 127
0.163236 -0.056002 0.208596 204 51 127
0.192699 0.774598 -0.366821 76 0 153
-0.270547 0.555726 -0.253965 127 127 0
-0.397829 -0.516985 -0.213922 76 0 153
-0.397829 -0.495926 0.535625 0 127 127
-0.262253 -0.056002 0.418894 204 51 127
-0.353828 0.846916 -0.316088 76 0 153
-0.137218 0.839037 -0.328277 76 0 153
-0.311432 0.461288 -0.240654 127 127 0
0.407849 -0.003536 0.428408 204 51 127
0.366250 0.829781 -0.227703 76 0 153
-0.392268 0.755356 -0.240640 76 0 153
0.063847 0.004424 0.463298 204 51 127
-0.249889 -0.056002 0.125072 204 51 127
0.341105 -0.192229 0.563722 153 0 76
0.017307 0.004424 -0.289674 204 51 127
0.073974 -0.056002 -0.425358 204 51 127
0.111723 -0.056002 0.103480 204 51 127
0.376552 -0.547943 -0.161388 76 153 0
0.213986 0.004424 0.402533 204 51 127
-0.329905 -0.290271 -0.238774 76 0 153
0.360843 0.829113 -0.296265 76 0 153
0.347043 -0.408486 -0.075621 153 76 0
0.299904 0.004424 0.188643 204 51 127
-0.317261 -0.416510 -0.089887 76 0 153
0.327281 -0.455000 0.025820 153 76 0
0.370781 -0.235421 -0.161388 76 153 0
-0.048002 0.004424 -0.304895 204 51 127
-0.032205 0.891176 -0.454248 76 0 153
-0.397829 -0.027760 -0.004109 204 51 127
-0.072628 -0.056002 -0.156552 204 51 127
0.014102 0.004424 0.398702 204 51 127
-0.245202 -0.056002 -0.078563 204 51 127
0.314174 0.319709 -0.298093 153 0 76
0.351417 0.004424 0.519147 204 51 127
0.398272 -0.762155 -0.214114 76 153 0
0.243511 -0.056002 -0.224002 204 51 127
-0.127687 0.773306 -0.341010 76 0 153
-0.397829 -0.118217 -0.172849 76 0 153
-0.043697 -0.056002 0.246454 204 51 127
0.149391 0.846116 -0.375583 76 0 153
-0.018926 0.606314 -0.361379 0 127 127
-0.317261 -0.470712 -0.139275 76 0 153
-0.397829 -0.598167 -0.210940 76 0 153
-0.135651 0.046526 -0.374407 127 0 127
0.359904 -0.489054 0.461878 153 0 76
0.059900 0.004424 -0.271478 204 51 127
0.333016 -0.491353 0.483154 153 0 76
-0.068113 -0.056002 -0.369530 204 51 127
-0.107206 0.883838 -0.444626 76 0 153
0.196746 0.847620 -0.348552 76 0 153
-0.237978 0.004424 0.065988 204 51 127
-0.162323 -0.056002 0.055604 204 51 127
-0.378589 -0.602410 0.483154 0 127 127
-0.133341 0.538499 -0.372166 127 0 127
-0.007570 0.004424 -0.162181 204 51 127
-0.323745 -0.514836 0.483154 0 127 127
-0.207576 0.004424 0.513997 204 51 127
0.407849 -0.565969 -0.207700 76 153 0
-0.390127 -0.415793 -0.238774 76 0 153
0.327281 -0.074508 0.563105 153 0 76
-0.273072 0.275824 -0.284719 127 127 0
0.388723 -0.227852 -0.241956 76 153 0
-0.186966 0.800135 -0.288518 76 0 153
-0.265002 0.004424 -0.003321 204 51 127
0.407849 -0.427513 0.129417 153 76 0
0.328702 -0.408486 -0.054003 153 76 0
-0.231684 -0.056002 0.297720 204 51 127
-0.397829 -0.455747 -0.169001 76 0 153
0.140933 0.475377 -0.366633 76 153 0
-0.067763 -0.056002 -0.117343 204 51 127
0.357630 -0.056002 -0.186974 204 51 127
-0.207800 -0.038771 0.563722 204 51 127
0.327281 -0.260270 0.524703 153 0 76
-0.025557 0.206657 -0.383990 0 127 127
0.349314 -0.473647 -0.241956 76 153 0
-0.319998 0.493448 -0.247463 127 127 0
0.138313 0.894110 -0.331544 76 0 153
-0.363808 -0.561355 0.563722 0 127 127
0.243645 0.894110 -0.268082 76 0 153
-0.317261 -0.474822 0.022797 76 0 153
0.327281 -0.423512 -0.188075 76 153 0
0.407849 -0.399619 0.544129 153 0 76
-0.326328 0.466551 -0.275848 127 127 0
-0.133457 0.004424 0.408399 204 51 127
-0.317261 -0.611796 0.499278 0 127 127
0.177755 0.341589 -0.323332 76 153 0
-0.377845 -0.480787 -0.238774 76 0 153
0.340867 -0.327300 -0.241956 76 153 0
0.267081 0.004424 -0.190404 204 51 127
-0.327602 -0.056002 0.028818 204 51 127
-0.363817 -0.654004 0.483154 0 127 127
0.074393 0.004424 -0.346320 204 51 127
-0.103673 -0.056002 -0.294509 204 51 127
-0.323078 0.486562 -0.283094 127 127 0
0.368638 -0.211167 0.483154 153 0 76
0.351362 -0.408486 0.144624 153 76 0
-0.378819 -0.490051 0.061130 76 0 153
-0.317390 0.004424 -0.290184 204 51 127
0.407849 -0.151057 0.495960 153 0 76
0.298943 0.535770 -0.298141 153 0 76
0.031095 0.654648 -0.393781 0 127 127
0.407849 -0.038008 0.323700 204 51 127
0.212218 0.781415 -0.266567 76 0 153
-0.221414 0.004424 -0.061050 204 51 127
-0.140717 0.004424 -0.196412 204 51 127
-0.268308 0.680567 -0.259371 127 127 0
0.327281 -0.606322 -0.219783 76 153 0
0.301658 0.408640 -0.298498 153 0 76
-0.397829 -0.029747 0.337402 204 51 127
0.344453 -0.408486 0.306923 153 76 0
-0.172277 0.004424 -0.279457 204 51 127
-0.147107 0.346873 -0.323031 127 0 127
0.099542 0.869740 -0.443769 76 0 153
0.081920 0.004424 -0.263054 204 51 127
0.327281 -0.326831 -0.180035 76 153 0
-0.185594 0.405102 -0.353454 127 0 127
-0.327536 -0.565030 0.563722 0 127 127
0.139867 -0.056002 0.359271 204 51 127
0.018207 0.875060 -0.353841 76 0 153
-0.317261 -0.747612 0.518199 0 127 127
-0.043334 -0.056002 -0.375870 204 51 127
-0.301977 0.640220 -0.237669 127 127 0
0.122108 -0.056002 -0.238268 204 51 127
0.005281 0.363753 -0.410528 0 127 127
-0.033942 -0.013084 0.563722 204 51 127
0.305326 0.410908 -0.238832 153 0 76
0.184192 -0.056002 0.142914 204 51 127
-0.049251 0.004424 0.274543 204 51 127
0.290161 0.732974 -0.213528 76 0 153
-0.038930 0.004424 0.542735 204 51 127
-0.304730 -0.056002 0.226402 204 51 127
0.407849 0.003239 -0.079626 204 51 127
-0.378903 -0.490051 0.368216 76 0 153
-0.059888 -0.056002 0.399018 204 51 127
-0.397829 -0.139822 0.558820 0 127 127
-0.338407 -0.235625 0.483154 0 127 127
-0.084080 0.894110 -0.406085 76 0 153
0.323285 0.870346 -0.332155 76 0 153
0.371056 -0.056002 -0.252141 204 51 127
-0.270155 -0.056002 -0.195390 204 51 127
0.406607 -0.489054 -0.093759 153 76 0
-0.317261 -0.276003 0.500391 0 127 127
-0.305518 0.166491 -0.238204 127 127 0
0.356610 -0.269643 -0.161388 76 153 0
0.377246 -0.346938 -0.241956 76 153 0
-0.071060 0.004424 -0.118224 204 51 127
0.045253 -0.056002 -0.188975 204 51 127
-0.153214 0.350377 -0.381844 127 0 127
-0.277817 0.724634 -0.289976 127 127 0
0.315651 0.004424 0.347790 204 51 127
0.196984 0.296949 -0.350361 76 153 0
-0.316679 0.004424 0.503115 204 51 127
-0.234373 0.894110 -0.381860 76 0 153
0.256521 -0.056002 -0.182042 204 51 127
0.013534 0.860325 -0.409011 76 0 153
0.109872 -0.056002 0.528727 204 51 127
0.407849 -0.007837 0.281311 204 51 127
0.085517 0.770989 -0.322907 76 0 153
0.338196 0.894110 -0.222561 76 0 153
-0.336366 0.004424 0.139788 204 51 127
-0.397829 -0.005015 -0.014396 204 51 127
0.192122 -0.056002 -0.177418 204 51 127
0.393581 -0.489054 0.212893 153 76 0
-0.127176 0.732974 -0.330824 76 0 153
0.295374 0.362386 -0.241043 153 0 76
-0.143170 0.876759 -0.379225 76 0 153
-0.137566 -0.056002 -0.072175 204 51 127
0.179879 0.468018 -0.324211 76 153 0
-0.344222 0.004424 -0.071813 204 51 127
-0.181978 0.113036 -0.366488 127 0 127
-0.397829 -0.290757 -0.167390 76 0 153
-0.254411 0.004424 -0.141866 204 51 127
-0.148549 -0.033150 -0.419356 204 51 127
-0.189789 0.004424 -0.096434 204 51 127
-0.317261 -0.441414 0.344527 76 0 153
0.318820 0.004424 0.155350 204 51 127
-0.331375 0.732974 -0.251714 76 0 153
-0.256007 0.894110 -0.386596 76 0 153
0.068636 -0.056002 -0.103391 204 51 127
-0.011688 -0.056002 0.230740 204 51 127
-0.024285 0.018203 -0.389985 204 51 127
0.171402 0.004424 -0.399477 204 51 127
-0.317261 -0.540930 0.533997 0 127 127
0.342148 -0.091253 0.483154 153 0 76
0.337473 0.004424 0.088910 204 51 127
0.393067 -0.387434 -0.161388 76 153 0
0.313644 0.176506 -0.239650 153 0 76
-0.397829 -0.620970 -0.167179 76 0 153
-0.044334 -0.056002 -0.158745 204 51 127
0.189752 -0.056002 0.501738 204 51 127
-0.317261 -0.134030 0.556847 0 127 127
-0.317261 -0.599030 -0.197022 76 0 153
0.364134 0.865618 -0.225845 76 0 153
-0.125410 0.004424 0.174495 204 51 127
0.337774 -0.489054 0.065137 153 76 0
-0.317261 -0.230188 -0.197106 76 0 153
0.227850 -0.056002 0.511951 204 51 127
0.280771 0.641007 -0.253074 153 0 76
0.407838 -0.056002 0.175419 204 51 127
-0.378317 -0.174160 -0.158206 76 0 153
-0.131741 0.004424 0.304980 204 51 127
0.407849 -0.451416 -0.171679 76 153 0
0.407639 0.004424 0.491163 204 51 127
0.327281 -0.410215 0.520583 153 0 76
-0.317261 -0.125671 -0.187713 76 0 153
0.095670 0.851475 -0.320510 76 0 153
-0.137388 0.004424 -0.032817 204 51 127
0.387061 -0.751270 -0.161388 76 153 0
0.153440 0.190601 -0.324401 76 153 0
-0.302556 0.894110 -0.248482 76 0 153
-0.136552 0.004424 0.443347 204 51 127
-0.167344 0.841172 -0.298505 76 0 153
-0.057786 -0.050937 -0.438513 204 51 127
-0.317261 -0.489720 0.446312 76 0 153
-0.397829 -0.164353 -0.235213 76 0 153
-0.125898 0.007214 -0.355969 127 0 127
-0.239503 -0.056002 -0.170942 204 51 127
0.353453 -0.242512 0.483154 153 0 76
-0.000028 0.806026 -0.334656 76 0 153
0.287052 0.840814 -0.245980 76 0 153
0.336986 -0.349283 0.563722 153 0 76
-0.207204 0.732974 -0.315063 76 0 153
-0.320369 -0.175550 -0.158206 76 0 153
0.277380 0.250395 -0.277171 153 0 76
-0.320439 0.830122 -0.177541 76 0 153
0.328624 0.004424 -0.293843 153 0 76
0.208553 0.004424 0.182520 204 51 127
0.323445 0.834014 -0.190101 76 0 153
-0.133612 -0.056002 0.146160 204 51 127
-0.356957 0.004424 0.353718 204 51 127
-0.363610 -0.490051 0.199541 76 0 153
-0.138429 0.004424 0.380587 204 51 127
-0.142219 0.046178 -0.325055 127 0 127
-0.307170 0.004424 -0.209923 204 51 127
0.158426 -0.056002 -0.388920 204 51 127
0.289639 0.004424 -0.301696 204 51 127
0.118676 0.004424 0.341175 204 51 127
-0.132632 0.004424 0.120613 204 51 127
0.013337 0.525386 -0.409092 0 127 127
-0.336349 0.751979 -0.191517 76 0 153
0.407849 -0.127391 -0.207178 76 153 0
-0.054943 0.004424 -0.361116 204 51 127
-0.002508 0.593403 -0.409789 0 127 127
-0.371155 -0.055476 -0.272320 204 51 127
-0.339070 -0.409483 0.229349 76 0 153
0.382139 -0.489054 0.423611 153 76 0
0.033245 0.125092 -0.388590 0 127 127
0.407849 -0.745180 -0.224389 76 153 0
0.407849 -0.481136 0.532386 153 0 76
-0.197819 0.004424 0.274971 204 51 127
-0.145764 0.873274 -0.307284 76 0 153
0.047412 -0.046542 0.563722 204 51 127
-0.397829 -0.014339 -0.220713 204 51 127
-0.397829 -0.559289 0.530426 0 127 127
-0.012022 0.004424 -0.350642 204 51 127
-0.296317 0.004424 -0.299157 204 51 127
-0.325765 -0.555227 0.483154 0 127 127
-0.323794 -0.344747 0.483154 0 127 127
-0.361476 -0.409483 0.076206 76 0 153
0.407849 -0.415704 0.106827 153 76 0
0.081691 -0.056002 0.294261 204 51 127
-0.397829 -0.579386 0.517605 0 127 127
0.112189 0.894110 -0.391711 76 0 153
-0.395738 -0.685264 0.483154 0 127 127
-0.270653 0.004424 -0.047297 204 51 127
-0.128284 -0.056002 -0.263039 204 51 127
-0.145417 0.778278 -0.323731 76 0 153
0.067440 -0.056002 0.095561 204 51 127
-0.335291 -0.638529 -0.158206 76 0 153
-0.325471 0.225980 -0.277917 127 127 0
0.382214 0.771008 -0.271937 76 0 153
0.168727 0.053352 -0.381224 76 153 0
-0.317261 -0.668602 -0.177309 76 0 153
-0.397829 -0.488563 -0.179748 76 0 153
0.199596 0.004424 -0.267933 204 51 127
-0.297605 0.237484 -0.237093 127 127 0
-0.355009 -0.697218 -0.238774 76 0 153
0.325564 0.795106 -0.291942 76 0 153
0.262495 0.004424 0.509890 204 51 127
0.149070 0.541884 -0.375337 76 153 0
-0.334699 -0.490051 -0.155010 76 0 153
-0.317261 -0.653301 0.549721 0 127 127
0.327281 -0.486718 0.102257 153 76 0
-0.216626 0.004424 0.167202 204 51 127
-0.397829 -0.182308 0.503660 0 127 127
0.350585 -0.023417 -0.305335 204 51 127
0.091189 -0.056002 0.080240 204 51 127
-0.397829 -0.232552 0.560912 0 127 127
0.062654 0.004424 0.501828 204 51 127
0.383131 -0.156916 -0.161388 76 153 0
-0.340676 -0.056002 0.112494 204 51 127
-0.355623 -0.760970 0.503789 0 127 127
0.327281 -0.475157 0.242507 153 76 0
-0.321176 0.753752 -0.285574 76 0 153
-0.166714 -0.056002 0.492136 204 51 127
-0.397829 -0.068959 -0.176189 204 51 127
0.328865 -0.056002 -0.218417 204 51 127
0.118283 0.788575 -0.313870 76 0 153
-0.332511 -0.096318 -0.158206 76 0 153
0.197048 0.500270 -0.351653 76 153 0
0.407849 -0.754567 -0.184023 76 153 0
-0.317261 -0.411444 0.520075 0 127 127
-0.184156 0.894110 -0.290244 76 0 153
0.281246 0.894110 -0.258633 76 0 153
-0.333930 -0.727560 0.483154 0 127 127
0.407849 -0.562048 -0.169995 76 153 0
-0.331024 -0.091916 0.563722 0 127 127
0.076086 0.784256 -0.449307 76 0 153
-0.127885 -0.056002 -0.219689 204 51 127
-0.036820 -0.056002 -0.089120 204 51 127
0.140074 0.804198 -0.337712 76 0 153
-0.171222 0.675629 -0.326189 127 0 127
-0.343458 0.894110 -0.310201 76 0 153
-0.317261 -0.469814 0.334445 76 0 153
0.298760 0.004424 0.523556 204 51 127
-0.020223 0.068973 -0.397847 0 127 127
0.056879 0.004424 0.195366 204 51 127
0.236870 -0.056002 -0.366054 204 51 127
-0.383691 -0.435473 0.563722 0 127 127
-0.180621 0.457272 -0.368515 127 0 127
0.327281 -0.388102 0.553920 153 0 76
-0.038293 -0.056002 0.486935 204 51 127
0.352860 0.732974 -0.280301 76 0 153
0.407849 -0.133489 0.528653 153 0 76
-0.114396 0.004424 0.374177 204 51 127
-0.297619 -0.056002 0.368414 204 51 127
-0.129169 0.467943 -0.366455 127 0 127
-0.332037 0.855236 -0.187730 76 0 153
0.112409 -0.056002 -0.385013 204 51 127
0.407849 -0.469725 0.050400 153 76 0
-0.050278 0.004424 0.069183 204 51 127
-0.325448 0.431669 -0.277972 127 127 0
0.352050 0.004424 0.343348 204 51 127
0.239137 -0.056002 0.228734 204 51 127
-0.186017 -0.056002 0.464979 204 51 127
0.034245 0.774747 -0.379251 76 0 153
0.008209 0.286218 -0.350774 0 127 127
-0.301058 -0.056002 0.058728 204 51 127
0.286198 0.217913 -0.291178 153 0 76
0.407849 -0.486699 0.321939 153 76 0
-0.127734 0.004424 0.217082 204 51 127
0.051378 0.004424 -0.433032 204 51 127
-0.092345 0.800000 -0.323961 76 0 153
0.382965 -0.408486 0.398460 153 76 0
-0.326174 -0.409483 0.302810 76 0 153
0.305338 -0.056002 0.139655 204 51 127
-0.164648 0.416275 -0.380610 127 0 127
-0.317261 -0.105476 -0.221285 76 0 153
0.170097 0.004424 -0.155976 204 51 127
0.407849 -0.467537 0.108872 153 76 0
0.407849 -0.380605 0.514652 153 0 76
-0.349743 -0.507601 -0.158206 76 0 153
0.198060 0.817468 -0.275072 76 0 153
0.407849 -0.500974 -0.236320 76 153 0
-0.011772 0.852726 -0.334616 76 0 153
0.156451 0.303451 -0.379352 76 153 0
0.129233 0.874825 -0.309416 76 0 153
0.210766 0.004424 -0.390594 204 51 127
-0.019478 0.004424 -0.213680 204 51 127
-0.349092 -0.007218 -0.297436 204 51 127
-0.058800 0.004424 0.254390 204 51 127
0.015126 -0.056002 0.403587 204 51 127
0.347134 -0.486026 0.563722 153 0 76
0.201297 0.890463 -0.410568 76 0 153
-0.397829 -0.444788 0.190656 76 0 153
0.256742 0.004424 -0.301563 204 51 127
-0.267715 0.744426 -0.263667 76 0 153
0.168048 -0.037161 0.563722 204 51 127
-0.317261 -0.421078 -0.156601 76 0 153
-0.397829 -0.021263 0.487447 204 51 127
-0.380118 -0.409483 -0.022000 76 0 153
0.138282 0.691969 -0.360465 76 153 0
0.401911 -0.556865 0.563722 153 0 76
-0.229504 0.004424 0.481955 204 51 127
0.248771 0.004424 0.226895 204 51 127
0.401699 -0.056002 0.004728 204 51 127
0.388234 -0.324267 -0.241956 76 153 0
0.182003 0.274013 -0.325094 76 153 0
0.226306 -0.056002 0.099479 204 51 127
-0.378070 -0.317626 -0.158206 76 0 153
0.137072 0.221201 -0.354267 76 153 0
-0.286836 0.465801 -0.239261 127 127 0
0.285625 -0.056002 0.541907 204 51 127
-0.098850 0.004424 -0.302498 204 51 127
0.387779 -0.116794 -0.161388 76 153 0
0.327281 -0.267835 -0.224671 76 153 0
0.150694 0.404075 -0.325922 76 153 0
-0.254769 0.004424 0.085585 204 51 127
0.033845 0.044915 -0.376210 0 127 127
0.327923 0.043897 -0.290036 153 0 76
0.252901 0.760406 -0.233486 76 0 153
0.327281 -0.491457 0.502898 153 0 76
-0.147911 0.004424 -0.113213 204 51 127
-0.267555 0.412289 -0.264886 127 127 0
0.327281 -0.442175 0.445399 153 76 0
-0.195902 -0.056002 -0.216590 204 51 127
0.327281 -0.316886 0.508586 153 0 76
-0.397829 -0.120555 0.512157 0 127 127
0.140979 0.894110 -0.380858 76 0 153
0.061660 0.732974 -0.329015 76 0 153
-0.305282 0.400425 -0.238107 127 127 0
0.174214 0.407358 -0.322004 76 153 0
-0.316107 0.198939 -0.243843 127 127 0
0.045538 0.824648 -0.452341 76 0 153
0.031548 0.749909 -0.392687 76 0 153
0.315086 0.004424 0.543862 204 51 127
0.392071 -0.408486 0.251302 153 76 0
0.368411 -0.514384 0.563722 153 0 76
-0.366370 -0.012461 0.563722 204 51 127
-0.390701 0.781234 -0.239263 76 0 153
-0.208521 0.004424 0.090356 204 51 127
-0.226752 -0.056002 0.435926 204 51 127
-0.265048 -0.056002 -0.334244 204 51 127
-0.210125 -0.056002 -0.056218 204 51 127
-0.181923 0.570976 -0.366621 127 0 127
-0.261479 0.004424 0.166523 204 51 127
0.372538 0.004424 0.560278 204 51 127
-0.319798 0.812024 -0.287369 76 0 153
-0.022334 0.336604 -0.366220 0 127 127
-0.105273 0.894110 -0.323747 76 0 153
-0.128862 -0.056002 0.212985 204 51 127
0.324085 0.666861 -0.293077 153 0 76
0.195709 0.004424 -0.136440 204 51 127
-0.038762 0.004424 -0.109303 204 51 127
-0.206788 0.851607 -0.412928 76 0 153
-0.271660 0.570482 -0.282879 127 127 0
-0.149178 0.732974 -0.374830 76 0 153
-0.246632 0.004424 -0.363754 204 51 127
-0.183182 0.259493 -0.363581 127 0 127
0.097695 -0.056002 0.183925 204 51 127
0.177288 0.004424 0.254771 204 51 127
0.327281 -0.096147 -0.176694 76 153 0
0.345021 0.862600 -0.209054 76 0 153
-0.155832 0.178804 -0.382123 127 0 127
-0.274870 0.219898 -0.287062 127 127 0
-0.296762 0.132613 -0.297408 127 127 0
0.030661 0.352845 -0.366088 0 127 127
-0.020344 0.004424 0.524253 204 51 127
-0.009028 -0.056002 0.295929 204 51 127
-0.343742 0.004424 -0.006368 204 51 127
-0.033823 -0.056002 -0.356696 204 51 127
-0.357134 -0.056002 0.064482 204 51 127
0.282497 -0.007090 -0.358802 204 51 127
-0.397829 -0.547826 -0.178880 76 0 153
-0.184824 0.388036 -0.344583 127 0 127
-0.397829 -0.004161 0.364062 204 51 127
-0.162124 0.004424 0.359045 204 51 127
0.407849 -0.587778 -0.203784 76 153 0
