ply
format ascii 1.0
element vertex 1276
property float x
property float y
property float z
property uchar red
property uchar green
property uchar blue
end_header
-0.151896 0.839284 -0.297280 76 0 153
0.019018 -0.345688 -0.270737 76 0 153
0.205423 -0.408199 -0.255241 76 0 153
-0.069705 0.529014 -0.161522 76 0 153
-0.089411 -0.244686 -0.352108 0 255 0
-0.176153 -0.245807 0.612365 255 0 0
0.258977 -0.381742 0.317027 76 153 0
0.106393 -0.208189 -0.375742 0 255 0
0.118516 0.049205 -0.255050 76 0 153
0.308871 -0.731596 0.514770 0 127 127
-0.421252 -0.138959 0.230727 255 0 0
-0.197026 0.373412 0.081551 76 0 153
-0.516256 0.272274 0.065406 76 0 153
0.392397 -0.400057 0.306688 76 153 0
-0.304702 -0.362986 0.329733 76 153 0
-0.158268 -0.227253 -0.358076 0 255 0
0.359437 -0.138770 0.159855 255 0 0
0.477430 0.816984 -0.194293 76 0 153
-0.135028 -0.480202 -0.239229 76 0 153
0.073745 0.415587 -0.122143 76 0 153
0.349399 -0.154776 0.668385 255 0 0
0.168048 -0.095829 -0.358874 0 255 0
0.159976 -0.363567 -0.257125 76 0 153
0.160188 0.428386 -0.124164 76 0 153
0.549090 0.188543 -0.070610 76 0 153
-0.122054 0.187137 0.040822 76 0 153
0.540031 -0.089059 -0.145528 76 0 153
0.246642 0.421157 -0.123023 76 0 153
-0.201924 0.544899 -0.171413 76 0 153
0.272937 0.491980 -0.142031 76 0 153
0.384696 -0.453470 0.279742 76 153 0
-0.211036 -0.107100 -0.051155 255 0 0
0.340733 -0.710248 0.356953 0 127 127
0.247604 0.509507 0.064454 76 0 153
-0.428332 -0.532404 -0.248252 76 0 153
-0.450335 -0.086366 -0.262949 76 0 153
0.549090 0.114851 -0.104809 76 0 153
-0.055911 -0.109755 0.628147 255 0 0
0.046269 -0.103242 -0.092745 255 0 0
-0.313857 -0.562356 -0.251717 76 0 153
-0.156715 0.748472 -0.310051 76 0 153
0.338798 -0.003499 -0.277203 76 0 153
-0.305348 0.385844 -0.119830 76 0 153
0.178515 -0.097630 -0.083667 255 0 0
0.121545 -0.125073 0.408196 255 0 0
-0.434212 -0.098836 -0.338623 76 0 153
0.472182 0.674266 -0.015296 76 0 153
0.253806 -0.238237 0.630500 255 0 0
-0.296603 -0.738168 0.445865 0 127 127
-0.342029 -0.291617 0.394145 76 153 0
0.312098 -0.651144 0.318540 76 153 0
0.407932 -0.087198 -0.284910 76 0 153
-0.249165 -0.552260 -0.242418 76 0 153
-0.024270 -0.231650 0.626005 255 0 0
-0.433883 -0.110156 0.629020 255 0 0
0.348873 0.059925 -0.040943 76 0 153
0.092062 0.798785 -0.160629 76 0 153
0.153214 0.617851 0.020843 76 0 153
0.397676 0.530670 0.057777 76 0 153
-0.351389 -0.147168 0.202343 255 0 0
0.170141 -0.673414 0.333697 76 153 0
-0.079922 0.476592 0.072783 76 0 153
-0.132698 -0.079979 -0.333462 76 0 153
-0.027087 0.068149 -0.033559 76 0 153
-0.304693 -0.691563 -0.292780 76 0 153
-0.043391 -0.295681 0.404177 76 153 0
-0.361757 -0.086292 -0.222994 76 0 153
-0.355175 0.643208 -0.289389 76 0 153
0.353201 0.756839 -0.310051 76 0 153
-0.090025 -0.146710 0.167696 255 0 0
-0.183951 -0.529466 -0.248112 76 0 153
0.192855 -0.724118 -0.341110 153 0 76
-0.534594 0.651596 -0.032987 76 0 153
-0.016778 -0.060090 -0.160280 76 0 153
0.036011 -0.461129 -0.248141 76 0 153
0.413918 0.537708 -0.166673 76 0 153
0.268424 0.744826 -0.310051 76 0 153
0.197817 -0.094211 0.543173 255 0 0
0.137578 0.116878 0.001603 76 0 153
-0.448729 0.245611 0.061085 76 0 153
0.264780 -0.225240 -0.359309 0 255 0
-0.252358 -0.086941 -0.192891 76 0 153
-0.463110 0.628682 -0.263957 76 0 153
0.359520 -0.644771 -0.262583 76 0 153
0.026416 0.778322 -0.310051 76 0 153
-0.420758 -0.735180 -0.317269 153 0 76
-0.003187 -0.128706 0.341782 255 0 0
0.089245 0.123936 -0.223628 76 0 153
-0.094185 -0.114864 0.418466 255 0 0
-0.308955 -0.097266 0.592088 255 0 0
-0.421003 0.663523 -0.008162 76 0 153
-0.346756 -0.136281 0.660119 255 0 0
-0.270678 -0.500583 -0.238709 76 0 153
0.216066 -0.136097 0.117154 255 0 0
0.144786 0.634353 -0.273780 76 0 153
0.327719 -0.139415 0.185143 255 0 0
0.349581 0.492048 0.069345 76 0 153
-0.137252 -0.738337 -0.347384 153 0 76
-0.309664 0.106661 -0.005294 76 0 153
-0.486718 -0.435071 0.284565 76 153 0
-0.247836 0.476216 -0.135843 76 0 153
-0.229796 -0.144579 0.271038 255 0 0
0.293517 -0.271088 0.437637 76 153 0
0.440440 -0.085923 0.527272 255 0 0
0.515417 -0.300889 -0.279832 76 0 153
-0.373616 -0.261956 0.469421 76 153 0
0.549087 0.049145 -0.134074 76 0 153
0.529871 0.534759 0.052905 76 0 153
-0.037814 0.007972 -0.096438 76 0 153
-0.428679 -0.093062 -0.136299 255 0 0
0.444001 -0.303430 -0.278678 76 0 153
-0.423130 0.551028 0.050910 76 0 153
0.224242 0.678929 -0.308608 76 0 153
-0.391253 0.122151 0.004504 76 0 153
0.414370 -0.136550 0.344215 255 0 0
-0.389737 0.042165 -0.059489 76 0 153
0.540399 -0.167057 0.679638 255 0 0
0.214453 -0.313917 0.364441 76 153 0
0.280997 -0.267621 -0.313928 76 0 153
-0.528660 0.412964 -0.113453 76 0 153
-0.375745 -0.136482 0.126074 255 0 0
0.031088 0.739964 -0.077369 76 0 153
0.326156 -0.087074 -0.283354 76 0 153
0.143045 0.724441 -0.060884 76 0 153
-0.535900 0.376968 0.025876 76 0 153
-0.032877 -0.381492 0.308295 76 153 0
0.119882 -0.730944 0.480537 0 127 127
-0.138959 -0.086292 -0.225219 76 0 153
-0.459766 0.798594 -0.160729 76 0 153
0.254210 -0.047104 -0.299957 76 0 153
-0.250613 -0.703890 0.364332 0 127 127
0.102583 -0.124878 -0.010357 255 0 0
-0.113120 0.336396 -0.121779 76 0 153
0.326956 -0.729101 -0.306838 153 0 76
0.273052 -0.145024 0.264017 255 0 0
-0.479001 -0.274864 -0.291947 76 0 153
-0.371162 0.055071 -0.252586 76 0 153
-0.436504 0.490780 -0.141534 76 0 153
-0.222172 -0.266873 0.484692 76 153 0
0.351201 0.661875 -0.007091 76 0 153
-0.491396 -0.118391 -0.038830 255 0 0
0.187576 0.232662 -0.155011 76 0 153
-0.013848 -0.258027 0.485788 76 153 0
0.448592 -0.726252 -0.302209 153 0 76
-0.321688 0.758739 -0.098665 76 0 153
0.404122 -0.117427 -0.010344 255 0 0
-0.321938 0.703467 -0.039695 76 0 153
-0.475530 0.093367 -0.014161 76 0 153
-0.106286 -0.266904 0.450379 76 153 0
0.154969 0.462731 0.074738 76 0 153
-0.002479 0.839918 -0.294209 76 0 153
-0.053523 -0.114695 -0.362466 76 0 153
0.096385 -0.251200 0.548766 76 153 0
-0.077981 -0.134033 0.098077 255 0 0
-0.213985 -0.114199 -0.379829 0 255 0
-0.357000 -0.259752 0.539937 255 0 0
0.282495 -0.188927 0.683155 255 0 0
0.250334 -0.096419 -0.120349 255 0 0
-0.155257 -0.711331 -0.314251 153 0 76
-0.323829 0.417848 0.080192 76 0 153
0.196157 0.466569 -0.132105 76 0 153
0.391187 -0.086293 -0.239168 76 0 153
0.303448 0.165725 0.031089 76 0 153
0.461689 -0.071699 -0.321351 76 0 153
0.118169 0.836174 -0.300615 76 0 153
-0.069564 -0.735808 0.413484 0 127 127
0.313884 0.711098 -0.046892 76 0 153
0.478157 0.084745 -0.020114 76 0 153
-0.252295 -0.273538 0.457430 76 153 0
0.330429 -0.237306 -0.365440 0 255 0
0.192001 -0.110209 0.466738 255 0 0
0.193585 -0.416052 0.291371 76 153 0
0.377478 0.814610 -0.189255 76 0 153
-0.535910 0.431195 -0.020852 76 0 153
0.184727 -0.122622 -0.021090 255 0 0
0.392424 -0.067191 -0.317214 76 0 153
-0.130166 -0.095340 0.527652 255 0 0
-0.210560 -0.715570 -0.322790 153 0 76
-0.112332 0.116125 0.000693 76 0 153
-0.342972 0.732161 -0.068986 76 0 153
-0.400150 -0.301664 0.395008 76 153 0
-0.026146 -0.095664 0.523225 255 0 0
-0.532983 0.490142 0.043202 76 0 153
0.333918 -0.236687 0.633539 255 0 0
0.154388 -0.094551 0.538506 255 0 0
0.417891 -0.105692 -0.084618 255 0 0
0.510278 -0.737756 -0.339405 153 0 76
-0.388343 -0.112395 0.429236 255 0 0
0.442517 0.604892 -0.228365 76 0 153
-0.362890 -0.729034 -0.365314 153 0 76
-0.535910 0.565168 -0.053610 76 0 153
-0.437991 -0.105350 -0.085750 255 0 0
0.313329 0.738226 -0.310051 76 0 153
-0.415614 -0.654205 0.310667 76 153 0
-0.259919 0.325851 0.077607 76 0 153
-0.337175 -0.217668 0.662837 255 0 0
-0.482249 -0.254254 0.582119 255 0 0
0.182068 -0.692963 -0.294413 76 0 153
-0.380714 -0.091376 0.504675 255 0 0
-0.532230 0.170893 -0.183542 76 0 153
-0.299267 -0.259168 0.482139 76 153 0
-0.033118 -0.087905 -0.293759 76 0 153
-0.451172 -0.143957 0.118374 255 0 0
0.156196 -0.407923 0.303472 76 153 0
0.061328 0.606957 -0.231075 76 0 153
-0.349376 -0.134311 0.296437 255 0 0
0.137837 0.610154 -0.235272 76 0 153
-0.421852 -0.132363 0.316365 255 0 0
0.484641 0.369871 0.081500 76 0 153
0.367115 -0.094225 0.542974 255 0 0
-0.406075 -0.318630 -0.280499 76 0 153
-0.110987 0.738988 -0.076500 76 0 153
0.548847 0.772041 -0.193570 76 0 153
-0.206925 -0.676795 -0.274077 76 0 153
-0.309575 -0.464681 -0.247830 76 0 153
0.471423 0.021091 -0.081717 76 0 153
-0.021885 -0.624139 -0.256502 76 0 153
0.196373 0.276497 0.069777 76 0 153
0.502072 -0.126322 0.361773 255 0 0
-0.184969 0.154892 -0.208745 76 0 153
0.004012 0.195293 0.043851 76 0 153
0.019816 -0.682172 -0.276348 76 0 153
0.157336 -0.347966 0.331144 76 153 0
-0.535899 0.486040 -0.066524 76 0 153
0.094234 -0.733292 0.534140 0 127 127
-0.365024 -0.410899 -0.254747 76 0 153
-0.095897 -0.479253 -0.247395 76 0 153
0.537586 -0.250967 -0.324005 0 255 0
-0.314696 0.089345 -0.238193 76 0 153
-0.026912 0.820812 -0.203743 76 0 153
-0.294756 -0.252773 0.535649 76 153 0
0.399377 -0.726265 -0.350791 153 0 76
0.363966 0.732122 -0.069378 76 0 153
-0.438000 -0.382340 -0.252318 76 0 153
-0.435447 0.178383 0.036723 76 0 153
0.134457 0.828728 -0.225434 76 0 153
0.460545 -0.093808 -0.131418 255 0 0
0.512589 0.799002 -0.160840 76 0 153
-0.194503 -0.085295 0.577957 255 0 0
0.528348 -0.006649 -0.118683 76 0 153
0.430226 -0.730444 0.450990 0 127 127
0.046259 0.532391 0.057528 76 0 153
-0.110636 0.768992 -0.310051 76 0 153
-0.463001 -0.137368 0.262433 255 0 0
0.041615 -0.094601 0.537782 255 0 0
-0.282577 -0.011624 -0.123480 76 0 153
-0.269174 -0.100920 0.470142 255 0 0
-0.205338 -0.127687 0.654105 255 0 0
0.282873 -0.146338 0.158404 255 0 0
0.548831 -0.004326 -0.237229 76 0 153
-0.205047 0.757078 -0.096404 76 0 153
0.384795 -0.252068 0.542022 76 153 0
0.227560 0.811562 -0.183510 76 0 153
-0.435826 0.484001 0.071821 76 0 153
0.145765 0.324263 0.077841 76 0 153
-0.406651 -0.621283 -0.263810 76 0 153
-0.220445 0.020653 -0.267040 76 0 153
-0.535880 0.614745 -0.143627 76 0 153
0.240610 -0.431626 0.294129 76 153 0
0.448517 -0.350647 0.339428 76 153 0
-0.492937 -0.073266 -0.321929 76 0 153
0.398801 0.194984 -0.179880 76 0 153
-0.225998 -0.245581 0.581981 76 153 0
0.150834 -0.138739 0.227206 255 0 0
0.072473 0.633041 -0.271468 76 0 153
0.348219 -0.424283 -0.244187 76 0 153
-0.361041 -0.091803 -0.351985 0 255 0
-0.183774 0.797541 -0.309898 76 0 153
-0.441421 0.593068 0.033979 76 0 153
-0.036540 0.322994 0.077582 76 0 153
0.497650 -0.183235 -0.395405 0 255 0
-0.375474 0.402900 -0.120486 76 0 153
0.434164 -0.008895 -0.279487 76 0 153
0.242611 -0.289068 0.416115 76 153 0
0.026938 -0.726851 0.416819 0 127 127
0.009763 -0.733232 -0.395072 153 0 76
-0.170002 0.823970 -0.211989 76 0 153
0.102074 -0.691679 -0.292718 76 0 153
0.234237 0.003804 -0.101471 76 0 153
-0.128905 -0.683862 0.332616 76 153 0
-0.428306 -0.731532 -0.380486 153 0 76
0.143343 -0.135007 0.106598 255 0 0
0.102591 -0.086290 -0.208581 76 0 153
0.367689 -0.115060 -0.051868 255 0 0
-0.009450 -0.704884 0.365781 0 127 127
-0.154387 0.773532 -0.119390 76 0 153
-0.407388 0.219889 -0.162657 76 0 153
0.009382 0.037229 -0.064691 76 0 153
-0.125285 -0.320214 0.357976 76 153 0
-0.278007 0.123888 0.005601 76 0 153
0.129310 0.185396 -0.187212 76 0 153
0.226013 -0.086293 -0.236970 76 0 153
0.341146 -0.309596 0.383787 76 153 0
-0.535902 0.720050 -0.171798 76 0 153
0.479097 -0.137417 0.134003 255 0 0
-0.097139 0.637482 0.009168 76 0 153
0.404642 -0.279753 0.416560 76 153 0
0.107552 -0.096301 -0.088039 255 0 0
0.495252 -0.000410 -0.275870 76 0 153
0.513911 -0.497416 0.280381 76 153 0
0.045724 -0.245114 0.584255 76 153 0
-0.181082 0.517367 -0.154620 76 0 153
0.110477 -0.558298 0.276158 76 153 0
-0.263559 0.012979 -0.090397 76 0 153
0.085494 -0.407362 0.303883 76 153 0
-0.082089 -0.200758 0.662098 255 0 0
0.499706 -0.206062 0.658537 255 0 0
-0.362748 -0.517871 0.280748 76 153 0
-0.535890 0.531551 -0.025744 76 0 153
0.257794 -0.738085 -0.375727 153 0 76
-0.133101 -0.731216 0.503668 0 127 127
-0.062192 -0.085235 0.577525 255 0 0
0.432026 -0.244879 -0.329517 76 0 153
0.291430 -0.088183 -0.297270 76 0 153
0.343063 -0.144213 0.276812 255 0 0
0.529181 -0.140775 0.194943 255 0 0
0.416375 -0.245784 0.612436 255 0 0
-0.290503 0.771104 -0.310051 76 0 153
-0.010697 -0.086292 -0.224861 76 0 153
-0.377064 -0.709396 -0.310354 153 0 76
0.112140 -0.627184 0.305561 76 153 0
0.366897 -0.080871 -0.139358 255 0 0
0.245665 0.605046 0.028258 76 0 153
0.536796 0.244655 0.055519 76 0 153
-0.413688 0.259844 0.065242 76 0 153
-0.147705 -0.255259 0.506965 76 153 0
0.174924 0.142468 0.017722 76 0 153
-0.064250 -0.268380 -0.313177 76 0 153
0.073121 -0.087371 -0.184978 76 0 153
0.126682 -0.053966 -0.304827 76 0 153
-0.096243 -0.634259 0.300367 76 153 0
-0.526017 -0.134300 0.320646 255 0 0
-0.282942 -0.182979 0.672267 255 0 0
-0.415689 0.806697 -0.309758 76 0 153
-0.185963 -0.305304 0.389875 76 153 0
-0.300834 -0.088782 -0.309417 76 0 153
0.480689 -0.002139 -0.109312 76 0 153
-0.096589 -0.174196 0.687140 255 0 0
0.505397 -0.060234 -0.155131 76 0 153
0.284636 -0.309103 0.384486 76 153 0
0.155726 -0.280185 0.415592 76 153 0
0.112255 -0.304540 0.390956 76 153 0
-0.129231 -0.738152 0.445028 0 127 127
-0.126552 0.151551 -0.210665 76 0 153
0.276035 0.652471 -0.297583 76 0 153
0.352444 -0.087217 -0.187817 76 0 153
0.072444 -0.048738 -0.300938 76 0 153
0.549069 0.423378 -0.066676 76 0 153
0.081522 -0.137506 0.256424 255 0 0
0.122700 -0.485641 0.274492 76 153 0
-0.455289 0.418173 -0.122552 76 0 153
-0.497945 -0.142231 0.101325 255 0 0
-0.266496 -0.698180 -0.283828 76 0 153
0.030293 -0.515236 -0.239370 76 0 153
0.063559 0.614768 0.022649 76 0 153
-0.480149 -0.137365 0.060122 255 0 0
-0.499872 -0.139911 0.183686 255 0 0
-0.027238 -0.554538 -0.250717 76 0 153
0.436179 0.829743 -0.229220 76 0 153
0.548988 0.569588 -0.018586 76 0 153
-0.522941 -0.721343 0.393069 0 127 127
0.222548 0.780500 -0.129832 76 0 153
0.536709 -0.555950 -0.244665 76 0 153
0.253505 0.072380 -0.029937 76 0 153
-0.363711 -0.732214 0.395340 0 127 127
0.224900 -0.647977 -0.271786 76 0 153
-0.023831 0.697206 -0.309978 76 0 153
-0.289595 -0.531885 0.272989 76 153 0
-0.365287 -0.651844 -0.273093 76 0 153
-0.291213 -0.123672 -0.385195 0 255 0
-0.337056 0.281633 -0.133844 76 0 153
0.215585 -0.273994 -0.307620 76 0 153
0.444378 0.449439 0.076426 76 0 153
0.147190 -0.704703 -0.305778 76 0 153
0.196178 -0.738320 0.496776 0 127 127
-0.132707 -0.709965 0.374409 0 127 127
0.336836 0.551760 -0.176418 76 0 153
0.486750 0.212419 0.050015 76 0 153
0.207108 0.124224 0.006377 76 0 153
0.495568 -0.127131 0.041821 255 0 0
-0.104802 -0.235972 0.634860 255 0 0
-0.443953 -0.133800 0.036469 255 0 0
-0.358815 -0.088120 -0.298635 76 0 153
-0.021609 -0.718550 -0.328074 153 0 76
0.217538 -0.144319 0.275140 255 0 0
-0.260995 -0.093076 0.561503 255 0 0
-0.156314 -0.645766 -0.271040 76 0 153
0.247918 -0.138112 0.332561 255 0 0
0.521695 0.330087 -0.122351 76 0 153
-0.445971 -0.269262 0.444392 76 153 0
-0.034328 -0.472956 -0.247583 76 0 153
0.464631 -0.255375 0.507247 76 153 0
0.545398 0.444994 -0.105810 76 0 153
0.181132 0.841105 -0.287665 76 0 153
0.031144 -0.728682 -0.362914 153 0 76
0.262069 -0.293389 -0.292292 76 0 153
-0.490517 -0.136499 0.343735 255 0 0
-0.355385 -0.008984 -0.119521 76 0 153
-0.180336 -0.395013 0.301405 76 153 0
-0.243819 0.189468 0.041601 76 0 153
0.314183 0.618494 -0.247180 76 0 153
-0.003252 -0.054257 -0.305100 76 0 153
0.304469 -0.714699 0.362166 0 127 127
0.355168 -0.369322 -0.255434 76 0 153
0.152006 -0.510421 -0.239152 76 0 153
-0.493520 -0.579718 -0.246739 76 0 153
-0.332245 -0.128866 0.342256 255 0 0
0.294087 0.403074 -0.120492 76 0 153
-0.101387 -0.138243 0.242429 255 0 0
0.400011 -0.116357 0.412397 255 0 0
0.521786 -0.092250 -0.350512 0 255 0
-0.152777 0.687379 -0.025319 76 0 153
0.448770 -0.086330 -0.251434 76 0 153
-0.348232 0.148736 0.021302 76 0 153
-0.237875 -0.604891 0.287894 76 153 0
0.490049 -0.119190 0.658247 255 0 0
-0.276192 -0.104812 0.634673 255 0 0
-0.535591 0.057793 -0.229989 76 0 153
-0.378348 -0.117004 -0.012579 255 0 0
0.497451 -0.404550 0.296620 76 153 0
0.000132 0.395026 -0.120183 76 0 153
0.391205 0.721163 -0.310051 76 0 153
0.004734 -0.688369 0.336472 76 153 0
0.219153 -0.093631 0.494586 255 0 0
-0.353024 -0.101449 -0.071153 255 0 0
0.079759 -0.290565 0.413412 76 153 0
0.317404 -0.025007 -0.146492 76 0 153
-0.534991 -0.064596 -0.244465 76 0 153
-0.461301 -0.384160 0.315650 76 153 0
-0.323298 0.011528 -0.270874 76 0 153
0.190936 -0.662363 -0.276788 76 0 153
0.301218 -0.579074 0.287159 76 153 0
-0.144270 -0.132943 0.309335 255 0 0
0.498297 -0.532151 0.280090 76 153 0
-0.505115 -0.688689 -0.289466 76 0 153
-0.276318 0.187036 -0.185955 76 0 153
-0.057329 -0.086292 -0.229087 76 0 153
-0.259849 -0.446289 0.281342 76 153 0
0.340236 -0.091357 -0.317225 76 0 153
-0.334566 -0.084664 0.539280 255 0 0
-0.233742 0.646730 -0.292652 76 0 153
-0.252914 0.132836 -0.219781 76 0 153
-0.393254 -0.551446 -0.250322 76 0 153
0.246111 -0.107287 -0.353283 76 0 153
0.429325 -0.503506 0.272889 76 153 0
0.281479 -0.726162 -0.350105 153 0 76
-0.320283 0.070651 -0.031432 76 0 153
-0.511078 -0.167614 0.671631 255 0 0
0.321918 0.533218 0.056973 76 0 153
-0.226852 0.476582 0.072785 76 0 153
0.290112 -0.331488 -0.275373 76 0 153
0.404274 -0.213717 0.666589 255 0 0
0.457379 -0.021198 -0.139929 76 0 153
-0.230469 0.745802 -0.310051 76 0 153
0.088274 -0.253578 0.585780 255 0 0
-0.015208 -0.145902 0.147485 255 0 0
-0.148741 -0.034760 -0.153695 76 0 153
-0.172844 -0.261018 -0.301099 76 0 153
-0.397587 0.085084 -0.239982 76 0 153
-0.213954 0.797111 -0.158078 76 0 153
0.119397 0.196396 0.044261 76 0 153
0.296342 0.825199 -0.213994 76 0 153
0.030376 -0.260919 0.525691 255 0 0
0.449749 0.624898 -0.257725 76 0 153
-0.270026 0.832166 -0.237151 76 0 153
-0.249827 -0.651727 0.309180 76 153 0
0.129558 0.226435 -0.158433 76 0 153
-0.318829 0.830174 -0.304041 76 0 153
-0.257768 -0.638504 -0.268588 76 0 153
0.367394 -0.728022 0.428512 0 127 127
-0.339974 0.660160 -0.005393 76 0 153
-0.314218 -0.332276 -0.266993 76 0 153
-0.128566 -0.248574 0.567392 76 153 0
-0.376998 0.763710 -0.310051 76 0 153
-0.396239 -0.737807 0.427270 0 127 127
-0.108814 -0.090163 -0.155280 255 0 0
-0.056974 0.228881 0.056025 76 0 153
-0.473447 -0.649261 -0.264011 76 0 153
-0.367258 -0.675929 0.336088 76 153 0
-0.360487 -0.516273 -0.239416 76 0 153
0.507273 0.778971 -0.126966 76 0 153
0.430314 -0.276407 0.447579 76 153 0
-0.249547 -0.237484 -0.345392 76 0 153
-0.269672 -0.138921 0.169474 255 0 0
0.194084 -0.510536 0.272914 76 153 0
-0.130855 0.791932 -0.149181 76 0 153
-0.429615 -0.231762 0.626612 255 0 0
0.104231 -0.098808 -0.363754 0 255 0
-0.114930 -0.611130 -0.253507 76 0 153
-0.305312 -0.642373 0.313273 76 153 0
0.495856 0.105462 -0.231393 76 0 153
-0.494595 0.602191 -0.224733 76 0 153
0.255215 -0.059537 -0.160404 76 0 153
0.402136 0.591480 -0.212686 76 0 153
-0.303432 -0.731490 0.392312 0 127 127
0.431343 0.211738 -0.167995 76 0 153
0.075271 -0.025641 -0.147575 76 0 153
0.177562 -0.543228 0.281336 76 153 0
-0.114103 0.837601 -0.256616 76 0 153
-0.404162 -0.013794 -0.281559 76 0 153
0.314219 0.701263 -0.309992 76 0 153
0.548964 0.224707 0.011454 76 0 153
0.056920 0.235053 -0.153721 76 0 153
0.492138 0.531637 -0.163014 76 0 153
-0.348616 0.699836 -0.309987 76 0 153
-0.289787 -0.428233 -0.243528 76 0 153
-0.535909 0.675960 -0.171225 76 0 153
0.434610 -0.151002 -0.385562 0 255 0
-0.072945 0.714146 -0.310038 76 0 153
-0.160898 0.649851 0.001362 76 0 153
0.152935 -0.196990 -0.380976 0 255 0
0.111018 -0.243911 0.618063 255 0 0
-0.156896 0.727288 -0.064022 76 0 153
0.108089 0.352090 -0.120553 76 0 153
0.493437 0.742348 -0.310051 76 0 153
-0.205217 -0.704205 0.364864 0 127 127
-0.046811 0.562847 -0.184559 76 0 153
-0.038618 -0.729247 -0.364660 153 0 76
-0.535649 0.086745 -0.208422 76 0 153
-0.058389 -0.266092 0.452799 76 153 0
-0.395640 -0.624993 0.296139 76 153 0
-0.033252 -0.098190 -0.336794 76 0 153
-0.039123 -0.131825 0.372242 255 0 0
-0.108518 -0.006601 -0.115931 76 0 153
0.495497 0.815322 -0.309612 76 0 153
-0.271589 0.234948 0.057866 76 0 153
0.549089 0.354466 -0.058452 76 0 153
-0.254065 0.549196 0.051722 76 0 153
0.423757 -0.579387 0.280046 76 153 0
0.406630 -0.700729 0.347333 0 127 127
-0.535910 0.186534 -0.056386 76 0 153
-0.316514 -0.722423 -0.336595 153 0 76
0.344310 -0.130946 0.071194 255 0 0
0.324862 0.391470 0.081469 76 0 153
0.112891 -0.737869 -0.339010 153 0 76
-0.006968 0.613446 -0.239592 76 0 153
0.549090 0.519910 -0.057451 76 0 153
0.316433 -0.113119 -0.027889 255 0 0
0.393051 0.222428 0.053714 76 0 153
-0.243935 -0.325474 0.352398 76 153 0
-0.048044 -0.588847 -0.256346 76 0 153
0.447546 0.682349 -0.309343 76 0 153
-0.200345 -0.145211 0.135971 255 0 0
0.464185 -0.282620 -0.299081 76 0 153
0.463926 0.397911 -0.120295 76 0 153
-0.121804 0.612110 -0.237839 76 0 153
-0.203447 -0.599558 -0.250611 76 0 153
0.041384 -0.142157 0.298496 255 0 0
-0.535910 0.255687 -0.072625 76 0 153
0.377453 0.308840 0.075696 76 0 153
-0.493265 0.759704 -0.309867 76 0 153
-0.526067 -0.139719 0.264007 255 0 0
0.326206 -0.192358 -0.393058 0 255 0
-0.294066 -0.630046 -0.258064 76 0 153
-0.093075 0.030218 -0.072082 76 0 153
-0.470239 -0.530211 0.272982 76 153 0
0.148365 0.461026 -0.130817 76 0 153
0.205121 -0.256016 0.572836 255 0 0
-0.046188 0.750480 -0.089293 76 0 153
-0.311978 -0.113590 -0.026829 255 0 0
-0.405517 -0.130298 0.670230 255 0 0
0.178881 0.537590 0.055935 76 0 153
-0.192848 -0.097506 0.514927 255 0 0
0.074497 -0.629397 -0.265923 76 0 153
-0.304318 0.421566 -0.123087 76 0 153
0.043575 0.250165 0.062611 76 0 153
0.404968 0.565247 -0.186816 76 0 153
-0.343615 -0.180191 -0.386775 0 255 0
0.504128 -0.143367 -0.392495 0 255 0
0.361075 -0.170480 -0.395476 0 255 0
0.046160 -0.689406 0.337361 0 127 127
-0.273184 -0.309315 0.370227 76 153 0
0.477751 0.067123 -0.247522 76 0 153
-0.160326 -0.362041 -0.257667 76 0 153
0.216276 0.308403 0.075633 76 0 153
-0.484452 -0.219819 0.659877 255 0 0
-0.281384 0.616472 -0.243849 76 0 153
0.117990 -0.658147 -0.275219 76 0 153
-0.455085 -0.086360 -0.203568 76 0 153
-0.481846 -0.124487 0.664422 255 0 0
-0.535787 0.730510 -0.249444 76 0 153
-0.385007 0.838485 -0.259918 76 0 153
-0.449739 0.281745 -0.133812 76 0 153
-0.427684 0.363734 0.081276 76 0 153
-0.305035 -0.387935 0.305013 76 153 0
-0.101638 -0.028438 -0.288757 76 0 153
-0.026262 0.661349 -0.006344 76 0 153
0.325838 -0.627041 0.297009 76 153 0
-0.014605 0.476282 0.072957 76 0 153
-0.233838 -0.218988 0.645465 255 0 0
0.173096 0.401362 0.081259 76 0 153
0.408938 -0.387368 -0.259366 76 0 153
0.476978 -0.154401 0.671459 255 0 0
-0.288441 0.258727 -0.142216 76 0 153
0.548923 0.020192 -0.179016 76 0 153
0.040239 0.367070 -0.119384 76 0 153
-0.240384 0.408427 0.081067 76 0 153
-0.167297 -0.037368 -0.294115 76 0 153
0.470242 -0.272386 0.434569 76 153 0
0.535058 -0.271587 0.442292 76 153 0
-0.468032 -0.718173 -0.328026 153 0 76
0.103976 -0.159759 0.672062 255 0 0
-0.001188 -0.110515 -0.038286 255 0 0
-0.004427 0.219739 -0.162827 76 0 153
-0.130254 -0.191411 -0.383562 0 255 0
-0.385994 -0.185391 0.667888 255 0 0
-0.141883 0.215756 -0.165364 76 0 153
-0.061829 0.601599 -0.224043 76 0 153
-0.410960 0.151492 -0.210699 76 0 153
0.301233 -0.480039 -0.247371 76 0 153
0.298619 -0.134349 0.299240 255 0 0
0.202427 0.518892 -0.155524 76 0 153
0.400874 -0.083151 0.556567 255 0 0
-0.139672 -0.182382 0.672107 255 0 0
0.030496 0.642133 -0.287495 76 0 153
0.117431 0.743147 -0.310051 76 0 153
0.526150 -0.730806 0.392394 0 127 127
0.095754 -0.136334 0.124112 255 0 0
-0.406783 -0.110385 -0.356864 0 255 0
-0.065450 -0.703230 0.349535 0 127 127
0.069445 -0.090709 0.601518 255 0 0
-0.306420 0.350972 -0.120641 76 0 153
0.205957 -0.030958 -0.151144 76 0 153
-0.080653 0.396676 0.081555 76 0 153
-0.045706 -0.013289 -0.125980 76 0 153
0.480269 0.145614 0.019897 76 0 153
-0.216065 -0.086588 -0.277757 76 0 153
-0.037504 -0.155122 0.672018 255 0 0
0.196947 0.488835 0.069788 76 0 153
0.451909 -0.117400 0.408599 255 0 0
-0.535307 0.802189 -0.265073 76 0 153
-0.391711 -0.139091 0.170124 255 0 0
0.018963 -0.132345 0.672308 255 0 0
-0.090949 -0.383030 0.307511 76 153 0
-0.396882 -0.731178 0.499537 0 127 127
-0.202642 0.468150 -0.132676 76 0 153
0.191256 -0.291140 -0.284142 76 0 153
-0.285424 0.715521 -0.051674 76 0 153
0.346725 -0.128810 0.343433 255 0 0
-0.341619 -0.069710 -0.154913 255 0 0
0.227770 -0.366396 0.317575 76 153 0
0.114808 0.148299 0.021163 76 0 153
-0.083013 -0.580532 -0.246988 76 0 153
-0.222895 -0.537549 0.280800 76 153 0
0.093657 0.561186 -0.183293 76 0 153
0.178817 0.355192 0.080749 76 0 153
-0.454003 -0.327798 0.350271 76 153 0
0.190495 0.147421 -0.213039 76 0 153
-0.409000 -0.220429 0.659064 255 0 0
0.053364 0.831463 -0.234806 76 0 153
-0.527164 0.208721 0.046282 76 0 153
0.231486 0.727080 -0.063744 76 0 153
0.109432 0.730290 -0.067082 76 0 153
-0.287259 -0.211760 -0.386566 0 255 0
0.390251 -0.137121 0.058393 255 0 0
0.147609 0.025490 -0.265007 76 0 153
0.418864 0.507848 -0.149776 76 0 153
0.437736 0.026606 -0.075894 76 0 153
-0.254498 -0.120370 0.004076 255 0 0
0.304773 -0.096448 -0.332169 76 0 153
-0.157713 -0.528030 0.272973 76 153 0
-0.207407 -0.469521 -0.239545 76 0 153
-0.147831 0.166181 0.031136 76 0 153
-0.483939 -0.593688 0.283991 76 153 0
-0.434503 -0.686017 -0.287428 76 0 153
0.514690 0.154736 -0.208375 76 0 153
-0.080688 -0.417861 -0.253473 76 0 153
0.504139 0.594178 -0.215472 76 0 153
-0.284059 -0.221479 0.657629 255 0 0
0.288624 0.657461 -0.004218 76 0 153
0.192736 0.636758 -0.278020 76 0 153
0.126225 -0.135106 0.288952 255 0 0
0.307647 0.842809 -0.277253 76 0 153
0.321325 -0.256701 0.569198 255 0 0
0.075614 -0.334437 -0.266698 76 0 153
0.148431 -0.317722 0.360651 76 153 0
0.090306 -0.127836 0.393827 255 0 0
0.144714 0.087851 -0.238820 76 0 153
-0.525320 -0.001247 -0.274968 76 0 153
-0.216740 0.184649 -0.187779 76 0 153
-0.344030 -0.633592 0.308657 76 153 0
-0.199007 0.604890 0.028289 76 0 153
-0.333109 0.264212 0.066517 76 0 153
-0.203805 0.662725 -0.007085 76 0 153
-0.447388 0.526443 0.059452 76 0 153
-0.031292 -0.219603 0.660193 255 0 0
-0.077974 -0.254539 0.511646 76 153 0
0.333669 0.125570 0.007485 76 0 153
-0.532851 0.340283 0.068129 76 0 153
0.389741 0.157290 -0.207367 76 0 153
-0.442881 -0.147724 -0.393630 0 255 0
-0.535910 0.305942 -0.024768 76 0 153
0.459647 0.748790 -0.310051 76 0 153
-0.092049 0.148394 -0.212480 76 0 153
-0.159529 0.103815 -0.007094 76 0 153
0.035143 -0.331478 0.356863 76 153 0
0.397769 -0.062057 -0.157245 76 0 153
-0.450072 0.839072 -0.299134 76 0 153
0.046134 -0.636761 0.310105 76 153 0
-0.402629 -0.095978 0.616003 255 0 0
-0.172981 -0.449095 -0.249425 76 0 153
-0.110344 -0.125498 0.665510 255 0 0
-0.031160 0.417944 0.080020 76 0 153
-0.086332 0.451479 -0.128600 76 0 153
-0.182991 0.704624 -0.310004 76 0 153
0.223450 -0.103629 0.614289 255 0 0
0.380269 -0.109201 -0.375237 0 255 0
-0.024545 -0.094145 -0.095125 255 0 0
-0.426003 -0.488242 -0.239066 76 0 153
0.275427 -0.450267 -0.241146 76 0 153
0.353767 0.356321 -0.120223 76 0 153
-0.177503 -0.737755 0.424630 0 127 127
0.514859 0.620744 -0.250379 76 0 153
0.278779 -0.009457 -0.120172 76 0 153
0.275249 0.490020 0.069739 76 0 153
0.180496 -0.037912 -0.294442 76 0 153
-0.198844 -0.281148 0.413452 76 153 0
0.402245 -0.144015 0.119187 255 0 0
0.263013 0.337242 0.079388 76 0 153
-0.353677 -0.246344 0.578477 255 0 0
0.056869 0.754898 -0.094141 76 0 153
0.413693 -0.300503 0.380582 76 153 0
-0.535557 0.734647 -0.120836 76 0 153
-0.481883 -0.073686 -0.150219 255 0 0
0.548963 0.691612 -0.188389 76 0 153
0.009330 0.078698 -0.242663 76 0 153
0.425518 -0.562478 -0.243608 76 0 153
0.123288 -0.144980 -0.382730 0 255 0
0.012399 -0.735766 0.537859 0 127 127
-0.535909 0.735785 -0.214864 76 0 153
0.497933 0.743682 -0.081801 76 0 153
-0.225204 -0.356362 0.324193 76 153 0
-0.336620 -0.392650 -0.249850 76 0 153
0.548339 0.110116 -0.201720 76 0 153
-0.305487 0.543409 0.053821 76 0 153
0.338003 0.009823 -0.094203 76 0 153
0.044282 -0.187587 0.670574 255 0 0
0.049106 -0.146692 0.228316 255 0 0
0.530428 -0.623882 -0.262980 76 0 153
0.437411 0.827874 -0.305253 76 0 153
0.313582 -0.138841 0.224069 255 0 0
-0.526415 0.376593 -0.113330 76 0 153
0.454643 -0.129225 0.342073 255 0 0
0.357158 -0.731091 0.491109 0 127 127
-0.369574 0.834549 -0.301628 76 0 153
0.164154 -0.211730 0.668348 255 0 0
-0.074713 0.415135 -0.122072 76 0 153
-0.152577 -0.279048 0.439861 76 153 0
0.182751 -0.142762 0.292636 255 0 0
-0.066534 -0.128039 0.050772 255 0 0
0.321196 -0.438330 0.291739 76 153 0
-0.474400 0.460906 -0.130788 76 0 153
-0.066327 -0.034315 -0.292283 76 0 153
-0.152810 -0.513900 -0.247371 76 0 153
-0.255972 0.681093 -0.020474 76 0 153
-0.022744 0.572449 0.043297 76 0 153
-0.058415 -0.375139 -0.254163 76 0 153
0.178465 0.083545 -0.240628 76 0 153
0.548897 0.131452 -0.155219 76 0 153
0.257817 -0.658270 -0.275262 76 0 153
0.147971 -0.248264 0.604989 255 0 0
0.539657 -0.105421 0.473105 255 0 0
0.282966 0.785560 -0.310051 76 0 153
0.230538 0.184938 0.039697 76 0 153
-0.282702 -0.134119 0.298244 255 0 0
-0.017772 0.152453 0.023451 76 0 153
-0.360847 -0.091397 -0.104632 255 0 0
-0.417851 0.612919 -0.238901 76 0 153
0.549090 0.178527 -0.102984 76 0 153
0.190768 0.186242 -0.186562 76 0 153
-0.503984 0.286573 -0.131991 76 0 153
-0.028204 0.355697 0.080611 76 0 153
0.427560 -0.256707 0.569167 255 0 0
-0.359001 -0.586256 -0.255819 76 0 153
0.483428 -0.402647 -0.256257 76 0 153
0.425808 0.640843 -0.285222 76 0 153
0.112544 0.573157 0.043239 76 0 153
0.432702 -0.725243 -0.344926 153 0 76
-0.191662 -0.407341 -0.247013 76 0 153
-0.198339 -0.445699 0.289819 76 153 0
-0.109902 0.807950 -0.309739 76 0 153
0.178392 -0.737981 0.436259 0 127 127
0.157508 -0.264544 0.498693 255 0 0
0.418627 -0.486283 -0.239048 76 0 153
0.280957 -0.738319 0.496903 0 127 127
0.460991 -0.244228 0.617105 255 0 0
0.287780 -0.146210 0.667198 255 0 0
-0.508995 0.664399 -0.009691 76 0 153
-0.298748 -0.498964 0.273066 76 153 0
-0.276508 0.156874 0.026461 76 0 153
-0.054919 -0.089674 -0.111658 255 0 0
0.138846 -0.736118 -0.395356 153 0 76
-0.535909 0.667076 -0.107293 76 0 153
0.282651 -0.261648 0.468159 76 153 0
0.514817 -0.242492 0.597369 76 153 0
0.202633 -0.138252 0.151812 255 0 0
-0.321225 -0.595204 -0.249447 76 0 153
-0.338131 0.061392 -0.249931 76 0 153
0.202107 -0.346121 -0.270600 76 0 153
0.073257 -0.711224 -0.314094 153 0 76
0.450163 -0.204608 0.659912 255 0 0
-0.173235 -0.581491 -0.254849 76 0 153
0.007349 0.695382 -0.032129 76 0 153
-0.535882 0.351100 -0.068075 76 0 153
0.220189 -0.276976 0.445915 76 153 0
-0.317782 0.198300 -0.177345 76 0 153
-0.253445 -0.430379 -0.251421 76 0 153
-0.074350 0.166340 0.031215 76 0 153
-0.091445 -0.095316 0.527981 255 0 0
-0.095193 -0.710577 -0.290433 153 0 76
0.294865 -0.405050 -0.255817 76 0 153
0.545639 0.501614 -0.123858 76 0 153
0.505566 -0.304032 0.391101 76 153 0
-0.439216 0.580283 -0.200961 76 0 153
0.298015 -0.637700 -0.268317 76 0 153
0.111057 0.399725 -0.120364 76 0 153
0.549090 0.239328 -0.079695 76 0 153
-0.369044 0.478834 -0.136849 76 0 153
0.544677 0.305444 -0.110845 76 0 153
-0.418051 0.521222 -0.156842 76 0 153
-0.456737 0.031238 -0.071007 76 0 153
0.139090 -0.325771 -0.277652 76 0 153
-0.424052 -0.119077 -0.035984 255 0 0
-0.190527 0.097492 -0.234773 76 0 153
-0.013776 -0.337406 0.351469 76 153 0
0.335480 0.286328 -0.132504 76 0 153
0.314085 0.776082 -0.122704 76 0 153
-0.474840 -0.532140 -0.248239 76 0 153
-0.416644 0.632984 -0.271367 76 0 153
0.011126 0.241547 0.060192 76 0 153
-0.523652 -0.733256 0.481161 0 127 127
-0.527737 -0.143833 0.165515 255 0 0
0.131122 -0.219951 0.659756 255 0 0
0.170174 -0.737963 0.521635 0 127 127
0.120671 -0.088360 -0.299463 76 0 153
0.495003 -0.620640 -0.263692 76 0 153
-0.038505 -0.146942 0.173517 255 0 0
0.448714 -0.182472 -0.395461 0 255 0
-0.535875 0.025075 -0.223133 76 0 153
-0.340105 -0.490649 0.273956 76 153 0
0.275024 0.752463 -0.091466 76 0 153
-0.133789 -0.453825 0.279672 76 153 0
-0.167940 -0.137079 0.340269 255 0 0
-0.229126 -0.064914 -0.159197 76 0 153
-0.309550 -0.317401 0.361280 76 153 0
0.549089 0.586410 -0.085093 76 0 153
0.153566 -0.118496 0.401412 255 0 0
0.290069 -0.604120 -0.251367 76 0 153
0.157452 -0.145914 0.147800 255 0 0
0.543205 -0.021881 -0.146296 76 0 153
0.295915 0.150073 -0.211515 76 0 153
0.549090 0.283054 -0.010470 76 0 153
-0.195033 -0.738202 -0.362752 153 0 76
0.286706 0.094802 -0.012724 76 0 153
-0.086213 -0.086291 -0.212465 76 0 153
-0.463890 -0.081648 -0.335943 76 0 153
-0.182344 0.317499 0.076534 76 0 153
0.548936 0.390056 -0.073856 76 0 153
-0.496289 -0.105075 0.457659 255 0 0
0.504749 -0.682082 -0.276431 76 0 153
-0.306690 -0.432431 0.285359 76 153 0
0.158220 -0.087520 -0.182231 76 0 153
0.430402 0.723859 -0.060718 76 0 153
0.548498 0.339493 0.053953 76 0 153
-0.267003 0.757653 -0.097187 76 0 153
-0.399903 0.411226 0.080821 76 0 153
-0.483933 0.335703 0.078811 76 0 153
0.376762 -0.105205 0.636168 255 0 0
-0.479228 -0.049263 -0.300854 76 0 153
0.216865 0.025313 -0.077259 76 0 153
-0.409125 -0.280674 0.435111 76 153 0
0.230410 -0.568135 0.284626 76 153 0
0.503508 -0.344988 -0.270875 76 0 153
-0.279507 -0.102808 -0.066376 255 0 0
-0.472280 -0.109261 -0.375290 0 255 0
-0.279704 -0.087963 -0.174097 76 0 153
-0.151953 -0.122415 0.380597 255 0 0
0.441689 -0.368381 -0.264160 76 0 153
-0.177214 -0.011504 -0.123212 76 0 153
0.480918 -0.099870 0.625750 255 0 0
0.168713 -0.254904 0.578741 255 0 0
-0.136906 -0.230144 0.629159 255 0 0
-0.381039 -0.142850 0.291788 255 0 0
0.312615 0.601682 0.029960 76 0 153
-0.156817 0.071784 -0.030468 76 0 153
0.227851 0.833722 -0.242325 76 0 153
0.039857 0.647824 0.002251 76 0 153
0.077184 -0.112711 -0.029518 255 0 0
-0.368624 0.526342 0.059550 76 0 153
0.223873 0.669682 -0.012167 76 0 153
-0.113587 0.574069 -0.195116 76 0 153
0.016444 -0.273602 0.457167 76 153 0
-0.155246 0.033284 -0.068851 76 0 153
0.187990 0.202190 0.046476 76 0 153
-0.319991 -0.246285 0.610932 255 0 0
-0.135535 -0.620483 0.302751 76 153 0
0.396543 -0.427107 -0.251781 76 0 153
-0.351553 0.774774 -0.121306 76 0 153
0.494103 -0.734506 0.406943 0 127 127
0.428837 0.283702 -0.133253 76 0 153
-0.100217 -0.558409 0.282845 76 153 0
0.494604 0.450994 -0.128436 76 0 153
-0.466494 -0.721065 0.399253 0 127 127
0.434226 -0.631650 -0.266725 76 0 153
0.026490 0.480455 -0.137505 76 0 153
0.452058 -0.704246 0.364451 0 127 127
-0.441857 -0.345085 -0.270928 76 0 153
0.202367 0.611077 -0.236483 76 0 153
0.183700 0.809973 -0.309708 76 0 153
-0.382834 0.170087 -0.199000 76 0 153
0.132046 0.148319 -0.212523 76 0 153
0.472284 -0.098556 -0.337209 76 0 153
-0.180049 -0.138709 0.167157 255 0 0
0.041773 -0.085218 0.577398 255 0 0
-0.224659 -0.140698 0.312630 255 0 0
-0.396378 -0.138180 -0.379731 0 255 0
0.154646 0.564402 -0.186022 76 0 153
0.327388 -0.395407 -0.249189 76 0 153
0.013855 -0.146716 0.167855 255 0 0
-0.496647 0.114721 -0.227270 76 0 153
-0.241526 -0.468800 -0.247707 76 0 153
-0.088986 -0.141934 0.300658 255 0 0
-0.427066 -0.476082 0.282631 76 153 0
-0.285945 -0.138618 0.241174 255 0 0
0.117231 0.804417 -0.309793 76 0 153
-0.474751 0.017200 -0.268490 76 0 153
-0.499591 -0.409054 -0.246882 76 0 153
0.163709 0.782604 -0.310051 76 0 153
0.057903 -0.738355 0.455466 0 127 127
-0.124406 -0.087705 -0.291250 76 0 153
0.170742 -0.115870 0.652779 255 0 0
-0.038535 -0.702808 -0.303392 76 0 153
0.501037 -0.087231 -0.285430 76 0 153
0.547441 -0.072559 -0.195081 76 0 153
0.065535 0.488605 -0.140702 76 0 153
0.538489 -0.116212 0.438176 255 0 0
-0.309462 -0.738259 0.504463 0 127 127
0.369234 0.162533 0.029621 76 0 153
-0.185609 -0.594592 0.284311 76 153 0
-0.535673 0.523584 -0.106576 76 0 153
0.221137 -0.239049 0.628909 255 0 0
0.071686 -0.232959 -0.370345 0 255 0
-0.392101 0.191120 0.041966 76 0 153
0.017470 -0.604706 -0.259564 76 0 153
0.345795 -0.679674 0.329027 76 153 0
0.107860 0.519529 0.061439 76 0 153
-0.098897 -0.133214 0.364324 255 0 0
-0.071417 -0.333057 0.344807 76 153 0
0.207979 -0.728526 -0.305903 153 0 76
-0.426125 0.006802 -0.097834 76 0 153
0.225320 0.386832 -0.119868 76 0 153
-0.341299 0.798730 -0.160970 76 0 153
0.356171 -0.211248 0.654712 255 0 0
0.353216 -0.261588 0.469231 76 153 0
0.523878 -0.086217 -0.258114 76 0 153
-0.250469 0.396477 -0.120239 76 0 153
0.098304 0.663526 -0.008162 76 0 153
-0.216366 -0.090727 0.601569 255 0 0
0.117847 0.455550 0.075916 76 0 153
0.014055 0.269902 -0.137526 76 0 153
0.136174 -0.428083 -0.243553 76 0 153
0.369330 -0.677090 -0.283003 76 0 153
-0.293828 -0.177842 -0.395467 0 255 0
0.516436 -0.084267 0.545827 255 0 0
-0.120240 0.582624 0.039002 76 0 153
0.224420 0.437893 0.077722 76 0 153
0.372438 -0.127640 0.002968 255 0 0
-0.213046 -0.127683 0.349061 255 0 0
-0.498173 -0.098370 -0.111500 255 0 0
-0.468233 0.304187 0.074823 76 0 153
-0.312155 -0.563290 0.276827 76 153 0
0.426098 0.515551 0.062547 76 0 153
-0.475956 0.390960 0.081683 76 0 153
-0.247782 -0.317142 -0.281092 76 0 153
0.091124 -0.504983 -0.238907 76 0 153
-0.140974 -0.723433 0.405100 0 127 127
0.040699 0.043236 -0.058360 76 0 153
0.489071 -0.138907 0.232310 255 0 0
-0.111341 -0.161705 -0.386938 0 255 0
-0.170168 -0.677262 0.326969 76 153 0
0.369426 -0.234964 -0.368084 0 255 0
-0.190363 0.150729 0.022398 76 0 153
-0.003445 -0.425517 -0.252072 76 0 153
0.062772 -0.149191 -0.384905 0 255 0
0.253739 -0.095520 0.583992 255 0 0
0.523706 0.461465 0.074322 76 0 153
0.010991 0.804838 -0.171542 76 0 153
-0.376263 0.544003 -0.170757 76 0 153
0.017348 -0.291023 0.412585 76 153 0
-0.155373 -0.253060 0.588530 255 0 0
0.300630 -0.128415 -0.387883 0 255 0
0.085286 0.307644 0.075610 76 0 153
-0.285496 0.345749 0.079743 76 0 153
0.073318 -0.738170 -0.366445 153 0 76
0.043138 -0.023496 -0.143848 76 0 153
-0.341095 -0.274721 0.428182 76 153 0
-0.401611 -0.235158 -0.367865 0 255 0
-0.104512 -0.070667 -0.320473 76 0 153
0.279821 0.186502 0.040301 76 0 153
0.226359 -0.066737 -0.316792 76 0 153
0.290689 0.320610 -0.124530 76 0 153
-0.012009 -0.151277 -0.385888 0 255 0
-0.139454 0.375844 -0.119445 76 0 153
-0.341590 -0.730353 0.448955 0 127 127
0.365416 0.104478 -0.006135 76 0 153
-0.535571 0.758990 -0.264838 76 0 153
-0.221083 -0.156426 0.686390 255 0 0
-0.017828 -0.730221 0.448727 0 127 127
-0.451743 -0.731151 0.469188 0 127 127
-0.240553 -0.680653 -0.275639 76 0 153
0.021532 0.301452 -0.128319 76 0 153
0.085493 -0.488210 0.274217 76 153 0
-0.356423 0.251500 -0.145251 76 0 153
0.234529 0.127270 -0.222187 76 0 153
-0.139670 -0.143325 0.109506 255 0 0
0.231316 0.483421 -0.138672 76 0 153
0.316754 -0.691035 -0.280490 76 0 153
0.393890 -0.669195 0.330316 76 153 0
-0.008398 0.486288 -0.139795 76 0 153
0.349505 0.591884 -0.213116 76 0 153
-0.397775 -0.447933 -0.241380 76 0 153
0.540271 -0.736176 0.457159 0 127 127
0.450640 -0.431853 0.294048 76 153 0
-0.041742 0.093272 -0.236544 76 0 153
-0.286014 0.819327 -0.199925 76 0 153
-0.308480 0.504499 0.066253 76 0 153
-0.100656 -0.546092 -0.241770 76 0 153
0.332016 0.358872 0.081010 76 0 153
0.239285 -0.737951 0.521748 0 127 127
-0.348210 0.085180 -0.019874 76 0 153
-0.534213 0.421428 0.064936 76 0 153
-0.326089 -0.126542 0.039183 255 0 0
0.087282 -0.648415 0.316934 76 153 0
-0.326771 -0.147121 0.179695 255 0 0
0.042873 -0.530014 0.272983 76 153 0
0.104700 -0.265358 0.454231 76 153 0
0.372382 0.432903 -0.124878 76 0 153
0.417864 0.805802 -0.172926 76 0 153
-0.278770 -0.669695 0.321002 76 153 0
0.150976 -0.080944 -0.334901 76 0 153
0.549090 0.415334 -0.001423 76 0 153
-0.310432 -0.087989 0.517548 255 0 0
-0.466484 0.221890 -0.161344 76 0 153
0.301235 0.213061 -0.167129 76 0 153
-0.500506 -0.258474 0.486225 255 0 0
0.424012 -0.096761 0.595290 255 0 0
0.346818 -0.097470 -0.361682 0 255 0
-0.206053 0.842421 -0.274483 76 0 153
-0.270758 0.695955 -0.309973 76 0 153
-0.228896 -0.137225 0.059125 255 0 0
-0.158771 -0.738127 -0.371293 153 0 76
0.515808 0.394482 -0.119783 76 0 153
0.272732 0.025363 -0.265060 76 0 153
0.267764 0.126915 0.008333 76 0 153
-0.379651 0.366403 -0.119436 76 0 153
-0.416000 -0.416169 0.300416 76 153 0
-0.123815 0.518559 0.061903 76 0 153
-0.304244 -0.245464 -0.329350 76 0 153
0.229609 -0.518282 -0.247580 76 0 153
-0.535910 0.493924 -0.035431 76 0 153
0.077211 -0.085835 0.526240 255 0 0
0.450529 -0.653658 0.319715 76 153 0
-0.243970 0.250567 0.062532 76 0 153
0.037577 0.108559 -0.003909 76 0 153
-0.038978 -0.346994 -0.262373 76 0 153
0.412431 0.452174 0.076120 76 0 153
0.258917 -0.127801 0.003746 255 0 0
-0.524269 -0.576650 0.285044 76 153 0
0.086865 -0.086294 -0.239996 76 0 153
-0.324045 -0.635945 -0.267723 76 0 153
-0.193649 -0.284234 -0.287581 76 0 153
0.522149 0.180653 0.037802 76 0 153
0.447865 0.193185 0.042883 76 0 153
-0.223064 0.678669 -0.308552 76 0 153
0.263928 -0.146550 0.232791 255 0 0
-0.490374 0.478475 0.072535 76 0 153
0.089320 -0.135302 0.045633 255 0 0
0.061288 -0.289388 -0.294347 76 0 153
0.534534 -0.260424 0.526198 255 0 0
-0.146977 0.464989 -0.131738 76 0 153
0.546536 0.809587 -0.225048 76 0 153
-0.054980 0.527181 0.059111 76 0 153
-0.170419 -0.138432 0.236626 255 0 0
-0.525778 -0.734476 -0.345061 153 0 76
-0.433510 -0.676573 0.326379 76 153 0
-0.301191 -0.736467 -0.391904 153 0 76
-0.250895 -0.138494 0.240833 255 0 0
0.180708 0.637043 0.009058 76 0 153
0.089658 0.597883 -0.219494 76 0 153
-0.153401 -0.065890 -0.158977 76 0 153
0.398325 -0.280414 -0.289400 76 0 153
0.402982 0.770568 -0.114194 76 0 153
-0.461451 0.761917 -0.310051 76 0 153
0.301951 -0.092908 -0.137310 255 0 0
0.406458 0.481012 -0.137726 76 0 153
0.386019 -0.254862 0.510299 76 153 0
-0.170834 -0.086711 -0.279132 76 0 153
-0.119850 0.691608 -0.028858 76 0 153
0.104784 -0.563816 -0.251904 76 0 153
0.523209 -0.097925 -0.112937 255 0 0
-0.337755 -0.109221 0.441231 255 0 0
0.068784 0.222134 0.053606 76 0 153
0.384705 -0.127791 0.351720 255 0 0
-0.532361 0.152977 0.006816 76 0 153
0.153314 0.803591 -0.169430 76 0 153
0.021903 -0.124840 0.029299 255 0 0
0.472632 0.552526 -0.176976 76 0 153
0.484932 0.292588 -0.130715 76 0 153
-0.184276 0.208909 0.048671 76 0 153
-0.037933 -0.521729 -0.239662 76 0 153
-0.124096 0.634791 -0.274554 76 0 153
0.431074 -0.126425 0.037967 255 0 0
0.258045 -0.250123 0.557154 76 153 0
-0.324518 -0.738200 -0.362987 153 0 76
0.286673 -0.672793 0.333347 76 153 0
0.188079 -0.146635 0.230106 255 0 0
0.009835 -0.251307 0.547939 76 153 0
0.409217 -0.144121 0.278256 255 0 0
0.548850 0.673712 -0.234153 76 0 153
0.158365 0.013635 -0.089600 76 0 153
-0.384432 -0.100131 -0.075653 255 0 0
0.166240 0.257550 -0.142686 76 0 153
-0.272455 0.155207 -0.208564 76 0 153
0.269751 -0.201495 -0.390673 0 255 0
-0.079426 -0.293286 0.391360 76 153 0
0.019690 -0.377409 0.319955 76 153 0
0.007814 0.132503 0.011040 76 0 153
-0.065537 0.266128 -0.139109 76 0 153
0.133223 -0.231162 -0.353015 0 255 0
0.279549 -0.337745 0.351163 76 153 0
-0.075758 0.823122 -0.307908 76 0 153
-0.448171 -0.093006 0.561017 255 0 0
-0.374736 -0.059056 -0.309595 76 0 153
-0.249400 -0.731163 0.497994 0 127 127
-0.255358 0.235669 -0.153390 76 0 153
0.548496 -0.023938 -0.177640 76 0 153
-0.441043 -0.096655 0.518479 255 0 0
-0.113902 -0.493782 0.273490 76 153 0
0.466985 -0.254567 -0.333336 76 0 153
0.493581 0.512395 0.063542 76 0 153
-0.024164 -0.105730 0.636433 255 0 0
0.287644 -0.110686 -0.068020 255 0 0
-0.436438 -0.616138 -0.254443 76 0 153
-0.494982 -0.270016 0.442028 76 153 0
0.305294 -0.465788 0.284245 76 153 0
0.426359 -0.394452 0.309594 76 153 0
-0.052055 -0.140389 -0.380854 0 255 0
-0.064154 0.019551 -0.083342 76 0 153
-0.495188 0.042815 -0.257447 76 0 153
-0.405484 0.289408 0.072797 76 0 153
0.511224 0.827995 -0.223436 76 0 153
-0.535303 -0.008976 -0.149603 76 0 153
-0.278116 -0.116737 0.442727 255 0 0
0.118386 0.752462 -0.091477 76 0 153
-0.533827 0.619065 -0.020808 76 0 153
0.176362 -0.131873 0.078897 255 0 0
0.159193 -0.095554 0.614832 255 0 0
0.096602 0.769295 -0.310051 76 0 153
0.259985 0.833373 -0.241072 76 0 153
0.361282 0.492207 -0.142143 76 0 153
-0.420407 -0.014613 -0.128302 76 0 153
-0.021005 0.537229 -0.166388 76 0 153
0.434239 -0.113780 -0.025249 255 0 0
0.032976 0.182302 0.039027 76 0 153
0.145415 -0.712840 0.379006 0 127 127
-0.316945 0.564084 -0.185722 76 0 153
-0.437737 0.129021 -0.221430 76 0 153
0.472253 -0.729954 -0.371977 153 0 76
-0.101723 0.223525 0.054084 76 0 153
-0.292463 0.614137 0.023285 76 0 153
0.500784 -0.212237 -0.373600 0 255 0
0.057228 -0.100048 -0.365123 0 255 0
-0.172605 0.671023 -0.306908 76 0 153
0.458973 -0.615687 0.299740 76 153 0
0.113461 -0.138825 0.224573 255 0 0
0.127553 -0.597851 -0.249952 76 0 153
-0.523618 -0.571413 -0.250892 76 0 153
-0.521426 0.045832 -0.058337 76 0 153
0.102241 -0.735967 0.414290 0 127 127
0.542985 -0.081758 -0.284030 76 0 153
-0.151692 -0.428362 0.286730 76 153 0
-0.535910 0.374452 -0.035951 76 0 153
0.088020 0.712738 -0.048278 76 0 153
0.504311 -0.117560 -0.041881 255 0 0
0.262102 -0.152161 0.684382 255 0 0
0.070856 -0.393435 -0.249686 76 0 153
0.006299 0.130875 -0.220629 76 0 153
0.145730 -0.132133 0.027169 255 0 0
0.206927 0.067554 -0.247342 76 0 153
0.408370 -0.180994 0.669590 255 0 0
0.014711 0.039894 -0.258959 76 0 153
-0.043182 -0.240591 0.602556 255 0 0
0.187931 -0.226428 0.634870 255 0 0
-0.424783 0.138834 0.015041 76 0 153
0.383500 -0.008954 -0.119425 76 0 153
0.010212 -0.294145 -0.282850 76 0 153
0.183751 -0.454723 0.279463 76 153 0
0.436637 0.065881 -0.035483 76 0 153
0.108021 -0.702918 0.349262 0 127 127
0.155497 -0.112234 0.459899 255 0 0
-0.174239 -0.131246 -0.376765 0 255 0
0.549081 0.488659 -0.066630 76 0 153
-0.213966 -0.104741 0.634534 255 0 0
0.242007 -0.135496 -0.390495 0 255 0
0.204954 0.092694 -0.014253 76 0 153
-0.175054 0.709258 -0.045260 76 0 153
0.532959 0.701084 -0.038283 76 0 153
-0.075804 -0.732421 0.528029 0 127 127
0.431072 0.583238 -0.203923 76 0 153
0.462088 -0.142692 0.293316 255 0 0
-0.449437 -0.597406 0.292867 76 153 0
-0.245634 -0.729970 -0.308249 153 0 76
-0.209155 -0.347314 -0.270222 76 0 153
-0.501335 -0.117985 -0.008612 255 0 0
-0.005606 0.318231 0.076978 76 0 153
-0.084491 -0.114671 -0.021874 255 0 0
0.344545 -0.122110 0.646933 255 0 0
0.010531 -0.484416 -0.239104 76 0 153
0.250148 -0.138272 0.066466 255 0 0
0.549090 0.145838 -0.048258 76 0 153
0.548983 0.314952 -0.074961 76 0 153
-0.517878 0.464776 -0.131090 76 0 153
0.166482 0.772233 -0.117387 76 0 153
0.049300 -0.068495 -0.156529 255 0 0
-0.202767 -0.486859 0.274251 76 153 0
0.392526 -0.736422 0.535131 0 127 127
-0.079582 -0.098357 0.478714 255 0 0
-0.460655 -0.230123 0.629694 255 0 0
0.536486 0.253702 -0.138183 76 0 153
-0.178825 0.604017 -0.227216 76 0 153
0.096399 0.626093 0.016017 76 0 153
-0.326728 0.837233 -0.255257 76 0 153
-0.279541 -0.090036 0.599671 255 0 0
0.117015 0.284157 -0.133123 76 0 153
-0.191456 -0.132491 0.084602 255 0 0
-0.247987 -0.088475 -0.116816 255 0 0
0.288798 -0.232158 0.625429 255 0 0
-0.043413 -0.316836 -0.281214 76 0 153
0.182875 -0.086895 -0.123614 255 0 0
0.540700 -0.129709 0.665634 255 0 0
0.272520 0.015999 -0.087090 76 0 153
-0.044656 0.212133 -0.167737 76 0 153
-0.250420 -0.108864 -0.045128 255 0 0
-0.535909 0.089800 -0.081260 76 0 153
-0.011722 -0.365273 0.328243 76 153 0
-0.491011 0.581295 -0.201912 76 0 153
0.218311 -0.247897 -0.324404 76 0 153
-0.108403 -0.133570 0.035185 255 0 0
-0.514301 -0.420374 0.290538 76 153 0
-0.026575 -0.609526 0.297558 76 153 0
-0.001003 0.514986 -0.153259 76 0 153
0.261865 0.842216 -0.281879 76 0 153
-0.344648 -0.143057 0.106942 255 0 0
-0.338998 -0.166828 0.671353 255 0 0
0.521432 0.724814 -0.309699 76 0 153
0.435539 0.337605 -0.121684 76 0 153
0.210882 -0.261252 0.521629 255 0 0
-0.326339 -0.721829 0.370927 0 127 127
-0.490576 -0.333702 0.344857 76 153 0
0.506731 -0.280197 -0.301315 76 0 153
0.509501 -0.701090 0.347806 76 153 0
-0.134531 0.095072 -0.235789 76 0 153
-0.511067 -0.454174 -0.248398 76 0 153
-0.292343 -0.315817 -0.281621 76 0 153
-0.187149 -0.268881 0.476479 76 153 0
0.549085 0.521914 -0.026488 76 0 153
-0.180389 0.031064 -0.262667 76 0 153
-0.265640 0.644594 0.004948 76 0 153
-0.058665 -0.657367 -0.266657 76 0 153
-0.062261 -0.086393 -0.271655 76 0 153
-0.502190 0.830657 -0.303483 76 0 153
-0.101712 -0.725828 0.379780 0 127 127
-0.487774 0.835803 -0.250166 76 0 153
0.083969 0.145615 0.019442 76 0 153
-0.276525 -0.600893 0.286503 76 153 0
-0.373355 0.070985 -0.031148 76 0 153
