ply
format ascii 1.0
element vertex 1276
property float x
property float y
property float z
property uchar red
property uchar green
property uchar blue
end_header
-0.245150 -0.094748 0.505064 255 0 0
0.323275 0.836843 -0.265252 76 0 153
0.342320 -0.497713 -0.241678 76 0 153
0.528903 0.765285 -0.306073 76 0 153
0.140854 -0.655802 0.313768 76 153 0
0.302839 0.423182 0.076410 76 0 153
-0.446422 0.818452 -0.201733 76 0 153
0.362372 -0.121574 -0.382393 0 255 0
-0.273003 0.597584 -0.211077 76 0 153
0.493494 0.644426 -0.284005 76 0 153
0.345394 -0.710130 -0.293317 76 0 153
0.275182 -0.646063 -0.266507 76 0 153
-0.237995 -0.103225 -0.080843 255 0 0
0.482288 -0.734391 0.422452 0 127 127
-0.239491 -0.289675 0.403029 76 153 0
-0.513896 -0.271476 0.443850 255 0 0
0.545115 0.550065 -0.145933 76 0 153
0.180763 0.250556 -0.140195 76 0 153
-0.260039 -0.132883 0.343505 255 0 0
0.328420 -0.228853 -0.372413 0 255 0
-0.018918 0.579788 -0.193759 76 0 153
-0.394761 -0.109029 0.457214 255 0 0
0.397089 -0.507958 0.274708 76 153 0
-0.001245 -0.082315 -0.285778 76 0 153
0.279948 -0.143455 0.179417 255 0 0
0.476685 -0.143855 0.204736 255 0 0
-0.406872 0.305415 0.072077 76 0 153
-0.340609 -0.734391 -0.376348 153 0 76
0.422536 0.596960 -0.210265 76 0 153
-0.531935 0.705338 -0.165443 76 0 153
-0.064187 0.356007 -0.114499 76 0 153
-0.341179 0.113944 -0.223650 76 0 153
-0.373567 -0.686687 -0.282166 76 0 153
0.084249 0.359584 0.078313 76 0 153
0.108488 -0.291472 0.398997 76 153 0
-0.130461 -0.109265 -0.058741 255 0 0
0.545115 0.125789 -0.083488 76 0 153
0.371231 -0.264108 0.460377 76 153 0
-0.526532 -0.274206 -0.296243 76 0 153
-0.487064 0.495496 -0.137341 76 0 153
0.545115 0.678347 -0.272136 76 0 153
0.060439 0.047558 -0.059584 76 0 153
0.190160 -0.682178 0.336386 76 153 0
-0.531935 0.321235 -0.113731 76 0 153
-0.529279 0.488599 0.068879 76 0 153
0.276901 0.198395 -0.170659 76 0 153
-0.090431 -0.101450 0.484946 255 0 0
-0.169875 -0.009417 -0.127102 76 0 153
-0.508021 -0.527399 0.276506 76 153 0
0.113455 0.821258 -0.306073 76 0 153
0.545115 0.035155 -0.159703 76 0 153
0.205249 0.756211 -0.099145 76 0 153
0.487143 -0.127299 0.663809 255 0 0
0.251008 -0.129012 0.028203 255 0 0
0.545115 0.724491 -0.171024 76 0 153
-0.073147 -0.468120 -0.242733 76 0 153
0.167543 0.679063 -0.306073 76 0 153
-0.424513 -0.132445 0.051171 255 0 0
-0.116045 -0.628037 -0.260788 76 0 153
0.545115 -0.062898 -0.252395 76 0 153
-0.128171 0.597815 0.030737 76 0 153
-0.030853 -0.062638 -0.297810 76 0 153
0.293429 -0.319976 -0.275169 76 0 153
0.545115 0.674563 -0.094692 76 0 153
-0.474511 -0.686709 -0.282175 153 0 76
-0.123048 -0.139379 0.676863 255 0 0
-0.502918 -0.730549 0.389511 0 127 127
-0.383715 -0.490588 -0.241749 76 0 153
-0.410987 -0.727737 -0.302574 153 0 76
0.492318 0.263341 0.064906 76 0 153
-0.315959 -0.599329 0.289522 76 153 0
0.410032 0.521115 -0.151467 76 0 153
-0.127514 -0.317989 -0.275998 76 0 153
0.209185 -0.277184 0.431046 76 153 0
0.456153 -0.593513 -0.252262 76 0 153
-0.154948 -0.196687 -0.391444 0 255 0
-0.039118 -0.115690 -0.035235 255 0 0
-0.318922 -0.143309 0.223108 255 0 0
0.162786 -0.563103 0.279808 76 153 0
-0.314694 -0.082315 -0.226934 76 0 153
-0.085209 -0.061235 -0.297220 76 0 153
-0.042757 -0.256108 0.532939 255 0 0
0.239550 -0.082315 -0.146863 255 0 0
-0.058085 -0.068111 -0.300108 76 0 153
0.138774 -0.058922 -0.224516 76 0 153
0.241277 -0.391104 -0.253439 76 0 153
-0.179278 -0.060390 -0.296865 76 0 153
0.456704 0.546153 -0.165272 76 0 153
0.030707 0.603149 0.027268 76 0 153
-0.514911 -0.159393 0.687863 255 0 0
0.029549 -0.222469 0.651705 255 0 0
-0.452739 0.497888 -0.138660 76 0 153
-0.474608 -0.733212 0.393895 0 127 127
0.018570 -0.084986 0.533953 255 0 0
0.474026 -0.462984 -0.242959 76 0 153
0.378733 -0.063684 -0.298249 76 0 153
-0.527450 -0.097595 0.615434 255 0 0
-0.016996 -0.143662 0.186378 255 0 0
-0.294281 -0.261394 0.478397 76 153 0
0.131907 0.013526 -0.095457 76 0 153
0.245121 0.741509 -0.083648 76 0 153
-0.114720 0.189131 -0.178598 76 0 153
0.342148 -0.082315 -0.175122 76 0 153
-0.082417 -0.191626 0.682709 255 0 0
-0.201318 0.153192 0.020831 76 0 153
0.489090 0.417542 -0.116745 76 0 153
0.052927 -0.647855 0.309951 76 153 0
-0.465421 -0.734391 -0.379857 153 0 76
-0.026529 0.627961 0.011130 76 0 153
0.169140 -0.318087 0.365431 76 153 0
0.039201 -0.606152 0.292394 76 153 0
0.340587 0.716346 -0.306073 76 0 153
-0.265062 -0.267243 0.453345 76 153 0
-0.531935 0.775494 -0.194742 76 0 153
-0.057945 0.091949 -0.232888 76 0 153
0.156463 -0.734391 0.398972 0 127 127
0.019416 0.487986 0.068949 76 0 153
0.164166 -0.599022 0.289392 76 153 0
0.451378 0.627914 0.011161 76 0 153
-0.487239 -0.068843 -0.259107 76 0 153
-0.401520 -0.116840 0.650632 255 0 0
0.092371 -0.123557 0.396325 255 0 0
0.124267 -0.692605 0.345327 0 127 127
-0.531935 0.559564 -0.170006 76 0 153
0.308832 -0.734391 0.514438 0 127 127
-0.043923 -0.263349 0.462079 76 153 0
-0.285415 0.226330 -0.153553 76 0 153
0.460900 -0.366327 0.321424 76 153 0
0.495796 0.475631 -0.130872 76 0 153
-0.531935 0.665080 -0.271097 76 0 153
-0.022712 0.323325 -0.117788 76 0 153
0.151623 -0.424742 -0.247139 76 0 153
0.462248 -0.255797 -0.305922 76 0 153
0.395094 0.589229 -0.201849 76 0 153
-0.401353 -0.082315 -0.250186 76 0 153
0.213929 0.449237 -0.122668 76 0 153
-0.200428 -0.174062 0.688576 255 0 0
-0.354108 0.180374 -0.186102 76 0 153
-0.049027 0.043149 -0.253382 76 0 153
-0.282231 0.358244 0.078158 76 0 153
-0.336147 0.580268 -0.194170 76 0 153
-0.068069 -0.292687 -0.286561 76 0 153
0.433184 -0.557863 0.279323 76 153 0
-0.050714 -0.236845 0.628714 255 0 0
0.048207 0.544328 -0.164265 76 0 153
0.096785 0.226604 -0.153401 76 0 153
-0.082789 -0.734391 0.509080 0 127 127
0.149121 -0.475616 0.278883 76 153 0
-0.105873 -0.722897 -0.300029 153 0 76
0.247775 0.172169 0.032184 76 0 153
-0.329523 -0.286036 0.411191 76 153 0
-0.393241 0.557586 0.045278 76 0 153
-0.055751 0.759998 -0.103137 76 0 153
-0.359859 -0.143781 0.207226 255 0 0
0.206145 -0.090676 0.596144 255 0 0
-0.531935 0.034885 -0.237768 76 0 153
-0.460003 -0.244792 -0.352541 0 255 0
-0.248635 -0.252508 -0.333090 76 0 153
-0.362003 -0.012371 -0.132254 76 0 153
0.218697 -0.734391 0.536728 0 127 127
0.331878 0.733478 -0.075182 76 0 153
0.168529 0.703231 -0.043300 76 0 153
-0.110539 -0.082315 -0.293293 76 0 153
0.475107 -0.418405 -0.247977 76 0 153
-0.183190 -0.197389 -0.391147 0 255 0
0.505436 -0.127629 0.020616 255 0 0
-0.416373 0.258377 0.063125 76 0 153
-0.134445 0.474226 -0.130436 76 0 153
-0.082425 -0.130692 0.358167 255 0 0
0.282284 0.014105 -0.094846 76 0 153
0.510208 0.521795 -0.151842 76 0 153
-0.436979 -0.139648 0.286811 255 0 0
-0.343166 0.502532 -0.141221 76 0 153
-0.531935 0.233053 -0.084085 76 0 153
-0.502488 0.369005 0.079397 76 0 153
0.545115 0.799085 -0.188481 76 0 153
-0.531935 -0.048403 -0.210909 76 0 153
0.008418 -0.409611 -0.249315 76 0 153
0.012472 0.359772 0.078334 76 0 153
0.073717 0.684799 -0.025836 76 0 153
0.213488 0.353301 0.077589 76 0 153
-0.341269 -0.230158 -0.371379 0 255 0
-0.340269 -0.115850 -0.377860 0 255 0
-0.084925 -0.097748 0.615766 255 0 0
0.528883 -0.256788 0.525928 255 0 0
0.509936 -0.258805 0.505112 255 0 0
0.481464 0.735283 -0.306073 76 0 153
0.451343 0.243665 0.057845 76 0 153
0.512417 -0.355639 -0.262763 76 0 153
-0.033078 -0.734391 0.414764 0 127 127
0.431547 0.805171 -0.178575 76 0 153
0.290592 0.616592 -0.235820 76 0 153
-0.410017 -0.359650 0.325251 76 153 0
0.082219 0.289974 -0.126403 76 0 153
0.545115 0.647187 -0.281551 76 0 153
0.370025 0.143416 0.014473 76 0 153
-0.531935 0.232619 -0.126715 76 0 153
-0.328553 -0.125577 0.010873 255 0 0
0.408703 -0.477836 -0.242308 76 0 153
-0.531935 0.486248 -0.130642 76 0 153
0.024963 -0.653787 0.312449 76 153 0
0.165094 0.436925 0.074828 76 0 153
0.203501 0.730831 -0.306073 76 0 153
-0.060576 -0.305564 0.379209 76 153 0
0.419735 -0.298437 0.387049 76 153 0
-0.471791 0.395006 -0.114477 76 0 153
-0.531935 0.544477 0.010637 76 0 153
-0.414029 0.075395 -0.030242 76 0 153
-0.117738 0.307564 0.072324 76 0 153
0.477367 -0.105861 0.468804 255 0 0
-0.250165 -0.024664 -0.153690 76 0 153
-0.024775 0.830201 -0.242095 76 0 153
0.129038 0.116965 -0.002730 76 0 153
0.362486 0.049656 -0.250649 76 0 153
-0.319744 -0.098163 0.616670 255 0 0
0.026297 -0.624721 -0.259736 76 0 153
0.472379 -0.082315 -0.171556 76 0 153
0.161101 0.804081 -0.306073 76 0 153
-0.114149 -0.123265 0.397711 255 0 0
0.406106 -0.277357 0.430658 76 153 0
0.474715 -0.130364 0.037249 255 0 0
-0.478612 -0.039772 -0.180037 76 0 153
0.266375 -0.132200 0.348072 255 0 0
-0.260179 0.063259 -0.244937 76 0 153
-0.506490 -0.671169 -0.275687 76 0 153
0.512391 0.441043 -0.120121 76 0 153
-0.226677 0.784542 -0.306073 76 0 153
0.134941 -0.315731 0.368023 76 153 0
-0.302192 0.103396 -0.228080 76 0 153
0.437824 0.433004 -0.118301 76 0 153
0.103297 -0.672070 -0.276064 76 0 153
0.095399 -0.480662 -0.242184 76 0 153
0.355295 -0.257882 -0.304826 76 0 153
0.328919 -0.244829 -0.352489 0 255 0
0.402376 0.391358 0.080073 76 0 153
-0.428426 -0.067615 -0.254825 76 0 153
-0.007139 -0.022394 -0.280908 76 0 153
-0.084627 0.286030 0.069845 76 0 153
-0.222690 -0.084717 -0.137142 255 0 0
0.304821 -0.329490 0.352885 76 153 0
-0.035395 -0.023990 -0.152515 76 0 153
-0.186366 -0.251646 0.588357 255 0 0
-0.003078 -0.124565 0.006070 255 0 0
-0.357614 -0.131267 0.043290 255 0 0
-0.059544 0.238323 0.055927 76 0 153
-0.195658 -0.734391 -0.381587 153 0 76
0.316706 -0.082315 -0.247142 76 0 153
-0.526875 -0.153085 -0.394280 0 255 0
0.415670 0.123956 0.001817 76 0 153
0.240248 -0.189223 0.684040 255 0 0
0.386175 0.742114 -0.084286 76 0 153
-0.531935 0.789750 -0.264260 76 0 153
-0.414267 0.241718 -0.145068 76 0 153
0.031647 -0.082315 -0.258636 76 0 153
0.260727 -0.313369 0.370621 76 153 0
0.215037 0.288346 -0.126909 76 0 153
-0.187626 -0.103342 -0.080413 255 0 0
0.421653 -0.729191 0.387274 0 127 127
0.273235 0.410009 0.077926 76 0 153
0.316607 0.137235 -0.213869 76 0 153
-0.310583 -0.734391 0.450187 0 127 127
0.484304 -0.455091 0.283322 76 153 0
0.413360 -0.113998 0.646022 255 0 0
-0.261676 -0.692078 -0.284416 76 0 153
0.182778 0.291682 -0.125872 76 0 153
0.231121 0.603360 0.027131 76 0 153
0.544789 -0.734391 -0.352369 153 0 76
0.301016 0.239808 -0.146121 76 0 153
-0.049197 0.784133 -0.306073 76 0 153
0.152649 -0.082315 -0.225207 76 0 153
-0.344496 -0.478777 -0.242266 76 0 153
-0.408554 0.815609 -0.196776 76 0 153
0.279889 -0.252935 0.581041 76 153 0
0.162892 -0.133693 0.059522 255 0 0
0.438948 0.488006 -0.134719 76 0 153
-0.284100 0.646498 -0.288345 76 0 153
0.023092 0.688023 -0.027933 76 0 153
-0.007630 -0.284442 0.414766 76 153 0
-0.233065 -0.256850 0.525285 255 0 0
-0.531935 0.460602 0.022184 76 0 153
-0.294946 -0.159433 -0.395128 0 255 0
0.331364 -0.633555 -0.262539 76 0 153
-0.333901 0.035692 -0.072092 76 0 153
-0.097003 0.119847 -0.221171 76 0 153
-0.232697 -0.088965 -0.343144 0 255 0
-0.242077 0.794299 -0.159616 76 0 153
0.243560 -0.527414 0.276507 76 153 0
-0.480298 -0.032101 -0.284985 76 0 153
-0.412996 -0.082315 -0.215727 76 0 153
0.516078 -0.131487 0.352845 255 0 0
-0.396706 0.722586 -0.063702 76 0 153
-0.152052 -0.734391 -0.319799 153 0 76
0.488440 0.191797 -0.176313 76 0 153
-0.503032 0.759324 -0.102427 76 0 153
-0.394867 -0.462551 -0.242978 76 0 153
-0.347873 0.242845 0.057550 76 0 153
-0.268290 -0.133658 0.059287 255 0 0
0.372495 -0.338287 -0.268269 76 0 153
0.545115 0.603144 -0.031216 76 0 153
-0.510661 -0.084885 -0.331898 76 0 153
-0.223308 -0.109439 -0.058107 255 0 0
-0.066045 -0.137559 0.310205 255 0 0
0.372934 0.619261 -0.239293 76 0 153
-0.300768 -0.734391 0.499364 0 127 127
0.534322 0.180069 0.035019 76 0 153
0.452140 -0.104668 0.473173 255 0 0
0.354329 0.067395 -0.038674 76 0 153
0.484987 -0.136955 0.316261 255 0 0
0.338304 -0.446923 0.285088 76 153 0
0.292270 -0.583604 -0.250054 76 0 153
0.152358 -0.119254 0.653727 255 0 0
0.092415 0.560259 -0.177022 76 0 153
-0.401227 -0.060939 -0.231550 76 0 153
-0.531935 0.380761 -0.003729 76 0 153
-0.434863 0.550277 0.047901 76 0 153
0.154799 -0.734391 0.479027 0 127 127
0.177092 0.623026 -0.244195 76 0 153
-0.112736 -0.178012 -0.395179 0 255 0
0.234326 -0.346660 0.333994 76 153 0
-0.252384 -0.143448 0.218443 255 0 0
0.045843 0.214983 -0.159809 76 0 153
-0.430292 0.611657 -0.229396 76 0 153
-0.502151 -0.301649 -0.282819 76 0 153
-0.125855 0.162698 -0.201251 76 0 153
-0.104395 -0.558845 0.279414 76 153 0
0.058227 -0.407390 -0.249810 76 0 153
-0.194199 -0.142682 0.153363 255 0 0
-0.185665 -0.144003 0.199736 255 0 0
-0.144648 -0.093680 -0.353433 0 255 0
0.321558 0.132455 0.007344 76 0 153
0.090338 -0.366981 -0.259165 76 0 153
-0.059523 0.032960 -0.074971 76 0 153
-0.218318 -0.734391 0.535162 0 127 127
0.522774 0.044588 -0.252778 76 0 153
0.387496 -0.285906 0.411482 76 153 0
0.024215 0.194792 -0.173747 76 0 153
-0.353845 -0.143333 0.175313 255 0 0
0.257765 -0.140260 0.117660 255 0 0
-0.343977 -0.033992 -0.169958 76 0 153
0.466806 -0.037490 -0.287248 76 0 153
0.060776 0.606225 0.025267 76 0 153
0.526548 0.748638 -0.091162 76 0 153
-0.489003 -0.082555 0.545742 255 0 0
-0.282036 -0.276519 0.432538 76 153 0
-0.531935 0.628408 -0.031785 76 0 153
0.029593 -0.138853 0.676345 255 0 0
-0.397138 -0.734391 -0.340279 153 0 76
0.544779 0.709135 -0.306073 76 0 153
0.457756 0.670955 -0.016832 76 0 153
0.132903 0.707714 -0.048025 76 0 153
0.071709 0.336193 -0.116493 76 0 153
-0.255105 -0.734391 -0.372270 153 0 76
-0.466498 -0.082315 -0.227735 76 0 153
-0.298394 0.316712 -0.118453 76 0 153
-0.172365 0.149537 -0.208702 76 0 153
-0.107902 0.151392 0.019660 76 0 153
-0.522130 -0.063079 -0.297995 76 0 153
-0.033569 -0.684581 -0.281287 76 0 153
0.375685 -0.144177 0.681525 255 0 0
-0.143852 0.308377 0.072418 76 0 153
-0.531935 0.427092 -0.025103 76 0 153
-0.214883 -0.136459 0.078028 255 0 0
0.456717 -0.082379 -0.307030 76 0 153
-0.401857 -0.143857 0.192939 255 0 0
0.243005 -0.691004 -0.283968 76 0 153
-0.159165 -0.143899 0.194351 255 0 0
-0.009419 -0.364084 -0.260084 76 0 153
-0.256858 0.592435 0.032770 76 0 153
-0.416125 -0.661729 0.318851 76 153 0
0.007968 0.315495 -0.118576 76 0 153
-0.489531 -0.138790 0.676284 255 0 0
-0.129169 -0.001011 -0.112443 76 0 153
-0.121417 -0.734391 -0.348675 153 0 76
0.183856 -0.057859 -0.220812 76 0 153
-0.092195 -0.249768 0.595363 255 0 0
0.189949 -0.003430 -0.116662 76 0 153
-0.354099 0.320874 -0.118034 76 0 153
0.523755 -0.061654 -0.234042 76 0 153
0.146683 0.359635 0.078318 76 0 153
-0.503189 -0.718551 -0.297744 153 0 76
0.379961 -0.254212 -0.325592 76 0 153
0.159333 -0.213417 0.662916 255 0 0
-0.462298 -0.082315 -0.146552 255 0 0
0.388112 -0.032798 -0.167875 76 0 153
0.166929 -0.714907 -0.295828 153 0 76
0.058138 -0.325886 -0.272701 76 0 153
0.392180 -0.090970 -0.348673 0 255 0
0.496516 -0.734391 -0.377955 153 0 76
0.210712 -0.666347 0.322811 76 153 0
-0.404925 -0.136565 0.674095 255 0 0
0.240398 -0.135056 0.068639 255 0 0
0.063811 0.830063 -0.241614 76 0 153
0.121520 -0.535606 0.277265 76 153 0
0.545115 0.365348 0.053765 76 0 153
0.240333 -0.734391 0.494349 0 127 127
0.006363 -0.522714 0.276072 76 153 0
0.176965 -0.372346 0.317973 76 153 0
-0.507471 -0.467162 0.280711 76 153 0
0.164608 -0.084208 -0.138649 255 0 0
-0.023094 0.812753 -0.306073 76 0 153
0.545115 0.574135 -0.093355 76 0 153
0.274215 -0.286731 0.409631 76 153 0
0.545115 0.229024 -0.032926 76 0 153
0.545115 0.082604 -0.143804 76 0 153
-0.435220 -0.562165 -0.246743 76 0 153
-0.412112 -0.223891 0.649832 255 0 0
0.539771 -0.292158 0.397457 76 153 0
0.299559 -0.102683 -0.082824 255 0 0
-0.273677 0.289354 -0.126596 76 0 153
0.132087 0.658859 -0.306073 76 0 153
0.494647 -0.728298 -0.302869 153 0 76
-0.015737 0.756191 -0.306073 76 0 153
-0.082859 -0.007441 -0.123656 76 0 153
0.144924 0.789033 -0.150433 76 0 153
0.023140 -0.734391 0.509224 0 127 127
0.301518 -0.279060 0.426837 76 153 0
-0.242477 0.719828 -0.060795 76 0 153
0.471476 -0.137566 -0.389934 0 255 0
-0.121848 0.427984 -0.117796 76 0 153
0.243709 0.729364 -0.306073 76 0 153
0.256439 -0.331298 -0.270486 76 0 153
0.201664 -0.719513 0.371343 0 127 127
-0.322446 -0.712109 -0.294357 76 0 153
0.538775 -0.083634 -0.325902 76 0 153
-0.174141 0.371659 -0.112924 76 0 153
0.106575 -0.395347 0.304787 76 153 0
-0.500953 -0.734391 -0.393757 153 0 76
0.391999 0.841360 -0.280999 76 0 153
0.302280 -0.082315 -0.293909 76 0 153
0.150920 0.327140 -0.117404 76 0 153
0.336578 0.037053 -0.255942 76 0 153
-0.388858 -0.234338 -0.366981 0 255 0
0.229979 -0.734391 0.448030 0 127 127
-0.189305 0.001606 -0.108020 76 0 153
0.425096 -0.715110 -0.295935 153 0 76
-0.163326 -0.082315 -0.280807 76 0 153
-0.349878 -0.050324 -0.292638 76 0 153
0.377938 0.281986 -0.128886 76 0 153
-0.503215 -0.410121 -0.249202 76 0 153
0.540408 -0.111800 0.447074 255 0 0
-0.458700 -0.734391 0.437931 0 127 127
-0.180904 0.821428 -0.211510 76 0 153
-0.037202 0.585299 0.035331 76 0 153
0.304879 -0.168968 0.688898 255 0 0
-0.158983 0.841005 -0.279760 76 0 153
-0.242311 -0.450678 0.284276 76 153 0
0.545115 0.542250 0.028746 76 0 153
-0.135154 -0.554438 0.279007 76 153 0
0.325277 0.334067 -0.116707 76 0 153
0.105815 0.034441 -0.073410 76 0 153
-0.495939 0.843408 -0.288139 76 0 153
0.341086 -0.731753 0.391492 0 127 127
0.508424 0.552157 -0.170079 76 0 153
-0.124226 0.088172 -0.234474 76 0 153
-0.530585 -0.295312 0.390488 76 153 0
0.500369 0.806311 -0.180563 76 0 153
0.450357 -0.249320 0.596983 76 153 0
-0.531935 0.300204 0.039462 76 0 153
0.495734 -0.122266 0.402452 255 0 0
-0.150419 -0.648061 -0.267141 76 0 153
0.397187 -0.130336 0.360546 255 0 0
0.533612 0.320709 -0.118051 76 0 153
-0.367997 0.576560 0.038468 76 0 153
-0.390529 0.722111 -0.306073 76 0 153
-0.392798 -0.208407 0.668368 255 0 0
0.442482 0.016358 -0.264634 76 0 153
-0.424529 -0.088863 0.590446 255 0 0
0.545058 -0.082315 -0.166413 76 0 153
0.519722 -0.107664 -0.064601 255 0 0
0.498281 -0.088925 0.522296 255 0 0
0.075313 0.192301 -0.175881 76 0 153
0.285816 0.653717 -0.005621 76 0 153
-0.012897 0.402373 0.078805 76 0 153
-0.485437 -0.138849 0.295757 255 0 0
-0.504798 -0.375667 0.316069 76 153 0
0.123281 0.213631 -0.160554 76 0 153
0.545115 0.646686 -0.167612 76 0 153
0.405154 0.476407 -0.131113 76 0 153
0.517387 -0.418445 0.291545 76 153 0
0.005606 -0.734391 -0.364359 153 0 76
0.491073 0.354662 0.077746 76 0 153
0.426804 -0.055221 -0.294694 76 0 153
0.545115 -0.020260 -0.178546 76 0 153
-0.524358 0.841856 -0.282729 76 0 153
0.451754 0.623622 -0.244970 76 0 153
-0.041993 -0.143381 0.220693 255 0 0
-0.269927 -0.734391 0.417115 0 127 127
0.371792 -0.042026 -0.289153 76 0 153
0.392861 -0.138632 0.099422 255 0 0
-0.518113 -0.082315 -0.259591 76 0 153
0.379453 -0.734391 -0.396270 153 0 76
0.231518 0.012665 -0.266185 76 0 153
-0.188389 -0.127871 0.021764 255 0 0
-0.375731 -0.518191 -0.242576 76 0 153
-0.073515 0.340277 0.076090 76 0 153
0.098138 0.735687 -0.306073 76 0 153
0.218785 -0.734391 -0.371987 153 0 76
-0.320987 -0.433220 -0.246018 76 0 153
0.115729 -0.146879 -0.393450 0 255 0
-0.469741 -0.082315 -0.176577 76 0 153
0.536870 0.633230 -0.260552 76 0 153
0.457120 -0.372876 -0.257501 76 0 153
-0.101163 0.837674 -0.268149 76 0 153
0.411537 -0.734391 0.517632 0 127 127
-0.331320 -0.136192 0.321365 255 0 0
0.510001 -0.085679 0.575314 255 0 0
-0.025586 0.086698 -0.235093 76 0 153
-0.424457 -0.384203 -0.254977 76 0 153
0.433614 -0.340569 0.340696 76 153 0
0.483766 0.785735 -0.144681 76 0 153
0.361913 -0.215060 0.661128 255 0 0
0.478382 -0.529868 0.276734 76 153 0
-0.245536 0.508551 0.062877 76 0 153
-0.531935 0.721365 -0.299071 76 0 153
-0.200742 0.374928 -0.112595 76 0 153
0.161944 0.086931 -0.022264 76 0 153
0.267322 -0.182994 -0.394513 0 255 0
-0.200267 0.245876 0.058638 76 0 153
0.124772 0.586046 -0.199121 76 0 153
-0.032777 0.007142 -0.268504 76 0 153
-0.531935 0.228134 0.029187 76 0 153
0.022548 0.347158 -0.115389 76 0 153
0.023237 -0.008151 -0.124894 76 0 153
0.393424 0.414521 -0.116441 76 0 153
0.214566 -0.479090 -0.242253 76 0 153
-0.043258 -0.006554 -0.122111 76 0 153
-0.005537 -0.085512 0.574422 255 0 0
0.112614 -0.123375 0.000422 255 0 0
-0.115826 -0.098521 0.493899 255 0 0
0.382725 -0.097609 -0.098988 255 0 0
-0.282383 0.568240 -0.183862 76 0 153
0.545115 0.529716 -0.126716 76 0 153
-0.323058 0.327876 0.074662 76 0 153
0.041868 -0.348746 -0.264951 76 0 153
0.015302 0.067237 -0.038841 76 0 153
-0.429897 -0.082315 -0.153017 255 0 0
-0.231295 -0.120480 0.410931 255 0 0
0.409388 -0.375786 -0.256852 76 0 153
0.326710 0.611274 0.021983 76 0 153
0.161875 0.049286 -0.250805 76 0 153
0.049514 0.659260 -0.009226 76 0 153
0.545115 0.060135 -0.178074 76 0 153
0.208951 -0.144131 -0.392708 0 255 0
0.217871 -0.576844 0.281079 76 153 0
-0.531935 0.160270 -0.080175 76 0 153
0.392066 0.704809 -0.044964 76 0 153
-0.270772 -0.241915 -0.356515 0 255 0
-0.033831 -0.082315 -0.223973 76 0 153
0.072826 -0.469939 0.280111 76 153 0
0.545115 0.475273 -0.101308 76 0 153
0.359951 0.571621 0.040240 76 0 153
-0.094509 0.513819 -0.147444 76 0 153
0.440452 -0.116965 -0.030011 255 0 0
0.515775 0.590712 0.033388 76 0 153
0.306762 -0.130606 0.667954 255 0 0
-0.013147 -0.677185 0.332104 76 153 0
0.474982 0.835938 -0.262094 76 0 153
0.303648 0.811039 -0.188806 76 0 153
0.430614 -0.188893 0.684194 255 0 0
-0.375391 -0.130207 0.361407 255 0 0
-0.372153 0.222065 -0.155904 76 0 153
0.545115 0.731171 -0.281739 76 0 153
-0.449327 0.811903 -0.306073 76 0 153
-0.365828 0.747896 -0.090381 76 0 153
0.545115 0.144542 -0.189873 76 0 153
0.162195 0.197463 -0.171458 76 0 153
-0.187485 -0.255481 0.555420 76 153 0
-0.226454 -0.721629 0.374825 0 127 127
0.151668 -0.734391 -0.342028 153 0 76
-0.379973 -0.714387 0.364005 0 127 127
-0.097820 -0.141381 0.267391 255 0 0
-0.173166 0.611798 -0.229580 76 0 153
0.097547 0.650829 -0.003742 76 0 153
-0.220913 0.116420 -0.003085 76 0 153
-0.168547 0.047429 -0.059720 76 0 153
0.316085 -0.103635 0.476949 255 0 0
-0.143000 0.294447 -0.125013 76 0 153
-0.034977 0.115566 -0.003640 76 0 153
-0.057192 0.601300 -0.215915 76 0 153
0.096206 0.840089 -0.276566 76 0 153
0.212783 0.437023 0.074816 76 0 153
0.172402 -0.490469 -0.241754 76 0 153
-0.330628 0.247050 -0.142129 76 0 153
0.050652 -0.013586 -0.277209 76 0 153
-0.129036 0.071903 -0.033923 76 0 153
0.264763 0.026680 -0.260298 76 0 153
0.139936 0.485457 -0.133927 76 0 153
-0.531935 0.519022 0.049644 76 0 153
0.140988 0.557579 -0.174726 76 0 153
0.167719 0.482173 -0.132906 76 0 153
-0.057298 0.529114 0.055497 76 0 153
-0.193920 0.301519 0.071628 76 0 153
-0.531545 0.624895 -0.246627 76 0 153
-0.261669 0.345124 -0.115594 76 0 153
-0.139537 -0.476086 0.278781 76 153 0
-0.150462 -0.528682 -0.243036 76 0 153
-0.249927 0.133057 -0.215624 76 0 153
0.545115 0.537052 -0.072840 76 0 153
0.481176 -0.582439 0.282411 76 153 0
0.461383 0.253622 -0.138505 76 0 153
-0.025198 0.056928 -0.049707 76 0 153
0.202680 -0.129737 0.033056 255 0 0
-0.457217 0.806123 -0.180235 76 0 153
0.211148 0.074307 -0.240296 76 0 153
0.085347 -0.039883 -0.288253 76 0 153
-0.315418 0.202851 -0.166840 76 0 153
0.422863 -0.086172 -0.132836 255 0 0
-0.115519 -0.361125 0.324406 76 153 0
-0.136038 -0.479318 -0.242243 76 0 153
-0.527315 -0.711366 -0.293966 76 0 153
0.139849 -0.503499 -0.241932 76 0 153
-0.099805 -0.085475 -0.333524 76 0 153
0.540854 -0.335320 0.346471 76 153 0
0.300226 -0.117933 -0.379509 0 255 0
-0.209313 0.514701 -0.147930 76 0 153
0.236019 -0.142792 0.157063 255 0 0
-0.349612 -0.115933 0.649161 255 0 0
-0.435469 0.666316 -0.306073 76 0 153
0.541084 -0.464397 -0.242897 76 0 153
0.027817 -0.107956 -0.063531 255 0 0
-0.365077 -0.074352 -0.278311 76 0 153
-0.000480 0.244737 -0.143404 76 0 153
0.446761 0.355978 -0.114502 76 0 153
0.424320 -0.306062 -0.280977 76 0 153
0.209187 -0.141894 0.679337 255 0 0
0.351653 -0.278704 0.427636 76 153 0
0.371091 -0.141395 0.130369 255 0 0
0.222979 0.842938 -0.306073 76 0 153
0.482631 0.556636 -0.173918 76 0 153
-0.345161 -0.628624 -0.260974 76 0 153
0.099576 -0.141926 0.261287 255 0 0
-0.425916 -0.122824 -0.383383 0 255 0
0.381996 0.680978 -0.306073 76 0 153
-0.248420 0.307687 0.072338 76 0 153
-0.084821 0.702215 -0.306073 76 0 153
-0.377158 -0.163879 -0.395723 0 255 0
-0.160719 0.510058 -0.145370 76 0 153
0.545115 0.800184 -0.230660 76 0 153
0.093746 0.306577 0.072210 76 0 153
-0.430968 -0.340415 -0.267594 76 0 153
-0.213425 -0.040041 -0.180505 76 0 153
0.206295 -0.699235 0.351013 0 127 127
0.045268 0.612327 -0.230267 76 0 153
0.504682 0.284385 -0.128141 76 0 153
0.450689 0.385279 0.080773 76 0 153
-0.049172 -0.139360 0.107577 255 0 0
-0.301163 0.561304 0.043943 76 0 153
-0.357549 -0.731527 -0.304567 153 0 76
-0.224889 -0.266934 -0.300067 76 0 153
-0.054621 0.242572 -0.144597 76 0 153
0.027947 -0.395500 -0.252460 76 0 153
-0.435086 0.666645 -0.014029 76 0 153
-0.391456 0.591550 -0.203839 76 0 153
0.520110 0.002071 -0.107530 76 0 153
-0.310972 -0.117927 -0.025439 255 0 0
-0.309332 -0.143466 0.179777 255 0 0
0.361319 -0.103760 -0.078885 255 0 0
-0.197713 0.593921 0.032237 76 0 153
0.467019 0.823666 -0.219310 76 0 153
0.384970 -0.446767 0.285122 76 153 0
0.257610 -0.080956 -0.305502 76 0 153
-0.038973 -0.692827 0.345517 0 127 127
0.370295 -0.648860 -0.267395 76 0 153
0.320733 -0.414195 -0.248534 76 0 153
0.227887 -0.426465 -0.246912 76 0 153
0.520582 -0.441803 -0.244884 76 0 153
-0.531935 0.020103 -0.205725 76 0 153
0.545115 0.793581 -0.271799 76 0 153
-0.212646 -0.734391 0.402176 0 127 127
-0.499476 -0.487901 -0.241866 76 0 153
-0.260637 -0.116130 -0.033624 255 0 0
0.127945 0.157389 0.023561 76 0 153
0.165181 0.779600 -0.133983 76 0 153
0.164590 0.709814 -0.306073 76 0 153
0.416453 0.053124 -0.249193 76 0 153
-0.371828 -0.734391 -0.391691 153 0 76
-0.408054 -0.734391 -0.378532 153 0 76
-0.333149 -0.629599 0.302266 76 153 0
-0.513462 -0.734391 -0.325607 153 0 76
-0.472898 0.076483 -0.239383 76 0 153
-0.531935 0.096255 -0.151690 76 0 153
-0.511716 -0.033610 -0.169291 76 0 153
0.016540 -0.256792 0.525889 76 153 0
-0.164013 -0.086020 0.530894 255 0 0
0.374280 0.007618 -0.268304 76 0 153
-0.324509 0.397635 -0.114742 76 0 153
-0.339833 -0.397942 0.303299 76 153 0
-0.370360 0.465315 0.071559 76 0 153
-0.511155 0.645668 -0.286607 76 0 153
0.343549 0.137793 -0.213634 76 0 153
0.120503 0.338637 0.075901 76 0 153
0.039881 -0.594159 -0.252406 76 0 153
0.443043 0.169438 0.031204 76 0 153
-0.220578 -0.488333 -0.241847 76 0 153
0.232807 -0.309892 -0.279379 76 0 153
0.384414 -0.066567 -0.251171 76 0 153
-0.247540 -0.199143 0.677239 255 0 0
-0.465884 -0.569996 0.280446 76 153 0
0.198522 0.418232 -0.116814 76 0 153
0.545115 0.128476 -0.107413 76 0 153
0.494932 -0.056941 -0.217612 76 0 153
0.327795 0.411729 0.077728 76 0 153
0.472732 -0.560041 0.279525 76 153 0
0.118786 -0.438479 -0.245323 76 0 153
0.197549 -0.413829 -0.248582 76 0 153
-0.328526 0.173520 -0.191977 76 0 153
0.123306 -0.082315 -0.238267 76 0 153
0.321841 -0.082315 -0.223551 76 0 153
-0.382051 -0.581326 0.281942 76 153 0
-0.133413 0.362065 -0.113889 76 0 153
0.455327 -0.235238 -0.365738 0 255 0
-0.098177 -0.551968 -0.245395 76 0 153
-0.280727 0.745750 -0.088118 76 0 153
0.453266 -0.258558 0.507662 76 153 0
0.325179 0.177807 -0.188302 76 0 153
-0.518532 0.309960 0.072600 76 0 153
-0.141396 0.207918 0.045014 76 0 153
0.536779 0.259214 -0.135965 76 0 153
-0.318818 -0.305711 -0.281124 76 0 153
0.097645 0.327579 -0.117360 76 0 153
-0.262254 0.265242 -0.134091 76 0 153
-0.392969 -0.267262 0.453302 255 0 0
-0.530915 -0.216650 0.659368 255 0 0
0.049952 -0.110537 0.640409 255 0 0
0.545115 0.522331 -0.019476 76 0 153
-0.109183 -0.242095 -0.356266 0 255 0
0.225920 -0.368701 -0.258620 76 0 153
-0.258539 -0.700501 0.352098 76 153 0
-0.349288 -0.091190 -0.349279 76 0 153
-0.240390 -0.066895 -0.252315 76 0 153
0.432908 -0.142972 0.234482 255 0 0
-0.101290 -0.584480 -0.250249 76 0 153
0.334686 0.675210 -0.306073 76 0 153
0.457100 -0.411470 0.295544 76 153 0
-0.531935 0.227022 -0.013372 76 0 153
-0.505230 0.200009 0.042176 76 0 153
-0.467924 -0.703752 0.354885 0 127 127
0.483681 0.847133 -0.306073 76 0 153
-0.512580 -0.110039 -0.373257 0 255 0
-0.469289 -0.105065 -0.369160 0 255 0
0.151150 0.008827 -0.267796 76 0 153
0.266727 0.336957 -0.116416 76 0 153
-0.026972 0.651156 -0.298103 76 0 153
-0.416138 0.775960 -0.127635 76 0 153
-0.172696 0.066405 -0.243615 76 0 153
0.285849 -0.734391 -0.339401 153 0 76
-0.055183 -0.548234 -0.244901 76 0 153
0.041319 0.453910 -0.124120 76 0 153
0.331635 0.626092 -0.248186 76 0 153
-0.057141 -0.011416 -0.276298 76 0 153
0.354918 0.252680 0.061080 76 0 153
-0.531935 0.614776 0.017686 76 0 153
-0.307082 -0.103882 -0.367526 0 255 0
0.175397 -0.348452 -0.265044 76 0 153
-0.211769 0.278996 -0.129816 76 0 153
0.366511 -0.143673 0.186758 255 0 0
0.376493 -0.059695 -0.227212 76 0 153
-0.470011 -0.130500 0.359447 255 0 0
0.430330 0.221606 -0.156157 76 0 153
0.040028 -0.082315 -0.301111 76 0 153
-0.265857 -0.142713 0.243182 255 0 0
0.168387 -0.631923 0.303244 76 153 0
-0.132614 -0.054967 -0.210730 76 0 153
-0.195931 0.757330 -0.306073 76 0 153
0.473459 0.212141 -0.161376 76 0 153
0.302919 -0.734391 -0.374949 153 0 76
-0.194626 0.570324 -0.185648 76 0 153
0.545115 -0.068877 -0.293640 76 0 153
-0.033267 0.179141 -0.187159 76 0 153
-0.476255 -0.282014 -0.292138 76 0 153
-0.261630 -0.082315 -0.215449 76 0 153
0.256722 -0.718848 -0.297901 153 0 76
0.516788 0.267888 0.066539 76 0 153
-0.405112 0.208545 0.045240 76 0 153
-0.479984 0.376861 0.080302 76 0 153
-0.407382 0.602540 0.027664 76 0 153
0.521313 0.067992 -0.038045 76 0 153
-0.318541 0.536365 -0.159875 76 0 153
-0.168838 -0.267578 0.452594 76 153 0
0.361422 -0.144591 -0.392902 0 255 0
-0.145121 -0.084686 -0.331349 76 0 153
0.330957 -0.734391 -0.401092 153 0 76
0.491721 0.316693 0.073375 76 0 153
-0.483661 -0.104356 0.630151 255 0 0
0.273293 0.373703 -0.112718 76 0 153
-0.273884 0.062219 -0.044130 76 0 153
0.330015 -0.128869 0.027247 255 0 0
0.424537 0.692242 -0.306073 76 0 153
0.424375 -0.565241 -0.247150 76 0 153
-0.232046 0.425058 -0.117501 76 0 153
0.413405 -0.138227 -0.390213 0 255 0
0.203434 -0.112635 0.643813 255 0 0
-0.406783 0.004540 -0.269597 76 0 153
0.307889 0.511747 -0.146301 76 0 153
0.428962 -0.262851 0.463361 76 153 0
0.425191 -0.181627 -0.394696 0 255 0
0.306082 0.205747 -0.164901 76 0 153
-0.360842 0.455947 -0.124754 76 0 153
-0.481524 -0.248156 0.601185 255 0 0
0.335311 0.543805 -0.163977 76 0 153
-0.372161 -0.327734 0.354817 76 153 0
-0.002942 -0.005507 -0.120284 76 0 153
-0.212404 -0.473357 0.279371 76 153 0
-0.531935 0.282086 -0.104864 76 0 153
-0.416842 -0.106756 -0.067921 255 0 0
-0.461361 -0.283606 0.416640 76 153 0
-0.300544 -0.060084 -0.228568 76 0 153
-0.068272 0.783936 -0.141545 76 0 153
0.343549 -0.063084 -0.297997 76 0 153
0.522225 0.099410 -0.014148 76 0 153
-0.221048 0.788790 -0.150009 76 0 153
0.049674 -0.082315 -0.211871 76 0 153
0.353050 -0.101025 -0.363580 0 255 0
-0.223678 -0.246937 -0.348450 0 255 0
-0.437889 -0.086905 -0.337466 76 0 153
0.257027 0.160169 -0.203419 76 0 153
-0.398954 0.013612 -0.095366 76 0 153
0.276910 -0.361117 0.324411 76 153 0
-0.244818 0.491326 -0.135751 76 0 153
-0.122082 -0.082315 -0.258325 76 0 153
0.203966 -0.143786 0.207057 255 0 0
0.183669 -0.142412 0.253334 255 0 0
-0.318358 0.178933 0.034611 76 0 153
0.119356 -0.436466 0.287349 76 153 0
-0.287742 -0.045363 -0.189786 76 0 153
-0.531935 0.265286 0.063971 76 0 153
0.369826 -0.084652 0.534942 255 0 0
0.032255 -0.128491 0.024717 255 0 0
-0.108407 0.671908 -0.017452 76 0 153
0.017177 0.574459 0.039222 76 0 153
0.055751 0.823910 -0.220164 76 0 153
0.030141 -0.454959 -0.243310 76 0 153
-0.477542 -0.222518 -0.377430 0 255 0
0.492437 0.771760 -0.120311 76 0 153
0.069397 0.464325 -0.127358 76 0 153
-0.429300 -0.084049 0.566607 255 0 0
0.500284 -0.028339 -0.160098 76 0 153
-0.148228 -0.129802 0.364123 255 0 0
-0.218665 -0.407207 0.297988 76 153 0
0.049070 0.838148 -0.306073 76 0 153
0.335266 0.602644 -0.217664 76 0 153
-0.131712 -0.106752 0.634269 255 0 0
0.188557 0.837800 -0.268586 76 0 153
-0.306127 -0.141144 0.270054 255 0 0
0.160218 -0.734391 0.502758 0 127 127
0.441000 0.452258 0.073063 76 0 153
0.426577 -0.527004 -0.242962 76 0 153
0.324949 -0.180841 -0.394801 0 255 0
0.183060 -0.082315 -0.278709 76 0 153
-0.280670 0.360559 -0.114041 76 0 153
-0.184629 0.625814 -0.247824 76 0 153
-0.053442 -0.064032 -0.242332 76 0 153
0.227385 -0.096140 -0.356831 76 0 153
0.150415 -0.140669 0.275371 255 0 0
-0.531935 0.188631 -0.040782 76 0 153
0.210188 0.249958 -0.140525 76 0 153
-0.041317 -0.654692 0.312830 76 153 0
0.453184 -0.642700 0.307781 76 153 0
0.314036 -0.539683 -0.243771 76 0 153
0.172145 -0.103351 -0.080380 255 0 0
-0.359134 0.158090 0.024017 76 0 153
-0.393635 -0.097813 0.615908 255 0 0
-0.041867 0.737223 -0.306073 76 0 153
0.142800 -0.254115 0.574343 76 153 0
0.082529 0.717590 -0.306073 76 0 153
-0.470650 0.831662 -0.247187 76 0 153
0.491042 0.183078 0.036099 76 0 153
0.133361 -0.091099 0.515863 255 0 0
0.262168 -0.399453 0.302433 76 153 0
-0.279650 -0.105536 0.632297 255 0 0
0.288546 -0.433819 0.287922 76 153 0
-0.282646 -0.632496 0.303485 76 153 0
-0.447945 -0.390707 -0.253528 76 0 153
-0.467156 0.354912 0.077775 76 0 153
0.082158 -0.222827 -0.377186 0 255 0
-0.492338 -0.608615 -0.255627 76 0 153
0.545115 0.353027 -0.023728 76 0 153
-0.249671 0.227037 0.051877 76 0 153
0.277412 -0.262082 0.471302 76 153 0
-0.324191 -0.734391 -0.395218 153 0 76
0.148638 -0.010030 -0.128171 76 0 153
0.210097 -0.082963 -0.315811 76 0 153
-0.505284 0.008814 -0.267802 76 0 153
-0.440136 -0.734391 -0.372500 153 0 76
0.054590 -0.420955 0.290704 76 153 0
0.116880 -0.113868 0.439511 255 0 0
0.545115 0.512477 -0.080833 76 0 153
-0.229475 -0.718239 -0.297580 153 0 76
0.208584 0.617991 0.017614 76 0 153
0.129894 0.297961 -0.123920 76 0 153
-0.350126 0.093792 -0.232114 76 0 153
-0.480740 -0.560913 -0.246578 76 0 153
0.312473 0.786395 -0.145832 76 0 153
0.260493 -0.107934 -0.371590 0 255 0
0.256828 -0.094735 -0.107493 255 0 0
0.016697 -0.614021 0.295707 76 153 0
0.383312 0.638271 0.004425 76 0 153
0.492918 0.691467 -0.306073 76 0 153
-0.193559 0.370405 0.079558 76 0 153
0.023057 0.121867 -0.220323 76 0 153
-0.310431 -0.278801 -0.293827 76 0 153
0.059424 0.166080 0.029213 76 0 153
-0.018748 -0.446555 -0.244255 76 0 153
0.055242 -0.259562 0.497302 76 153 0
0.374244 -0.726170 0.382300 0 127 127
0.340076 -0.368825 -0.258580 76 0 153
-0.314775 -0.251609 -0.335567 76 0 153
-0.494912 0.250636 -0.140151 76 0 153
0.231831 -0.575701 -0.248533 76 0 153
0.205184 0.608723 -0.225577 76 0 153
-0.469004 -0.523943 -0.242828 76 0 153
-0.017615 -0.126533 -0.385272 0 255 0
-0.175809 0.015073 -0.093826 76 0 153
-0.399887 -0.082749 0.548872 255 0 0
0.502993 0.808814 -0.306073 76 0 153
0.492010 -0.083411 0.559597 255 0 0
0.509289 -0.536694 -0.243387 76 0 153
0.545115 0.426883 0.013392 76 0 153
0.152126 -0.387099 0.309515 76 153 0
0.276522 0.729237 -0.070712 76 0 153
-0.131978 -0.092563 0.602075 255 0 0
-0.020427 -0.642298 -0.265313 76 0 153
0.191801 0.235035 0.054747 76 0 153
0.365300 0.379022 0.080550 76 0 153
0.011050 -0.420728 0.290753 76 153 0
0.419674 -0.432901 -0.246061 76 0 153
0.253567 0.704671 -0.044818 76 0 153
0.329906 -0.127921 0.664589 255 0 0
0.464857 -0.115313 0.648157 255 0 0
0.252561 0.771476 -0.306073 76 0 153
-0.389375 -0.131770 0.046653 255 0 0
0.437210 -0.272269 -0.297262 76 0 153
0.451006 -0.093942 0.507449 255 0 0
0.520107 -0.687126 0.340628 76 153 0
0.358122 -0.575317 0.280938 76 153 0
-0.079588 -0.593654 -0.252293 76 0 153
0.442515 -0.511422 0.275028 76 153 0
0.382146 0.838471 -0.306073 76 0 153
-0.531935 0.665141 -0.016990 76 0 153
0.346246 0.752484 -0.306073 76 0 153
0.121478 0.399209 0.079170 76 0 153
-0.219729 0.288446 0.070123 76 0 153
0.348413 -0.143255 0.224925 255 0 0
0.197440 0.321719 0.073953 76 0 153
0.534162 -0.727221 -0.302303 76 0 153
-0.499076 -0.734391 0.435813 0 127 127
0.351145 -0.129519 0.366012 255 0 0
-0.432572 -0.249621 0.595894 255 0 0
0.448905 0.059265 -0.246614 76 0 153
0.329292 -0.165985 0.688760 255 0 0
-0.025892 -0.253257 0.579214 255 0 0
0.426382 -0.716248 0.365966 0 127 127
-0.400307 -0.089886 0.519452 255 0 0
0.197847 0.797329 -0.306073 76 0 153
0.073754 -0.635038 -0.263009 76 0 153
-0.337202 0.463938 -0.127237 76 0 153
-0.165973 0.792228 -0.306073 76 0 153
0.026210 0.430517 0.075565 76 0 153
-0.254354 -0.734391 0.511939 0 127 127
-0.196955 -0.083920 0.537110 255 0 0
-0.026754 0.562487 -0.178932 76 0 153
-0.002803 0.423250 -0.117319 76 0 153
-0.306682 0.847394 -0.302033 76 0 153
-0.382351 -0.195964 -0.391749 0 255 0
0.079885 -0.452619 -0.243454 76 0 153
0.159920 -0.288523 0.405612 76 153 0
0.452591 0.280676 0.069228 76 0 153
0.038139 -0.734391 0.463504 0 127 127
0.313091 0.294620 0.070834 76 0 153
0.153739 -0.241005 -0.357771 0 255 0
0.215208 -0.086783 0.528636 255 0 0
-0.513077 -0.445990 -0.244330 76 0 153
-0.531935 0.077301 -0.116927 76 0 153
0.524810 -0.082315 -0.211184 76 0 153
0.108005 -0.082315 -0.220061 76 0 153
-0.482358 0.455081 0.072738 76 0 153
0.119890 -0.734391 0.521363 0 127 127
-0.443009 -0.734391 -0.347410 153 0 76
0.178997 0.648821 -0.002437 76 0 153
0.465625 -0.087828 -0.127935 255 0 0
0.545115 0.443175 0.056563 76 0 153
0.440444 0.191011 -0.176987 76 0 153
0.545115 0.326920 0.016426 76 0 153
0.133855 -0.166542 0.688787 255 0 0
0.456956 0.011077 -0.098038 76 0 153
-0.033090 -0.134522 0.332541 255 0 0
-0.060463 -0.272209 -0.297293 76 0 153
0.255685 -0.082833 0.550246 255 0 0
0.232824 -0.143262 0.224697 255 0 0
-0.038416 -0.419563 0.291005 76 153 0
0.457989 -0.567619 -0.247465 76 0 153
0.545115 0.433474 -0.067529 76 0 153
-0.531935 0.653448 -0.166978 76 0 153
0.148135 -0.734391 -0.389664 153 0 76
-0.408529 0.041424 -0.254106 76 0 153
-0.456551 0.351626 -0.114940 76 0 153
0.057534 0.766551 -0.306073 76 0 153
0.106967 -0.515043 -0.242438 76 0 153
-0.278551 0.093038 -0.018292 76 0 153
-0.404642 0.827066 -0.231165 76 0 153
-0.531935 0.349965 -0.072000 76 0 153
-0.187048 -0.375661 0.316073 76 153 0
0.448530 0.642446 -0.279857 76 0 153
-0.367635 -0.256547 0.528417 76 153 0
0.110354 -0.082510 -0.143673 255 0 0
0.353813 0.410750 -0.116061 76 0 153
-0.207050 -0.711250 0.361315 0 127 127
0.459716 -0.678497 -0.278747 76 0 153
0.112101 0.625598 -0.247542 76 0 153
0.309953 -0.407860 0.297613 76 153 0
0.020238 -0.138935 0.102819 255 0 0
0.409857 -0.082315 -0.274701 76 0 153
0.238637 -0.086744 -0.337022 76 0 153
-0.098560 -0.097341 -0.358490 76 0 153
0.475377 -0.042134 -0.184156 76 0 153
-0.254929 -0.549474 0.278547 76 153 0
-0.105153 -0.130824 0.040327 255 0 0
-0.019612 -0.082315 -0.267523 76 0 153
-0.531935 0.269555 -0.126440 76 0 153
-0.274974 0.142209 0.013688 76 0 153
0.005815 0.640678 -0.276153 76 0 153
0.310248 -0.389097 -0.253886 76 0 153
0.180747 -0.257794 0.515546 255 0 0
-0.473720 -0.168502 -0.396341 0 255 0
-0.105505 -0.108268 0.460000 255 0 0
0.545043 -0.591316 0.286148 76 153 0
0.132833 -0.083275 -0.320499 76 0 153
-0.365099 -0.174306 0.688540 255 0 0
0.303289 0.626476 0.012096 76 0 153
0.545115 0.608531 -0.072879 76 0 153
0.543189 -0.143216 0.171350 255 0 0
-0.332525 0.672833 -0.306073 76 0 153
-0.336657 -0.118558 0.420053 255 0 0
0.529893 0.111079 -0.224854 76 0 153
-0.313160 -0.132895 0.054183 255 0 0
-0.324887 -0.074808 -0.279901 76 0 153
0.344813 -0.288528 0.405601 76 153 0
-0.510183 0.687525 -0.306073 76 0 153
-0.413926 0.460745 -0.126245 76 0 153
-0.296887 -0.082762 -0.312795 76 0 153
-0.412860 -0.356719 -0.262421 76 0 153
-0.273152 -0.014724 -0.277687 76 0 153
-0.404174 -0.142552 0.248623 255 0 0
-0.306542 -0.106734 0.465611 255 0 0
0.076124 -0.123295 0.000040 255 0 0
-0.221542 -0.144002 0.199784 255 0 0
0.110875 -0.082647 0.547227 255 0 0
0.344733 -0.734391 0.456029 0 127 127
0.107326 -0.112936 -0.045311 255 0 0
0.158260 -0.505197 0.274452 76 153 0
0.502707 -0.139070 0.676559 255 0 0
0.545115 0.158141 -0.034898 76 0 153
0.437226 -0.114476 0.437285 255 0 0
0.235802 0.004980 -0.104464 76 0 153
0.131674 0.632497 0.008180 76 0 153
0.175039 0.173013 0.032487 76 0 153
-0.216145 0.196585 0.040947 76 0 153
0.545115 0.325069 -0.028891 76 0 153
-0.130206 0.048793 -0.251012 76 0 153
-0.004756 0.381411 -0.113109 76 0 153
0.484006 -0.167620 0.688839 255 0 0
-0.334893 0.141731 -0.211981 76 0 153
0.138373 -0.374916 -0.257046 76 0 153
0.299417 -0.518514 -0.242590 76 0 153
-0.111305 0.105621 -0.010108 76 0 153
0.218756 -0.262860 0.463275 76 153 0
0.445285 -0.484509 0.276960 76 153 0
0.265497 -0.141817 0.262509 255 0 0
0.541321 -0.265233 0.457854 76 153 0
-0.332009 0.000130 -0.271449 76 0 153
0.430223 0.030170 -0.077912 76 0 153
0.443408 -0.638298 -0.264044 76 0 153
-0.373469 -0.034742 -0.286094 76 0 153
-0.457605 0.685120 -0.026045 76 0 153
0.544594 -0.091947 0.600137 255 0 0
-0.452470 -0.311791 0.372357 76 153 0
0.545115 0.712237 -0.256705 76 0 153
0.395265 -0.142996 0.233676 255 0 0
-0.280793 -0.065514 -0.247500 76 0 153
0.472569 -0.142683 0.153411 255 0 0
0.232110 0.807936 -0.306073 76 0 153
0.078445 0.158028 -0.205136 76 0 153
0.481402 -0.129077 0.368974 255 0 0
0.462007 -0.280659 0.423252 76 153 0
0.257217 0.023811 -0.084615 76 0 153
0.078747 -0.734391 0.539335 0 127 127
0.385270 0.826772 -0.230139 76 0 153
-0.057467 -0.084700 0.570087 255 0 0
0.296855 -0.192654 -0.393148 0 255 0
-0.339711 -0.180593 -0.394834 0 255 0
-0.182117 0.193431 0.039815 76 0 153
0.053139 -0.439114 -0.245239 76 0 153
0.516290 -0.200198 -0.389960 0 255 0
-0.445567 -0.131050 0.668510 255 0 0
-0.352872 -0.398927 -0.251696 76 0 153
0.128749 0.577745 0.038043 76 0 153
0.279847 -0.256995 0.523790 76 153 0
-0.500090 -0.124971 0.660892 255 0 0
0.517465 -0.113045 0.442521 255 0 0
0.304579 -0.218761 -0.380405 0 255 0
-0.317205 0.509556 -0.145093 76 0 153
0.160444 0.118330 -0.221808 76 0 153
-0.197394 0.079594 -0.238076 76 0 153
0.205049 -0.331685 -0.270363 76 0 153
0.032670 -0.261308 0.479282 255 0 0
0.045486 -0.276648 0.432248 76 153 0
-0.342121 -0.138433 0.300415 255 0 0
-0.357166 -0.281589 -0.292361 76 0 153
-0.361987 -0.328974 -0.271412 76 0 153
0.478955 -0.142979 0.234240 255 0 0
0.061455 0.028021 -0.259736 76 0 153
0.324827 -0.152683 -0.394226 0 255 0
-0.002541 0.842830 -0.286121 76 0 153
0.202409 -0.136800 0.317295 255 0 0
0.453786 -0.072413 -0.271552 76 0 153
-0.216971 -0.551945 0.278776 76 153 0
-0.154303 0.022908 -0.261883 76 0 153
0.057327 -0.068509 -0.257940 76 0 153
-0.302924 0.629552 -0.252848 76 0 153
-0.366444 -0.256194 -0.305714 76 0 153
0.518890 -0.122108 0.403204 255 0 0
0.150914 -0.143247 0.172418 255 0 0
-0.360042 0.360036 -0.114093 76 0 153
-0.073643 0.636079 0.005851 76 0 153
0.437164 0.333214 -0.116793 76 0 153
-0.272854 -0.423217 0.290215 76 153 0
-0.181328 0.690455 -0.029833 76 0 153
0.040892 -0.380957 0.313037 76 153 0
0.545115 0.273064 -0.053442 76 0 153
0.215488 0.805448 -0.179058 76 0 153
0.012640 0.054152 -0.248761 76 0 153
-0.176160 -0.376349 -0.256727 76 0 153
-0.486525 0.824075 -0.220738 76 0 153
-0.474999 0.370667 -0.113024 76 0 153
0.194382 -0.245446 -0.351637 0 255 0
0.516886 -0.206102 0.670877 255 0 0
-0.287796 -0.605384 0.292071 76 153 0
0.260643 -0.132775 0.670367 255 0 0
0.271967 -0.117868 0.423329 255 0 0
0.103428 0.001077 -0.108802 76 0 153
0.302104 -0.380815 0.313118 76 153 0
-0.380986 -0.437212 -0.245491 76 0 153
-0.522513 -0.141452 0.266595 255 0 0
0.190951 -0.465984 0.280966 76 153 0
0.545115 0.409813 0.054393 76 0 153
0.394414 0.181192 0.035422 76 0 153
0.005607 -0.175634 0.688345 255 0 0
-0.508967 -0.143356 0.176085 255 0 0
0.039465 0.745029 -0.087358 76 0 153
-0.448480 -0.035165 -0.172003 76 0 153
0.519574 0.151917 -0.207703 76 0 153
0.293720 -0.604598 0.291740 76 153 0
0.459190 -0.486498 -0.241928 76 0 153
-0.195000 0.207224 -0.164087 76 0 153
0.034508 -0.090414 0.517890 255 0 0
-0.303961 -0.546224 -0.244636 76 0 153
-0.215548 -0.278004 0.429207 76 153 0
0.351127 -0.365691 0.321788 76 153 0
-0.141890 -0.256457 0.529339 76 153 0
-0.295237 -0.138772 0.296620 255 0 0
0.545115 0.563065 -0.044686 76 0 153
-0.091024 0.440336 0.074435 76 0 153
0.365225 -0.082315 -0.258181 76 0 153
0.229032 0.647840 -0.001799 76 0 153
-0.516010 0.702029 -0.042033 76 0 153
-0.246132 -0.137530 0.087080 255 0 0
-0.034651 -0.202050 -0.389177 0 255 0
-0.358047 -0.449469 0.284537 76 153 0
0.263526 0.677508 -0.021095 76 0 153
0.115580 0.056057 -0.050625 76 0 153
0.333850 0.431920 -0.118192 76 0 153
-0.132262 0.821911 -0.213192 76 0 153
0.087287 -0.104433 0.474029 255 0 0
0.231832 -0.063082 -0.239022 76 0 153
0.387574 0.607242 0.024606 76 0 153
-0.197363 0.771011 -0.119005 76 0 153
0.054858 -0.734391 0.499982 0 127 127
0.261038 -0.267887 0.451900 76 153 0
0.523760 0.211169 -0.161912 76 0 153
-0.234829 -0.262439 0.467611 76 153 0
-0.116318 -0.260125 0.491490 255 0 0
-0.008896 -0.059447 -0.226346 76 0 153
-0.039297 0.542653 0.050637 76 0 153
0.080253 0.840117 -0.306073 76 0 153
-0.348717 0.293658 -0.125258 76 0 153
0.285153 -0.142789 0.156986 255 0 0
-0.299133 -0.052627 -0.293605 76 0 153
0.176724 -0.254875 -0.315633 76 0 153
-0.446089 0.834002 -0.255347 76 0 153
0.384547 0.028034 -0.080163 76 0 153
0.007004 -0.102725 0.480280 255 0 0
-0.289260 -0.085514 -0.134785 255 0 0
0.248909 0.055550 -0.248174 76 0 153
0.435163 -0.143120 0.168129 255 0 0
0.480720 0.485878 0.069192 76 0 153
-0.310877 0.470127 0.071005 76 0 153
0.159460 0.441839 -0.120368 76 0 153
-0.270651 -0.048904 -0.292042 76 0 153
0.104406 -0.658464 0.316051 76 153 0
0.220972 -0.052957 -0.203723 76 0 153
-0.340904 0.047615 -0.251506 76 0 153
-0.053883 -0.339831 -0.267779 76 0 153
-0.024441 -0.257070 -0.305254 76 0 153
-0.222003 -0.734391 0.490939 0 127 127
-0.119338 -0.137352 0.085083 255 0 0
0.026041 -0.535537 -0.243336 76 0 153
0.219971 0.052375 -0.249508 76 0 153
0.526639 0.620319 0.016100 76 0 153
-0.348529 -0.102108 0.482539 255 0 0
-0.255976 0.179020 0.034643 76 0 153
0.070495 0.581496 -0.195222 76 0 153
0.358925 0.354256 -0.114675 76 0 153
-0.250252 0.568631 0.041314 76 0 153
0.397068 -0.734391 0.535614 0 127 127
0.007814 -0.114051 0.646108 255 0 0
-0.278492 -0.107044 -0.066868 255 0 0
0.543800 -0.734391 -0.376718 153 0 76
-0.072037 -0.046176 -0.191204 76 0 153
0.108639 -0.507264 0.274643 76 153 0
-0.356582 -0.275794 0.434164 76 153 0
-0.148069 -0.308521 -0.279951 76 0 153
-0.040822 0.674946 -0.019428 76 0 153
0.545115 0.388207 -0.090277 76 0 153
0.113316 -0.028119 -0.159715 76 0 153
-0.272322 -0.093138 -0.352684 0 255 0
-0.365295 -0.365099 0.322128 76 153 0
-0.531935 0.030127 -0.124659 76 0 153
0.448545 -0.052872 -0.203425 76 0 153
-0.447967 -0.134225 0.334526 255 0 0
0.392905 0.468697 0.071170 76 0 153
0.205727 0.377033 -0.112668 76 0 153
0.255776 0.453562 -0.124012 76 0 153
0.522167 -0.131785 0.046759 255 0 0
0.430821 -0.082568 -0.309874 76 0 153
0.435220 -0.734391 0.405033 0 127 127
0.049349 -0.056554 -0.295254 76 0 153
-0.212750 0.000164 -0.110394 76 0 153
-0.095822 -0.143598 0.184235 255 0 0
-0.434628 -0.243620 -0.354159 0 255 0
0.030754 0.805635 -0.179384 76 0 153
-0.531935 0.542647 -0.052870 76 0 153
-0.217777 0.694986 -0.306073 76 0 153
0.273313 -0.734391 -0.384200 153 0 76
0.277716 0.539625 -0.161672 76 0 153
0.051534 -0.500720 -0.241810 76 0 153
0.381250 0.677788 -0.021277 76 0 153
-0.251061 0.042233 -0.253767 76 0 153
-0.531935 0.222157 -0.038587 76 0 153
-0.531935 0.624648 -0.078470 76 0 153
-0.218441 0.629036 -0.252018 76 0 153
-0.242688 -0.501509 0.274111 76 153 0
-0.131630 -0.140869 0.273129 255 0 0
0.545115 0.823934 -0.237373 76 0 153
0.351383 0.505581 -0.142901 76 0 153
0.041494 0.310573 0.072670 76 0 153
-0.468527 -0.638916 -0.264240 76 0 153
0.451480 -0.143970 0.200859 255 0 0
-0.251201 -0.278359 -0.294059 76 0 153
0.346955 0.841379 -0.281064 76 0 153
-0.381650 0.793706 -0.158582 76 0 153
0.544315 -0.169748 -0.396284 0 255 0
0.066933 -0.185667 0.685663 255 0 0
0.054780 0.280186 0.069172 76 0 153
0.090661 0.819130 -0.306073 76 0 153
0.506599 -0.598245 0.289065 76 153 0
0.274320 -0.432976 -0.246051 76 0 153
-0.257041 -0.366764 0.321173 76 153 0
0.392047 -0.231476 0.638281 255 0 0
-0.531935 0.650824 -0.248561 76 0 153
-0.136314 0.638539 -0.271674 76 0 153
0.389444 -0.082315 -0.205297 76 0 153
-0.531935 0.125255 -0.111762 76 0 153
-0.092347 -0.299002 0.386428 76 153 0
-0.040810 0.394575 -0.114434 76 0 153
-0.479294 0.727510 -0.068892 76 0 153
0.042059 -0.061590 -0.233821 76 0 153
