-0.032523 0.603074 -0.267807 0.300000 0.000000 0.600000
0.661717 -0.252423 0.297153 0.600000 0.300000 0.000000
-0.162151 -0.319650 0.354062 0.600000 0.300000 0.000000
0.561389 0.163723 0.354942 0.500000 0.500000 0.000000
-0.676788 -0.488360 0.240989 0.600000 0.300000 0.000000
-0.651917 0.294667 0.227232 0.500000 0.000000 0.500000
0.686480 0.000169 0.275329 0.500000 0.500000 0.000000
-0.187098 -0.244814 -0.267807 0.600000 0.300000 0.000000
0.516896 -0.556529 0.186516 0.600000 0.000000 0.300000
-0.528620 -0.380252 0.353941 0.600000 0.300000 0.000000
-0.414191 -0.062429 -0.267807 0.300000 0.000000 0.600000
0.228178 -0.078503 0.354942 0.600000 0.000000 0.300000
-0.647885 -0.424493 0.354296 0.600000 0.300000 0.000000
0.583528 -0.437600 -0.267807 0.600000 0.300000 0.000000
-0.724045 -0.003227 0.156425 0.500000 0.000000 0.500000
-0.560164 0.304533 -0.267807 0.300000 0.000000 0.600000
0.609141 -0.541323 -0.267807 0.600000 0.000000 0.300000
-0.506125 -0.576208 0.149126 0.300000 0.000000 0.600000
0.131924 0.444945 -0.267807 0.300000 0.000000 0.600000
-0.174867 0.123669 -0.267807 0.300000 0.000000 0.600000
-0.396618 -0.430417 -0.267807 0.600000 0.300000 0.000000
-0.314127 0.010490 -0.267807 0.300000 0.000000 0.600000
-0.561741 -0.216391 -0.267807 0.600000 0.300000 0.000000
0.537504 -0.665924 0.090083 0.600000 0.000000 0.300000
0.070052 0.061404 0.259419 0.600000 0.000000 0.300000
-0.437925 -0.523813 -0.170176 0.600000 0.300000 0.000000
0.518458 -0.639888 -0.186952 0.600000 0.000000 0.300000
-0.277169 0.721994 -0.048006 0.300000 0.000000 0.600000
0.183228 0.568025 0.030872 0.300000 0.000000 0.600000
0.385911 0.509243 0.030872 0.300000 0.000000 0.600000
-0.392281 -0.523813 -0.176768 0.600000 0.300000 0.000000
-0.247936 -0.523734 0.329538 0.600000 0.300000 0.000000
0.588717 -0.595413 -0.267807 0.600000 0.000000 0.300000
-0.667090 0.194113 0.354942 0.500000 0.000000 0.500000
0.669372 -0.069427 0.175132 0.500000 0.500000 0.000000
-0.579188 -0.468383 -0.267807 0.600000 0.300000 0.000000
-0.049504 0.576173 -0.267807 0.300000 0.000000 0.600000
-0.741789 0.010615 0.269047 0.500000 0.000000 0.500000
-0.516556 -0.413391 0.354053 0.600000 0.300000 0.000000
0.229185 0.339784 0.030872 0.300000 0.000000 0.600000
0.095243 -0.307728 0.354408 0.600000 0.300000 0.000000
-0.248159 0.681316 0.030539 0.300000 0.000000 0.600000
0.540370 -0.589253 0.354941 0.600000 0.000000 0.300000
-0.651373 -0.390135 0.354118 0.600000 0.300000 0.000000
-0.647867 -0.208574 -0.267805 0.600000 0.300000 0.000000
0.497838 0.198136 0.208671 0.500000 0.500000 0.000000
-0.233355 -0.260722 0.354889 0.600000 0.300000 0.000000
-0.586550 0.247369 0.116204 0.500000 0.000000 0.500000
0.100957 -0.523813 0.014001 0.600000 0.300000 0.000000
-0.059346 -0.460963 -0.267807 0.600000 0.300000 0.000000
0.288676 -0.523813 0.280467 0.600000 0.300000 0.000000
0.435988 -0.279558 0.354942 0.600000 0.300000 0.000000
-0.521641 0.148345 0.141622 0.500000 0.000000 0.500000
-0.307567 0.367716 -0.267807 0.300000 0.000000 0.600000
0.331106 0.061622 0.318804 0.600000 0.000000 0.300000
-0.762713 0.324891 0.213694 0.500000 0.000000 0.500000
-0.669727 -0.531843 -0.060236 0.300000 0.000000 0.600000
-0.886624 0.072665 0.072214 0.500000 0.000000 0.500000
0.186700 0.056397 -0.267807 0.300000 0.000000 0.600000
0.562349 0.577052 0.028875 0.300000 0.000000 0.600000
-0.545019 -0.204481 0.354942 0.600000 0.300000 0.000000
-0.573557 -0.655612 0.351998 0.300000 0.000000 0.600000
0.108985 0.405320 0.030310 0.300000 0.000000 0.600000
0.408843 -0.010876 0.354942 0.600000 0.000000 0.300000
0.734432 0.037623 0.320404 0.500000 0.500000 0.000000
0.171656 0.368157 -0.267807 0.300000 0.000000 0.600000
0.156890 0.461999 0.030714 0.300000 0.000000 0.600000
-0.339050 0.207316 -0.267807 0.300000 0.000000 0.600000
0.649793 0.301418 -0.267807 0.300000 0.000000 0.600000
-0.345198 0.032986 0.354502 0.600000 0.000000 0.300000
-0.296325 0.062405 0.216360 0.600000 0.000000 0.300000
0.088429 0.443835 -0.267807 0.300000 0.000000 0.600000
0.347724 0.496419 0.030872 0.300000 0.000000 0.600000
0.437471 0.392489 0.030191 0.300000 0.000000 0.600000
0.442500 0.474366 -0.267807 0.300000 0.000000 0.600000
-0.232511 -0.151381 -0.267807 0.300000 0.000000 0.600000
-0.153002 -0.097117 0.354942 0.600000 0.000000 0.300000
-0.654788 0.345752 0.030971 0.300000 0.000000 0.600000
-0.651167 0.098454 0.354942 0.500000 0.000000 0.500000
0.361527 0.575074 0.030872 0.300000 0.000000 0.600000
0.326942 -0.283371 0.354942 0.600000 0.300000 0.000000
-0.176564 -0.523812 -0.231377 0.600000 0.300000 0.000000
0.293715 0.358243 -0.267807 0.300000 0.000000 0.600000
-0.708124 -0.034211 -0.258401 0.300000 0.000000 0.600000
-0.069979 0.062405 0.213610 0.600000 0.000000 0.300000
-0.008005 -0.512508 -0.265283 0.600000 0.300000 0.000000
-0.502858 0.073941 -0.267807 0.300000 0.000000 0.600000
0.157603 -0.252551 0.354942 0.600000 0.300000 0.000000
0.220440 0.726730 -0.242596 0.300000 0.000000 0.600000
0.819437 0.068650 0.218364 0.500000 0.500000 0.000000
0.056500 -0.523813 0.122348 0.600000 0.300000 0.000000
-0.346197 0.354990 -0.267807 0.300000 0.000000 0.600000
0.083259 -0.481551 0.354942 0.600000 0.300000 0.000000
-0.686635 0.122771 -0.267807 0.300000 0.000000 0.600000
0.743122 0.057585 -0.267605 0.300000 0.000000 0.600000
-0.283330 -0.523813 0.288259 0.600000 0.300000 0.000000
0.795918 0.088488 -0.267802 0.300000 0.000000 0.600000
-0.341826 -0.156750 -0.267807 0.300000 0.000000 0.600000
0.269482 -0.173657 -0.267807 0.300000 0.000000 0.600000
0.657326 -0.226354 -0.252517 0.600000 0.300000 0.000000
0.474604 -0.523810 0.084888 0.600000 0.300000 0.000000
0.660501 -0.242000 -0.108196 0.600000 0.300000 0.000000
0.657876 -0.215047 0.114696 0.600000 0.300000 0.000000
-0.506446 -0.622215 0.117382 0.300000 0.000000 0.600000
-0.333745 -0.523813 0.184274 0.600000 0.300000 0.000000
-0.038605 -0.006634 -0.267807 0.300000 0.000000 0.600000
0.245677 0.677895 0.030870 0.300000 0.000000 0.600000
0.181553 -0.200478 0.354942 0.600000 0.300000 0.000000
0.434401 -0.189914 -0.267807 0.600000 0.300000 0.000000
-0.515543 -0.535079 -0.116805 0.300000 0.000000 0.600000
-0.445880 -0.370668 -0.267807 0.600000 0.300000 0.000000
-0.069854 -0.523813 -0.109975 0.600000 0.300000 0.000000
-0.200869 -0.523813 -0.047752 0.600000 0.300000 0.000000
-0.094533 0.632978 -0.267807 0.300000 0.000000 0.600000
0.359945 0.062405 0.181757 0.600000 0.000000 0.300000
-0.501871 0.682319 -0.189310 0.300000 0.000000 0.600000
-0.704786 -0.049018 0.199828 0.500000 0.000000 0.500000
0.519945 0.233310 0.269602 0.500000 0.500000 0.000000
0.663659 -0.490046 -0.223336 0.600000 0.300000 0.000000
-0.190728 0.573839 0.030872 0.300000 0.000000 0.600000
0.758771 0.041596 -0.012527 0.300000 0.000000 0.600000
-0.760098 0.016039 -0.039797 0.300000 0.000000 0.600000
-0.289772 0.062405 0.180762 0.600000 0.000000 0.300000
-0.641397 0.288279 0.072119 0.500000 0.000000 0.500000
-0.012701 0.644198 -0.267807 0.300000 0.000000 0.600000
0.822047 0.113879 0.354941 0.500000 0.500000 0.000000
-0.389625 -0.324434 -0.267807 0.600000 0.300000 0.000000
-0.759824 0.036924 -0.267658 0.300000 0.000000 0.600000
-0.703934 -0.051658 0.304415 0.500000 0.000000 0.500000
-0.250285 0.528286 -0.267807 0.300000 0.000000 0.600000
-0.391828 0.020559 -0.267807 0.300000 0.000000 0.600000
-0.268893 -0.356158 -0.267807 0.600000 0.300000 0.000000
0.169550 -0.312034 0.354523 0.600000 0.300000 0.000000
0.616672 -0.674501 -0.093629 0.600000 0.000000 0.300000
-0.251640 0.042231 -0.267807 0.300000 0.000000 0.600000
-0.051287 0.109184 -0.267807 0.300000 0.000000 0.600000
-0.647693 -0.050401 0.354942 0.500000 0.000000 0.500000
-0.033434 -0.523813 -0.220220 0.600000 0.300000 0.000000
-0.639354 -0.666326 -0.129597 0.300000 0.000000 0.600000
-0.105114 0.637196 0.030438 0.300000 0.000000 0.600000
-0.343939 -0.432960 0.354379 0.600000 0.300000 0.000000
-0.130750 0.133166 0.030872 0.300000 0.000000 0.600000
0.240062 -0.315484 -0.267807 0.600000 0.300000 0.000000
-0.208228 -0.519802 -0.259658 0.600000 0.300000 0.000000
0.153981 -0.380662 0.353941 0.600000 0.300000 0.000000
0.369920 0.705875 0.002889 0.300000 0.000000 0.600000
0.421898 0.556448 0.030872 0.300000 0.000000 0.600000
-0.931723 0.177817 -0.088244 0.300000 0.000000 0.600000
-0.607833 -0.559911 -0.267807 0.300000 0.000000 0.600000
-0.439885 0.079166 0.041902 0.300000 0.000000 0.600000
0.226065 0.231764 -0.267807 0.300000 0.000000 0.600000
-0.869532 0.240847 0.354942 0.500000 0.000000 0.500000
-0.023098 -0.447823 0.354433 0.600000 0.300000 0.000000
0.216960 -0.110579 0.354942 0.600000 0.000000 0.300000
-0.447698 0.374220 0.030248 0.300000 0.000000 0.600000
0.264921 0.221850 0.030872 0.300000 0.000000 0.600000
-0.448012 -0.434301 0.354402 0.600000 0.300000 0.000000
-0.769032 0.325122 0.099755 0.500000 0.000000 0.500000
-0.366339 0.068941 -0.267807 0.300000 0.000000 0.600000
0.611314 -0.118649 0.354942 0.500000 0.500000 0.000000
0.303666 0.437775 0.030310 0.300000 0.000000 0.600000
-0.075411 0.061404 0.090257 0.600000 0.000000 0.300000
0.664346 -0.391593 0.325749 0.600000 0.300000 0.000000
-0.830440 0.327535 -0.220986 0.300000 0.000000 0.600000
-0.680174 0.046629 0.354608 0.500000 0.000000 0.500000
0.391269 -0.472894 0.354942 0.600000 0.300000 0.000000
-0.469887 -0.523810 0.151052 0.600000 0.300000 0.000000
-0.102594 -0.523813 0.072646 0.600000 0.300000 0.000000
-0.626855 0.279431 0.278388 0.500000 0.000000 0.500000
-0.687007 -0.171873 -0.225582 0.300000 0.000000 0.600000
-0.494414 0.599552 -0.267807 0.300000 0.000000 0.600000
0.253095 -0.523813 0.283716 0.600000 0.300000 0.000000
-0.283018 0.547508 0.030872 0.300000 0.000000 0.600000
-0.558847 -0.258957 0.354941 0.600000 0.300000 0.000000
0.072329 -0.432959 0.354714 0.600000 0.300000 0.000000
0.664290 -0.392105 -0.105794 0.600000 0.300000 0.000000
-0.479140 0.686887 -0.038427 0.300000 0.000000 0.600000
-0.135121 -0.523813 -0.053816 0.600000 0.300000 0.000000
0.207940 -0.523813 -0.020871 0.600000 0.300000 0.000000
-0.755014 0.324305 0.255763 0.500000 0.000000 0.500000
-0.605612 0.263987 0.314087 0.500000 0.000000 0.500000
-0.686871 -0.249232 0.244365 0.600000 0.300000 0.000000
-0.455428 0.062394 0.137533 0.600000 0.000000 0.300000
0.535818 -0.274963 -0.267807 0.600000 0.300000 0.000000
0.343553 0.223153 0.030872 0.300000 0.000000 0.600000
0.596943 0.507495 0.028842 0.300000 0.000000 0.600000
-0.594624 0.466252 -0.209791 0.300000 0.000000 0.600000
0.695640 0.021604 0.239669 0.500000 0.500000 0.000000
-0.286284 -0.523812 0.320250 0.600000 0.300000 0.000000
-0.205954 -0.060203 0.354942 0.600000 0.000000 0.300000
-0.689860 -0.121702 -0.161434 0.300000 0.000000 0.600000
0.564826 -0.674411 -0.088094 0.600000 0.000000 0.300000
0.729394 0.346377 0.122861 0.500000 0.500000 0.000000
-0.048362 -0.523813 0.106623 0.600000 0.300000 0.000000
-0.699426 0.386649 0.030434 0.300000 0.000000 0.600000
0.403667 -0.465079 -0.267807 0.600000 0.300000 0.000000
0.661215 -0.467328 -0.261962 0.600000 0.300000 0.000000
0.556628 0.601148 -0.182568 0.300000 0.000000 0.600000
-0.500557 -0.525220 0.138205 0.600000 0.300000 0.000000
-0.170655 -0.409380 0.354296 0.600000 0.300000 0.000000
-0.686871 -0.367315 -0.178432 0.600000 0.300000 0.000000
-0.360731 0.536658 -0.267807 0.300000 0.000000 0.600000
-0.141408 0.636569 -0.267807 0.300000 0.000000 0.600000
0.435026 0.415447 -0.267807 0.300000 0.000000 0.600000
0.555142 0.272306 0.146689 0.500000 0.500000 0.000000
0.562257 0.278375 0.081404 0.500000 0.500000 0.000000
-0.260834 -0.523813 -0.013276 0.600000 0.300000 0.000000
-0.335452 0.251721 -0.267807 0.300000 0.000000 0.600000
0.521169 0.500187 -0.267807 0.300000 0.000000 0.600000
0.485363 -0.524335 -0.152274 0.600000 0.300000 0.000000
0.511862 -0.532595 -0.059596 0.600000 0.000000 0.300000
0.495824 0.677373 -0.065965 0.300000 0.000000 0.600000
-0.539576 -0.546501 0.354705 0.300000 0.000000 0.600000
-0.656989 -0.658640 -0.063188 0.300000 0.000000 0.600000
-0.105775 -0.097045 -0.267807 0.300000 0.000000 0.600000
0.350057 -0.081074 0.354942 0.600000 0.000000 0.300000
-0.686808 -0.411325 -0.102998 0.600000 0.300000 0.000000
-0.380511 0.134142 -0.267807 0.300000 0.000000 0.600000
-0.799072 0.021037 -0.034345 0.300000 0.000000 0.600000
-0.521158 -0.060528 0.354942 0.500000 0.000000 0.500000
-0.226027 0.124941 0.030768 0.300000 0.000000 0.600000
0.724023 0.213589 0.354942 0.500000 0.500000 0.000000
-0.667126 0.375434 -0.267807 0.300000 0.000000 0.600000
-0.068206 0.131542 0.030871 0.300000 0.000000 0.600000
0.214621 -0.259645 -0.267807 0.600000 0.300000 0.000000
0.390880 0.540224 0.030872 0.300000 0.000000 0.600000
-0.425642 -0.390218 0.353941 0.600000 0.300000 0.000000
-0.522668 0.151039 0.285837 0.500000 0.000000 0.500000
0.565217 0.240126 0.354941 0.500000 0.500000 0.000000
-0.670193 -0.081963 0.354742 0.500000 0.000000 0.500000
0.053681 0.738034 -0.101656 0.300000 0.000000 0.600000
0.887471 0.187959 0.059309 0.500000 0.500000 0.000000
0.582084 0.463630 -0.267734 0.300000 0.000000 0.600000
-0.624139 0.277171 0.175421 0.500000 0.000000 0.500000
-0.433603 0.323195 0.030682 0.300000 0.000000 0.600000
0.660537 -0.121495 0.003577 0.300000 0.000000 0.600000
-0.582236 0.120977 0.354942 0.500000 0.000000 0.500000
-0.689211 -0.127249 -0.100644 0.300000 0.000000 0.600000
-0.628737 -0.667248 0.263572 0.300000 0.000000 0.600000
0.626448 -0.185050 0.354820 0.500000 0.500000 0.000000
0.367381 0.628717 0.030872 0.300000 0.000000 0.600000
0.104382 0.088786 0.035602 0.300000 0.000000 0.600000
0.663826 -0.416366 0.142038 0.600000 0.300000 0.000000
0.308168 0.715306 -0.172697 0.300000 0.000000 0.600000
-0.028860 -0.196819 0.354942 0.600000 0.300000 0.000000
0.666578 0.148872 -0.267807 0.300000 0.000000 0.600000
0.615375 -0.135493 -0.267807 0.300000 0.000000 0.600000
-0.153858 0.438767 -0.267807 0.300000 0.000000 0.600000
0.513986 0.462911 -0.267807 0.300000 0.000000 0.600000
0.681312 -0.575123 -0.201576 0.600000 0.000000 0.300000
0.693162 0.409289 -0.083607 0.300000 0.000000 0.600000
-0.483533 0.311405 0.030872 0.300000 0.000000 0.600000
-0.534755 0.262943 0.031769 0.300000 0.000000 0.600000
0.843832 0.089679 -0.160461 0.300000 0.000000 0.600000
0.172894 0.681028 0.030872 0.300000 0.000000 0.600000
0.053899 0.057559 -0.267807 0.300000 0.000000 0.600000
0.665873 -0.361367 -0.114477 0.600000 0.300000 0.000000
-0.493397 0.075481 0.061834 0.500000 0.000000 0.500000
-0.601395 0.030224 -0.267807 0.300000 0.000000 0.600000
-0.420437 -0.523813 0.050719 0.600000 0.300000 0.000000
-0.258593 0.621517 0.030872 0.300000 0.000000 0.600000
0.099766 0.678299 0.030872 0.300000 0.000000 0.600000
0.795323 0.054364 0.333610 0.500000 0.500000 0.000000
0.428387 0.631692 0.030872 0.300000 0.000000 0.600000
-0.367661 -0.523813 0.263409 0.600000 0.300000 0.000000
0.340057 -0.523813 -0.065141 0.600000 0.300000 0.000000
-0.373208 -0.024452 0.354942 0.600000 0.000000 0.300000
-0.110555 -0.301614 0.354363 0.600000 0.300000 0.000000
0.278917 0.058265 -0.267807 0.300000 0.000000 0.600000
-0.418270 -0.113463 -0.267807 0.300000 0.000000 0.600000
0.675867 -0.642748 -0.185841 0.600000 0.000000 0.300000
0.657392 -0.175966 0.048853 0.500000 0.500000 0.000000
-0.085556 0.347537 -0.267807 0.300000 0.000000 0.600000
0.787133 0.343959 0.119499 0.500000 0.500000 0.000000
-0.358736 0.599020 -0.267807 0.300000 0.000000 0.600000
-0.565966 0.224376 0.083032 0.500000 0.000000 0.500000
0.382332 -0.520562 0.345533 0.600000 0.300000 0.000000
-0.561363 0.560395 -0.255672 0.300000 0.000000 0.600000
-0.686871 -0.280296 -0.090026 0.600000 0.300000 0.000000
0.592084 -0.263830 0.354942 0.600000 0.300000 0.000000
0.813235 0.064682 -0.050670 0.300000 0.000000 0.600000
-0.157290 -0.064472 -0.267807 0.300000 0.000000 0.600000
-0.264722 0.062220 0.094981 0.600000 0.000000 0.300000
-0.087894 -0.194371 0.354821 0.600000 0.300000 0.000000
-0.621561 0.148643 -0.267807 0.300000 0.000000 0.600000
0.628478 0.447713 -0.001534 0.300000 0.000000 0.600000
0.761211 0.367890 0.022278 0.300000 0.000000 0.600000
0.464934 0.089032 0.316056 0.500000 0.500000 0.000000
0.065641 0.577252 -0.267807 0.300000 0.000000 0.600000
0.662043 -0.254451 0.178416 0.600000 0.300000 0.000000
-0.484781 -0.524071 0.076815 0.600000 0.300000 0.000000
0.255717 0.549914 0.030872 0.300000 0.000000 0.600000
-0.200298 0.355323 -0.267807 0.300000 0.000000 0.600000
-0.368728 0.220471 -0.267807 0.300000 0.000000 0.600000
-0.556272 -0.667595 0.240346 0.300000 0.000000 0.600000
0.454152 0.273427 -0.267807 0.300000 0.000000 0.600000
0.625835 0.448745 -0.225995 0.300000 0.000000 0.600000
0.657396 -0.170705 0.305191 0.500000 0.500000 0.000000
0.078386 -0.097402 0.354942 0.600000 0.000000 0.300000
0.529060 0.176987 -0.267807 0.300000 0.000000 0.600000
-0.521071 0.146852 0.219573 0.500000 0.000000 0.500000
-0.391701 0.278674 -0.267807 0.300000 0.000000 0.600000
0.349899 0.069093 0.051843 0.600000 0.000000 0.300000
-0.207992 -0.366370 -0.267807 0.600000 0.300000 0.000000
-0.507769 -0.480073 0.354664 0.600000 0.300000 0.000000
0.650812 0.434491 -0.112725 0.300000 0.000000 0.600000
-0.695380 -0.605495 0.227216 0.300000 0.000000 0.600000
0.112471 0.674237 -0.267807 0.300000 0.000000 0.600000
-0.221614 0.062405 0.290368 0.600000 0.000000 0.300000
-0.926898 0.147657 -0.049782 0.300000 0.000000 0.600000
-0.884813 0.070592 -0.190740 0.300000 0.000000 0.600000
-0.723787 0.173599 -0.267807 0.300000 0.000000 0.600000
-0.686840 -0.255959 -0.239506 0.600000 0.300000 0.000000
-0.464096 0.565369 0.030847 0.300000 0.000000 0.600000
-0.129181 -0.494172 0.354538 0.600000 0.300000 0.000000
-0.511990 -0.564928 -0.188056 0.300000 0.000000 0.600000
-0.151212 0.627110 0.030651 0.300000 0.000000 0.600000
-0.637665 -0.666423 0.333491 0.300000 0.000000 0.600000
0.555273 -0.673594 -0.152310 0.600000 0.000000 0.300000
-0.110116 0.736506 -0.026251 0.300000 0.000000 0.600000
-0.451562 0.419716 0.030785 0.300000 0.000000 0.600000
0.030368 -0.324620 -0.267807 0.600000 0.300000 0.000000
-0.321219 -0.305760 -0.267807 0.600000 0.300000 0.000000
0.625218 0.053457 0.354942 0.500000 0.500000 0.000000
-0.550181 0.203472 0.226070 0.500000 0.000000 0.500000
0.546386 -0.671698 0.245863 0.600000 0.000000 0.300000
-0.229854 -0.173499 0.354942 0.600000 0.000000 0.300000
-0.589474 -0.667866 -0.159163 0.300000 0.000000 0.600000
-0.761265 0.284684 -0.267807 0.300000 0.000000 0.600000
-0.862960 0.050941 0.203491 0.500000 0.000000 0.500000
0.664744 -0.533624 -0.034864 0.600000 0.000000 0.300000
0.630807 -0.269484 -0.267802 0.600000 0.300000 0.000000
-0.093305 0.499148 -0.267807 0.300000 0.000000 0.600000
0.714393 0.396678 -0.206620 0.300000 0.000000 0.600000
-0.686847 -0.385464 -0.238677 0.600000 0.300000 0.000000
-0.515813 -0.641574 0.091992 0.300000 0.000000 0.600000
-0.041690 0.738580 -0.135211 0.300000 0.000000 0.600000
-0.381226 0.704561 -0.256927 0.300000 0.000000 0.600000
0.330066 0.025253 0.354939 0.600000 0.000000 0.300000
-0.392380 0.529082 0.030834 0.300000 0.000000 0.600000
-0.279233 -0.160707 0.354942 0.600000 0.000000 0.300000
-0.395418 0.062405 0.245175 0.600000 0.000000 0.300000
-0.677355 -0.485523 -0.177696 0.600000 0.300000 0.000000
-0.184098 0.731798 -0.164515 0.300000 0.000000 0.600000
0.657392 -0.177155 -0.203714 0.300000 0.000000 0.600000
-0.226806 -0.387442 0.353941 0.600000 0.300000 0.000000
-0.408742 -0.059726 0.354942 0.600000 0.000000 0.300000
0.372094 -0.523813 0.215823 0.600000 0.300000 0.000000
-0.653184 -0.482931 0.354645 0.600000 0.300000 0.000000
0.671039 0.421460 -0.191148 0.300000 0.000000 0.600000
0.301251 -0.523813 0.252093 0.600000 0.300000 0.000000
0.585842 -0.252739 -0.267807 0.600000 0.300000 0.000000
-0.122431 -0.523613 0.339634 0.600000 0.300000 0.000000
0.026530 -0.016784 -0.267807 0.300000 0.000000 0.600000
-0.505903 -0.621237 -0.040318 0.300000 0.000000 0.600000
-0.542749 0.119275 -0.267807 0.300000 0.000000 0.600000
0.662394 -0.256048 0.234041 0.600000 0.300000 0.000000
0.557046 -0.574547 -0.267807 0.600000 0.000000 0.300000
-0.409039 0.439940 0.030732 0.300000 0.000000 0.600000
-0.835004 0.033845 -0.078891 0.300000 0.000000 0.600000
-0.273417 -0.453177 -0.267807 0.600000 0.300000 0.000000
0.663568 -0.521453 -0.141164 0.600000 0.000000 0.300000
0.130724 0.062213 0.221201 0.600000 0.000000 0.300000
-0.527451 0.161363 0.083602 0.500000 0.000000 0.500000
-0.686871 -0.224092 0.115128 0.600000 0.300000 0.000000
0.551533 0.608700 -0.234246 0.300000 0.000000 0.600000
-0.613966 -0.667866 -0.033217 0.300000 0.000000 0.600000
-0.318396 -0.523813 -0.165884 0.600000 0.300000 0.000000
-0.451874 -0.154273 -0.267807 0.300000 0.000000 0.600000
0.684382 -0.632695 0.205362 0.600000 0.000000 0.300000
0.215908 0.665145 -0.267807 0.300000 0.000000 0.600000
0.681380 -0.023273 -0.146416 0.300000 0.000000 0.600000
0.089363 -0.015626 -0.267807 0.300000 0.000000 0.600000
0.776110 0.344955 0.328835 0.500000 0.500000 0.000000
0.000299 0.731422 0.029133 0.300000 0.000000 0.600000
0.845991 0.092443 -0.016983 0.300000 0.000000 0.600000
-0.669673 -0.529091 0.200128 0.300000 0.000000 0.600000
-0.820599 0.027686 0.098395 0.500000 0.000000 0.500000
0.069045 0.420907 -0.267807 0.300000 0.000000 0.600000
-0.392976 0.343158 0.030349 0.300000 0.000000 0.600000
-0.694517 -0.085714 -0.254043 0.300000 0.000000 0.600000
-0.669842 -0.537845 -0.146493 0.300000 0.000000 0.600000
-0.297183 0.111717 -0.267807 0.300000 0.000000 0.600000
-0.383510 -0.457627 -0.267807 0.600000 0.300000 0.000000
-0.093428 0.737213 -0.240751 0.300000 0.000000 0.600000
-0.027895 0.173715 0.030872 0.300000 0.000000 0.600000
-0.117114 0.329068 0.030584 0.300000 0.000000 0.600000
0.424827 0.695661 -0.083183 0.300000 0.000000 0.600000
-0.672094 0.335636 -0.267807 0.300000 0.000000 0.600000
-0.378840 0.615050 0.030872 0.300000 0.000000 0.600000
0.468937 0.111117 0.087705 0.500000 0.500000 0.000000
0.443617 0.148290 -0.267807 0.300000 0.000000 0.600000
0.819040 0.333818 -0.040469 0.300000 0.000000 0.600000
-0.399453 0.629284 -0.267807 0.300000 0.000000 0.600000
0.333429 -0.523813 0.054057 0.600000 0.300000 0.000000
-0.686870 -0.402001 0.288564 0.600000 0.300000 0.000000
-0.652362 -0.063964 -0.267807 0.300000 0.000000 0.600000
0.674226 -0.048319 0.269140 0.500000 0.500000 0.000000
0.666801 -0.288230 0.020908 0.600000 0.300000 0.000000
0.266018 -0.523813 0.211727 0.600000 0.300000 0.000000
0.527385 0.242889 0.186479 0.500000 0.500000 0.000000
0.574169 -0.141733 0.354942 0.500000 0.500000 0.000000
-0.470737 -0.503674 0.354301 0.600000 0.300000 0.000000
0.066381 -0.171048 -0.267807 0.300000 0.000000 0.600000
-0.513479 -0.636989 0.281339 0.300000 0.000000 0.600000
0.883342 0.239946 -0.203711 0.300000 0.000000 0.600000
0.063285 -0.523813 -0.114201 0.600000 0.300000 0.000000
0.365071 -0.523813 0.003055 0.600000 0.300000 0.000000
0.274249 0.526539 0.030872 0.300000 0.000000 0.600000
0.469469 -0.339469 -0.267807 0.600000 0.300000 0.000000
-0.610777 0.001926 -0.267807 0.300000 0.000000 0.600000
0.348306 0.465387 0.030628 0.300000 0.000000 0.600000
-0.684137 -0.627025 0.026245 0.300000 0.000000 0.600000
-0.660979 0.299010 0.316985 0.500000 0.000000 0.500000
-0.003984 0.568699 0.030872 0.300000 0.000000 0.600000
0.518331 -0.413742 -0.267807 0.600000 0.300000 0.000000
0.193687 -0.523813 0.125708 0.600000 0.300000 0.000000
-0.425420 -0.005337 -0.267807 0.300000 0.000000 0.600000
0.417743 0.319751 0.030872 0.300000 0.000000 0.600000
-0.551796 0.025381 -0.267807 0.300000 0.000000 0.600000
-0.677637 -0.157275 -0.266650 0.300000 0.000000 0.600000
0.158744 -0.316385 -0.267807 0.600000 0.300000 0.000000
0.512567 -0.571545 -0.012161 0.600000 0.000000 0.300000
-0.665946 0.009883 -0.267807 0.300000 0.000000 0.600000
-0.733683 0.051876 0.354934 0.500000 0.000000 0.500000
-0.245890 0.725896 -0.194842 0.300000 0.000000 0.600000
0.196092 0.172357 0.030872 0.300000 0.000000 0.600000
0.317293 0.062405 0.189006 0.600000 0.000000 0.300000
0.260845 -0.523813 0.161151 0.600000 0.300000 0.000000
0.663659 -0.429901 -0.201410 0.600000 0.300000 0.000000
-0.686820 -0.410435 -0.206335 0.600000 0.300000 0.000000
0.467874 0.032784 -0.267807 0.300000 0.000000 0.600000
-0.720132 0.395194 -0.206607 0.300000 0.000000 0.600000
-0.195764 -0.523813 -0.014000 0.600000 0.300000 0.000000
0.725625 0.037410 0.062715 0.500000 0.500000 0.000000
-0.674627 -0.639621 -0.172105 0.300000 0.000000 0.600000
-0.502081 0.478129 0.030094 0.300000 0.000000 0.600000
0.883781 0.164722 0.327167 0.500000 0.500000 0.000000
-0.103643 0.062065 0.142103 0.600000 0.000000 0.300000
-0.257454 -0.115244 -0.267807 0.300000 0.000000 0.600000
-0.776559 0.325266 0.277799 0.500000 0.000000 0.500000
-0.222665 -0.003248 0.354870 0.600000 0.000000 0.300000
0.395532 0.544234 -0.267807 0.300000 0.000000 0.600000
-0.237817 0.172917 0.030872 0.300000 0.000000 0.600000
0.686449 -0.628716 0.142534 0.600000 0.000000 0.300000
0.448008 -0.452791 0.354942 0.600000 0.300000 0.000000
0.005245 0.257141 -0.267807 0.300000 0.000000 0.600000
0.290545 0.602027 0.030872 0.300000 0.000000 0.600000
-0.548707 0.598115 -0.118219 0.300000 0.000000 0.600000
0.824251 0.329935 -0.111274 0.300000 0.000000 0.600000
0.609716 0.218710 -0.267807 0.300000 0.000000 0.600000
-0.920606 0.246639 -0.058768 0.300000 0.000000 0.600000
-0.571715 -0.667866 0.213512 0.300000 0.000000 0.600000
0.165100 -0.411274 0.354351 0.600000 0.300000 0.000000
0.358542 -0.523812 -0.226021 0.600000 0.300000 0.000000
-0.870554 0.302915 0.342784 0.500000 0.000000 0.500000
0.509509 -0.579002 -0.100594 0.600000 0.000000 0.300000
-0.479833 -0.523807 -0.079297 0.600000 0.300000 0.000000
0.106127 0.062405 0.200552 0.600000 0.000000 0.300000
-0.151196 -0.347113 0.353941 0.600000 0.300000 0.000000
0.173552 0.679186 -0.267807 0.300000 0.000000 0.600000
-0.238112 -0.523813 -0.148352 0.600000 0.300000 0.000000
0.364481 0.269418 0.030872 0.300000 0.000000 0.600000
-0.431240 0.668449 -0.267804 0.300000 0.000000 0.600000
0.004702 -0.052343 -0.267807 0.300000 0.000000 0.600000
-0.593602 0.464858 0.023746 0.300000 0.000000 0.600000
-0.433607 0.076477 -0.267807 0.300000 0.000000 0.600000
0.254044 -0.450205 0.354942 0.600000 0.300000 0.000000
0.185263 -0.465213 0.354942 0.600000 0.300000 0.000000
-0.442023 -0.523813 0.095299 0.600000 0.300000 0.000000
-0.432917 -0.523813 0.233660 0.600000 0.300000 0.000000
-0.520518 0.667704 -0.264165 0.300000 0.000000 0.600000
-0.296314 -0.516626 -0.263947 0.600000 0.300000 0.000000
-0.670256 0.417202 -0.080006 0.300000 0.000000 0.600000
0.024913 -0.507968 -0.266755 0.600000 0.300000 0.000000
0.578777 -0.088937 -0.267807 0.300000 0.000000 0.600000
-0.673718 -0.559609 0.201336 0.300000 0.000000 0.600000
0.195973 0.111746 0.030980 0.300000 0.000000 0.600000
0.674740 0.420352 -0.022464 0.300000 0.000000 0.600000
0.860572 0.110723 0.060021 0.500000 0.500000 0.000000
-0.455355 -0.273680 0.354830 0.600000 0.300000 0.000000
0.544759 -0.670891 -0.026444 0.600000 0.000000 0.300000
-0.206249 0.729723 -0.222399 0.300000 0.000000 0.600000
-0.580206 0.506523 -0.112177 0.300000 0.000000 0.600000
0.370703 0.061252 0.327513 0.600000 0.000000 0.300000
-0.931006 0.209573 0.199866 0.500000 0.000000 0.500000
0.659223 -0.233001 0.023617 0.600000 0.300000 0.000000
-0.116293 0.704789 -0.267803 0.300000 0.000000 0.600000
-0.054907 -0.523813 0.055041 0.600000 0.300000 0.000000
-0.183763 -0.405287 -0.267807 0.600000 0.300000 0.000000
-0.572356 -0.577006 0.354941 0.300000 0.000000 0.600000
-0.234947 -0.194111 -0.267807 0.600000 0.300000 0.000000
0.745838 0.042534 0.348767 0.500000 0.500000 0.000000
0.627423 -0.338644 0.354940 0.600000 0.300000 0.000000
0.670449 0.336754 0.124396 0.500000 0.500000 0.000000
0.789245 0.147132 0.354942 0.500000 0.500000 0.000000
-0.165398 -0.157139 -0.267807 0.300000 0.000000 0.600000
-0.021201 -0.015270 0.354942 0.600000 0.000000 0.300000
0.104741 0.144052 -0.267807 0.300000 0.000000 0.600000
0.211873 0.701514 0.030729 0.300000 0.000000 0.600000
-0.898077 0.086533 0.329301 0.500000 0.000000 0.500000
-0.894270 0.243973 -0.267770 0.300000 0.000000 0.600000
0.066365 0.621046 0.030872 0.300000 0.000000 0.600000
-0.101696 0.019256 0.354885 0.600000 0.000000 0.300000
-0.569084 0.228567 0.274303 0.500000 0.000000 0.500000
-0.715694 -0.018399 0.312105 0.500000 0.000000 0.500000
-0.724260 0.336480 -0.267807 0.300000 0.000000 0.600000
-0.686871 -0.359566 0.000463 0.600000 0.300000 0.000000
0.624397 0.445448 0.028226 0.300000 0.000000 0.600000
-0.686871 -0.196871 -0.134657 0.600000 0.300000 0.000000
0.667041 -0.291160 -0.152508 0.600000 0.300000 0.000000
0.583801 0.295558 0.137943 0.500000 0.500000 0.000000
-0.586651 -0.362575 0.353941 0.600000 0.300000 0.000000
-0.681972 -0.462991 0.306728 0.600000 0.300000 0.000000
-0.130370 0.062405 0.211572 0.600000 0.000000 0.300000
0.593332 -0.307920 -0.267807 0.600000 0.300000 0.000000
-0.579626 -0.033851 0.354942 0.500000 0.000000 0.500000
0.266561 0.721411 -0.131281 0.300000 0.000000 0.600000
-0.781999 0.176498 0.354942 0.500000 0.000000 0.500000
-0.607319 -0.266033 -0.267807 0.600000 0.300000 0.000000
-0.921597 0.244475 -0.237043 0.300000 0.000000 0.600000
-0.323185 -0.523813 0.078860 0.600000 0.300000 0.000000
-0.887370 0.292061 0.189480 0.500000 0.000000 0.500000
-0.228327 0.727161 -0.047196 0.300000 0.000000 0.600000
0.837535 0.179197 0.354942 0.500000 0.500000 0.000000
-0.207307 0.388953 0.030494 0.300000 0.000000 0.600000
-0.250858 0.212568 -0.267807 0.300000 0.000000 0.600000
0.614270 -0.371291 -0.267807 0.600000 0.300000 0.000000
0.541008 0.605249 0.029770 0.300000 0.000000 0.600000
-0.277038 -0.485740 0.354607 0.600000 0.300000 0.000000
0.661427 -0.117150 0.270474 0.500000 0.500000 0.000000
0.769444 0.364383 -0.143462 0.300000 0.000000 0.600000
0.190829 0.729400 0.010361 0.300000 0.000000 0.600000
-0.675939 -0.146650 0.354521 0.500000 0.000000 0.500000
0.381021 0.062375 0.078472 0.600000 0.000000 0.300000
0.379690 -0.523813 0.143580 0.600000 0.300000 0.000000
-0.639981 -0.253413 0.354942 0.600000 0.300000 0.000000
-0.497649 -0.076527 -0.267807 0.300000 0.000000 0.600000
-0.357070 0.075815 0.043621 0.300000 0.000000 0.600000
0.742525 0.285646 -0.267807 0.300000 0.000000 0.600000
-0.404900 0.062405 0.307145 0.600000 0.000000 0.300000
-0.836384 0.319230 0.265902 0.500000 0.000000 0.500000
-0.590032 -0.413104 0.354048 0.600000 0.300000 0.000000
-0.536413 0.180726 0.297701 0.500000 0.000000 0.500000
0.432274 0.064119 0.338851 0.600000 0.000000 0.300000
0.661492 -0.639901 -0.267465 0.600000 0.000000 0.300000
0.277536 0.491414 0.030872 0.300000 0.000000 0.600000
-0.406246 0.062405 0.093874 0.600000 0.000000 0.300000
0.314472 -0.034114 0.354942 0.600000 0.000000 0.300000
0.863907 0.116541 -0.255112 0.300000 0.000000 0.600000
0.362215 0.213994 -0.267807 0.300000 0.000000 0.600000
0.663657 -0.509641 0.206851 0.600000 0.000000 0.300000
-0.353497 -0.068191 0.354942 0.600000 0.000000 0.300000
0.280429 -0.523813 -0.086275 0.600000 0.300000 0.000000
0.871679 0.149910 0.353692 0.500000 0.500000 0.000000
-0.196637 -0.515572 0.351229 0.600000 0.300000 0.000000
-0.209024 -0.323912 0.353991 0.600000 0.300000 0.000000
0.498902 -0.525708 -0.112297 0.600000 0.300000 0.000000
-0.389598 -0.523813 0.100659 0.600000 0.300000 0.000000
-0.681575 -0.464929 -0.229900 0.600000 0.300000 0.000000
0.805279 0.059634 0.284469 0.500000 0.500000 0.000000
0.118715 0.061661 0.247769 0.600000 0.000000 0.300000
-0.680066 -0.573460 -0.033074 0.300000 0.000000 0.600000
-0.687950 -0.143926 0.312774 0.500000 0.000000 0.500000
0.488862 -0.068036 -0.267807 0.300000 0.000000 0.600000
-0.293849 -0.257166 0.354942 0.600000 0.300000 0.000000
0.877241 0.209506 0.353049 0.500000 0.500000 0.000000
0.186603 0.439387 -0.267807 0.300000 0.000000 0.600000
-0.417433 0.618080 0.030872 0.300000 0.000000 0.600000
0.557558 0.274714 0.274302 0.500000 0.500000 0.000000
0.885559 0.230804 0.282311 0.500000 0.500000 0.000000
0.569617 0.545302 -0.267612 0.300000 0.000000 0.600000
0.229748 0.447075 0.030465 0.300000 0.000000 0.600000
-0.916019 0.116283 -0.169713 0.300000 0.000000 0.600000
0.002681 0.133656 0.030872 0.300000 0.000000 0.600000
-0.530074 0.652130 -0.063011 0.300000 0.000000 0.600000
-0.385204 0.211332 0.030860 0.300000 0.000000 0.600000
-0.530034 -0.339487 -0.267807 0.600000 0.300000 0.000000
0.685605 -0.002965 0.178810 0.500000 0.500000 0.000000
0.506068 0.671616 -0.035190 0.300000 0.000000 0.600000
0.657459 -0.198154 -0.238114 0.600000 0.300000 0.000000
-0.203320 -0.136847 -0.267807 0.300000 0.000000 0.600000
-0.599266 -0.667866 0.158032 0.300000 0.000000 0.600000
-0.686871 -0.277691 0.252973 0.600000 0.300000 0.000000
0.055310 -0.523813 -0.043141 0.600000 0.300000 0.000000
0.473655 0.684934 -0.219826 0.300000 0.000000 0.600000
0.282978 -0.239603 -0.267807 0.600000 0.300000 0.000000
0.664885 -0.379241 0.093651 0.600000 0.300000 0.000000
0.675054 -0.045111 -0.032635 0.300000 0.000000 0.600000
-0.043074 -0.523813 0.257032 0.600000 0.300000 0.000000
-0.242178 0.487026 0.030872 0.300000 0.000000 0.600000
-0.686568 -0.390172 0.340619 0.600000 0.300000 0.000000
-0.264525 -0.415866 -0.267807 0.600000 0.300000 0.000000
-0.781766 0.114540 0.354942 0.500000 0.000000 0.500000
-0.109308 0.033864 -0.267807 0.300000 0.000000 0.600000
-0.008160 0.046467 -0.267807 0.300000 0.000000 0.600000
-0.612386 -0.640839 -0.267563 0.300000 0.000000 0.600000
0.657776 -0.029454 0.354884 0.500000 0.500000 0.000000
-0.660920 -0.033917 -0.267806 0.300000 0.000000 0.600000
-0.414174 -0.272608 0.354848 0.600000 0.300000 0.000000
0.668022 -0.318767 0.325141 0.600000 0.300000 0.000000
0.700414 0.028443 -0.147369 0.300000 0.000000 0.600000
-0.111625 -0.523813 0.278057 0.600000 0.300000 0.000000
-0.806373 0.023079 -0.074746 0.300000 0.000000 0.600000
-0.274251 0.274547 -0.267807 0.300000 0.000000 0.600000
0.315890 -0.523813 -0.099810 0.600000 0.300000 0.000000
-0.406946 0.260795 0.030872 0.300000 0.000000 0.600000
-0.486572 -0.270483 0.354883 0.600000 0.300000 0.000000
0.887089 0.184277 0.000708 0.300000 0.000000 0.600000
0.234979 -0.523813 0.074604 0.600000 0.300000 0.000000
0.494156 0.678244 -0.132586 0.300000 0.000000 0.600000
0.668070 -0.310228 0.279590 0.600000 0.300000 0.000000
-0.706191 -0.044662 0.106321 0.500000 0.000000 0.500000
0.514046 -0.157343 -0.267807 0.300000 0.000000 0.600000
0.816997 0.335150 -0.004249 0.300000 0.000000 0.600000
-0.065502 -0.310141 0.354221 0.600000 0.300000 0.000000
0.506799 0.304224 0.030872 0.300000 0.000000 0.600000
-0.456011 -0.001514 -0.267807 0.300000 0.000000 0.600000
-0.101643 -0.023621 -0.267807 0.300000 0.000000 0.600000
-0.467431 0.543016 -0.267807 0.300000 0.000000 0.600000
0.794035 0.292217 -0.267807 0.300000 0.000000 0.600000
-0.562156 0.558979 -0.133027 0.300000 0.000000 0.600000
-0.488223 -0.524313 -0.140696 0.600000 0.300000 0.000000
0.008087 0.062241 0.128798 0.600000 0.000000 0.300000
0.439982 -0.523813 0.246639 0.600000 0.300000 0.000000
-0.370830 0.708068 -0.031368 0.300000 0.000000 0.600000
0.285061 -0.505079 -0.267639 0.600000 0.300000 0.000000
-0.258209 0.163700 -0.267807 0.300000 0.000000 0.600000
-0.929554 0.160232 0.318883 0.500000 0.000000 0.500000
-0.818180 0.302111 -0.267759 0.300000 0.000000 0.600000
0.025132 -0.493356 0.354814 0.600000 0.300000 0.000000
0.510885 -0.403401 0.354363 0.600000 0.300000 0.000000
-0.417900 0.521362 -0.267807 0.300000 0.000000 0.600000
-0.565043 -0.318490 0.354081 0.600000 0.300000 0.000000
-0.512242 -0.564328 -0.125475 0.300000 0.000000 0.600000
-0.653270 0.314592 0.042969 0.300000 0.000000 0.600000
-0.831303 0.320095 0.308508 0.500000 0.000000 0.500000
-0.101666 -0.523813 -0.163435 0.600000 0.300000 0.000000
-0.245994 0.495501 -0.267807 0.300000 0.000000 0.600000
0.471354 0.124911 0.113747 0.500000 0.500000 0.000000
0.293524 -0.291316 0.354942 0.600000 0.300000 0.000000
-0.685766 -0.582415 0.147381 0.300000 0.000000 0.600000
-0.798093 0.238748 -0.267807 0.300000 0.000000 0.600000
0.059831 -0.523813 0.158283 0.600000 0.300000 0.000000
0.465860 -0.020062 -0.267807 0.300000 0.000000 0.600000
-0.057757 0.738109 -0.070821 0.300000 0.000000 0.600000
-0.188027 0.322515 -0.267807 0.300000 0.000000 0.600000
-0.376810 0.569809 -0.267807 0.300000 0.000000 0.600000
-0.235650 -0.523813 0.145257 0.600000 0.300000 0.000000
0.870622 0.235643 -0.267389 0.300000 0.000000 0.600000
-0.507004 -0.151723 -0.267807 0.300000 0.000000 0.600000
-0.275403 0.450102 -0.267807 0.300000 0.000000 0.600000
0.769269 0.112905 -0.267807 0.300000 0.000000 0.600000
0.663659 -0.480823 0.282567 0.600000 0.300000 0.000000
0.541439 -0.633962 0.354642 0.600000 0.000000 0.300000
-0.621146 -0.141814 -0.267807 0.300000 0.000000 0.600000
-0.283296 0.300718 0.030872 0.300000 0.000000 0.600000
0.780546 0.348981 0.044793 0.300000 0.000000 0.600000
-0.622112 0.293856 0.044757 0.300000 0.000000 0.600000
-0.238279 0.587010 -0.267807 0.300000 0.000000 0.600000
-0.143740 0.057847 0.346892 0.600000 0.000000 0.300000
-0.045923 0.304302 -0.267807 0.300000 0.000000 0.600000
0.575899 0.312319 0.038753 0.300000 0.000000 0.600000
-0.614323 0.270059 0.095749 0.500000 0.000000 0.500000
-0.782632 0.356622 0.012078 0.300000 0.000000 0.600000
0.506531 -0.584564 -0.195944 0.600000 0.000000 0.300000
-0.680248 -0.471412 0.104775 0.600000 0.300000 0.000000
-0.003637 0.091666 0.034901 0.300000 0.000000 0.600000
0.393373 -0.182582 0.354942 0.600000 0.000000 0.300000
0.039111 0.398872 -0.267807 0.300000 0.000000 0.600000
0.881720 0.180903 -0.264107 0.300000 0.000000 0.600000
0.094825 0.054909 -0.267807 0.300000 0.000000 0.600000
0.725766 0.390200 -0.174921 0.300000 0.000000 0.600000
-0.694777 -0.599891 0.111238 0.300000 0.000000 0.600000
-0.851378 0.043157 -0.019292 0.300000 0.000000 0.600000
0.823002 0.317843 0.353213 0.500000 0.500000 0.000000
-0.019785 -0.523813 0.214109 0.600000 0.300000 0.000000
0.704239 0.181582 0.354942 0.500000 0.500000 0.000000
0.682587 -0.577392 -0.024310 0.600000 0.000000 0.300000
0.449879 -0.523813 0.180827 0.600000 0.300000 0.000000
-0.017858 -0.174086 -0.267807 0.300000 0.000000 0.600000
-0.175513 0.649253 -0.267807 0.300000 0.000000 0.600000
-0.514726 -0.160795 0.354942 0.500000 0.000000 0.500000
0.190957 -0.370558 -0.267807 0.600000 0.300000 0.000000
0.028552 0.062214 0.187794 0.600000 0.000000 0.300000
0.877396 0.260162 -0.107862 0.300000 0.000000 0.600000
-0.655820 -0.659600 0.014787 0.300000 0.000000 0.600000
-0.805817 0.022923 0.249274 0.500000 0.000000 0.500000
-0.700566 0.146327 0.354942 0.500000 0.000000 0.500000
-0.340738 0.299924 0.030872 0.300000 0.000000 0.600000
-0.520300 0.060137 0.354171 0.500000 0.000000 0.500000
0.291235 -0.475289 -0.267807 0.600000 0.300000 0.000000
-0.740195 0.304972 0.354604 0.500000 0.000000 0.500000
0.364310 0.706849 -0.068896 0.300000 0.000000 0.600000
-0.518365 -0.548736 0.223386 0.300000 0.000000 0.600000
0.003313 -0.523813 -0.091528 0.600000 0.300000 0.000000
0.721935 0.073713 0.354942 0.500000 0.500000 0.000000
-0.686857 -0.284499 -0.237458 0.600000 0.300000 0.000000
-0.316372 0.425635 0.030872 0.300000 0.000000 0.600000
0.167253 -0.439768 -0.267807 0.600000 0.300000 0.000000
-0.046069 -0.523813 -0.070382 0.600000 0.300000 0.000000
0.674796 -0.643939 -0.043743 0.600000 0.000000 0.300000
0.608888 0.127219 -0.267807 0.300000 0.000000 0.600000
0.681165 -0.636859 -0.215200 0.600000 0.000000 0.300000
-0.686871 -0.350345 0.134960 0.600000 0.300000 0.000000
-0.535314 -0.275166 0.354805 0.600000 0.300000 0.000000
-0.644339 -0.171131 -0.267806 0.300000 0.000000 0.600000
-0.844019 0.038648 0.080767 0.500000 0.000000 0.500000
0.887485 0.215516 -0.056908 0.300000 0.000000 0.600000
-0.686871 -0.312165 -0.033173 0.600000 0.300000 0.000000
-0.675766 -0.493509 -0.017598 0.600000 0.300000 0.000000
0.455002 0.689202 -0.099779 0.300000 0.000000 0.600000
-0.635592 -0.196128 0.354942 0.500000 0.000000 0.500000
0.886671 0.180329 -0.174598 0.300000 0.000000 0.600000
0.596043 -0.674507 0.090566 0.600000 0.000000 0.300000
0.404091 -0.137590 0.354942 0.600000 0.000000 0.300000
-0.312324 0.488634 0.030638 0.300000 0.000000 0.600000
-0.596588 0.462711 -0.115548 0.300000 0.000000 0.600000
0.663776 -0.415877 0.228955 0.600000 0.300000 0.000000
0.102300 -0.200759 -0.267807 0.600000 0.300000 0.000000
-0.686869 -0.261884 0.316614 0.600000 0.300000 0.000000
-0.354442 0.686039 0.030854 0.300000 0.000000 0.600000
-0.457854 0.258849 -0.267807 0.300000 0.000000 0.600000
0.625687 0.449364 -0.141488 0.300000 0.000000 0.600000
0.098117 -0.477700 -0.267807 0.600000 0.300000 0.000000
0.614039 0.463647 -0.066759 0.300000 0.000000 0.600000
0.702989 0.030042 -0.004278 0.300000 0.000000 0.600000
-0.552525 0.586921 -0.220294 0.300000 0.000000 0.600000
-0.352306 -0.523813 0.025818 0.600000 0.300000 0.000000
0.196202 -0.523813 0.260309 0.600000 0.300000 0.000000
0.049926 0.100606 -0.267807 0.300000 0.000000 0.600000
-0.407618 -0.523813 0.185911 0.600000 0.300000 0.000000
-0.337390 -0.170658 0.354942 0.600000 0.000000 0.300000
0.844806 0.091279 -0.049531 0.300000 0.000000 0.600000
0.332786 -0.523813 0.011793 0.600000 0.300000 0.000000
0.579055 -0.224005 -0.267807 0.600000 0.300000 0.000000
0.774590 0.045884 -0.148767 0.300000 0.000000 0.600000
-0.387544 0.119824 0.030477 0.300000 0.000000 0.600000
-0.192896 0.730950 -0.086759 0.300000 0.000000 0.600000
-0.752489 0.013801 -0.117548 0.300000 0.000000 0.600000
-0.876680 0.108581 0.354762 0.500000 0.000000 0.500000
-0.553436 -0.503349 0.354467 0.600000 0.300000 0.000000
-0.367281 -0.249794 -0.267807 0.600000 0.300000 0.000000
-0.931210 0.206830 -0.096328 0.300000 0.000000 0.600000
-0.569679 -0.667866 -0.092742 0.300000 0.000000 0.600000
0.665080 -0.372098 0.265349 0.600000 0.300000 0.000000
-0.168685 -0.473798 0.354394 0.600000 0.300000 0.000000
-0.131676 0.061881 0.122033 0.600000 0.000000 0.300000
-0.554241 0.209274 0.119909 0.500000 0.000000 0.500000
-0.415528 0.700488 -0.042446 0.300000 0.000000 0.600000
-0.010229 -0.270509 0.354844 0.600000 0.300000 0.000000
0.044669 0.674580 -0.267807 0.300000 0.000000 0.600000
0.644213 -0.393627 -0.267700 0.600000 0.300000 0.000000
-0.325890 -0.114791 0.354942 0.600000 0.000000 0.300000
-0.127536 -0.266131 0.354926 0.600000 0.300000 0.000000
-0.522814 -0.653223 -0.255416 0.300000 0.000000 0.600000
0.540375 -0.667889 -0.233153 0.600000 0.000000 0.300000
-0.338307 -0.523813 -0.126344 0.600000 0.300000 0.000000
0.884117 0.165894 -0.036769 0.300000 0.000000 0.600000
0.657730 -0.156466 -0.159299 0.300000 0.000000 0.600000
-0.246603 -0.285810 0.354627 0.600000 0.300000 0.000000
-0.609296 -0.211992 0.354942 0.600000 0.300000 0.000000
-0.670168 -0.241873 -0.267544 0.600000 0.300000 0.000000
-0.126072 -0.393794 -0.267807 0.600000 0.300000 0.000000
-0.153726 0.231352 0.030872 0.300000 0.000000 0.600000
0.028657 0.349654 0.030872 0.300000 0.000000 0.600000
0.649808 -0.668463 0.177895 0.600000 0.000000 0.300000
0.601198 0.520012 -0.159917 0.300000 0.000000 0.600000
-0.714406 -0.021679 -0.165439 0.300000 0.000000 0.600000
-0.470048 0.533503 0.030501 0.300000 0.000000 0.600000
0.331696 -0.346199 -0.267807 0.600000 0.300000 0.000000
-0.757873 0.095552 -0.267807 0.300000 0.000000 0.600000
-0.518092 0.676185 -0.162548 0.300000 0.000000 0.600000
-0.720698 0.033210 -0.267782 0.300000 0.000000 0.600000
-0.686871 -0.336201 -0.113685 0.600000 0.300000 0.000000
0.049641 0.738114 -0.072951 0.300000 0.000000 0.600000
0.663659 -0.482985 0.174465 0.600000 0.300000 0.000000
-0.773682 0.292460 0.354926 0.500000 0.000000 0.500000
0.224369 0.726479 -0.095441 0.300000 0.000000 0.600000
0.139954 -0.183938 -0.267807 0.300000 0.000000 0.600000
0.439933 -0.286216 -0.267807 0.600000 0.300000 0.000000
0.231464 0.725579 -0.145746 0.300000 0.000000 0.600000
-0.510232 0.109223 0.107512 0.500000 0.000000 0.500000
0.563978 -0.055908 -0.267807 0.300000 0.000000 0.600000
-0.516422 -0.642853 0.327618 0.300000 0.000000 0.600000
-0.686827 -0.409898 0.235142 0.600000 0.300000 0.000000
0.257611 0.722377 0.009748 0.300000 0.000000 0.600000
0.276819 0.267432 0.030872 0.300000 0.000000 0.600000
-0.137707 -0.523813 0.191533 0.600000 0.300000 0.000000
0.580948 0.293279 0.096545 0.500000 0.500000 0.000000
-0.530340 0.168102 0.116169 0.500000 0.000000 0.500000
-0.514080 0.125304 0.185118 0.500000 0.000000 0.500000
0.501425 -0.602143 0.185458 0.600000 0.000000 0.300000
0.214199 -0.408139 -0.267807 0.600000 0.300000 0.000000
0.833755 0.321985 0.014329 0.300000 0.000000 0.600000
-0.280752 0.418244 0.030872 0.300000 0.000000 0.600000
0.522394 0.236473 0.134877 0.500000 0.500000 0.000000
0.341204 -0.132421 0.354942 0.600000 0.000000 0.300000
-0.797960 0.346414 -0.216936 0.300000 0.000000 0.600000
0.493264 0.188950 0.242341 0.500000 0.500000 0.000000
-0.207761 0.183008 0.030872 0.300000 0.000000 0.600000
0.429267 0.064298 0.242830 0.600000 0.000000 0.300000
-0.686871 -0.208809 0.227267 0.600000 0.300000 0.000000
-0.346255 0.062405 0.199357 0.600000 0.000000 0.300000
-0.694827 -0.600471 0.041004 0.300000 0.000000 0.600000
-0.696844 -0.079125 -0.014833 0.300000 0.000000 0.600000
0.531024 0.638788 -0.080195 0.300000 0.000000 0.600000
0.504212 0.209514 0.284819 0.500000 0.500000 0.000000
0.587362 0.114104 0.354942 0.500000 0.500000 0.000000
0.610504 -0.429376 -0.267807 0.600000 0.300000 0.000000
0.798848 0.055854 0.114491 0.500000 0.500000 0.000000
0.487142 0.505946 -0.267807 0.300000 0.000000 0.600000
0.388515 -0.036152 -0.267807 0.300000 0.000000 0.600000
-0.787231 0.051003 -0.267781 0.300000 0.000000 0.600000
0.312953 0.092242 0.034488 0.300000 0.000000 0.600000
0.619167 -0.051032 0.354942 0.500000 0.500000 0.000000
0.689526 0.009739 -0.083666 0.300000 0.000000 0.600000
0.538102 -0.263505 0.354942 0.600000 0.300000 0.000000
-0.311448 -0.477718 -0.267807 0.600000 0.300000 0.000000
0.519419 -0.002842 -0.267807 0.300000 0.000000 0.600000
-0.836961 0.283170 0.354940 0.500000 0.000000 0.500000
0.794253 0.349715 -0.185693 0.300000 0.000000 0.600000
-0.533039 -0.663648 -0.230472 0.300000 0.000000 0.600000
-0.183504 0.215297 -0.267807 0.300000 0.000000 0.600000
0.058076 0.145666 0.030872 0.300000 0.000000 0.600000
0.541680 -0.668775 0.026418 0.600000 0.000000 0.300000
-0.388682 -0.480522 0.354607 0.600000 0.300000 0.000000
-0.399399 -0.174115 0.354942 0.600000 0.000000 0.300000
-0.686871 -0.384329 0.107752 0.600000 0.300000 0.000000
-0.692377 -0.102929 0.052403 0.500000 0.000000 0.500000
0.134106 -0.107465 0.354942 0.600000 0.000000 0.300000
-0.725738 -0.000834 0.078407 0.500000 0.000000 0.500000
0.499125 -0.185816 -0.267807 0.300000 0.000000 0.600000
0.883345 0.238999 0.317134 0.500000 0.500000 0.000000
0.493827 0.558525 -0.267807 0.300000 0.000000 0.600000
0.519297 -0.056887 0.354942 0.500000 0.500000 0.000000
-0.247861 -0.523813 -0.046589 0.600000 0.300000 0.000000
0.400100 -0.323384 0.354941 0.600000 0.300000 0.000000
-0.612280 -0.667866 0.228673 0.300000 0.000000 0.600000
0.663658 -0.508091 0.259793 0.600000 0.000000 0.300000
-0.255057 0.197652 0.030872 0.300000 0.000000 0.600000
0.754479 0.040494 -0.206940 0.300000 0.000000 0.600000
0.519040 0.317837 -0.267807 0.300000 0.000000 0.600000
-0.624131 0.432391 -0.144375 0.300000 0.000000 0.600000
-0.080040 0.478114 0.030872 0.300000 0.000000 0.600000
0.837470 0.083312 0.019157 0.300000 0.000000 0.600000
0.374442 -0.414651 -0.267807 0.600000 0.300000 0.000000
0.485919 0.056802 0.354941 0.500000 0.500000 0.000000
-0.686871 -0.210037 0.259534 0.600000 0.300000 0.000000
-0.104254 -0.394912 0.354077 0.600000 0.300000 0.000000
-0.433257 -0.142929 0.354942 0.600000 0.000000 0.300000
-0.509575 -0.530195 0.192834 0.600000 0.300000 0.000000
0.108132 -0.160176 0.354942 0.600000 0.000000 0.300000
0.531580 -0.655646 -0.256849 0.600000 0.000000 0.300000
-0.686871 -0.236548 -0.008303 0.600000 0.300000 0.000000
0.499951 0.176176 -0.267807 0.300000 0.000000 0.600000
-0.685088 -0.442967 -0.246873 0.600000 0.300000 0.000000
-0.422256 0.699288 -0.194096 0.300000 0.000000 0.600000
-0.328107 -0.045960 -0.267807 0.300000 0.000000 0.600000
-0.040713 0.530239 -0.267807 0.300000 0.000000 0.600000
0.788943 0.343770 0.265767 0.500000 0.500000 0.000000
-0.826930 0.030856 -0.254781 0.300000 0.000000 0.600000
-0.668459 -0.544656 -0.257391 0.300000 0.000000 0.600000
-0.798347 0.306433 0.354231 0.500000 0.000000 0.500000
