ply
format ascii 1.0
element vertex 1276
property float x
property float y
property float z
property uchar red
property uchar green
property uchar blue
end_header
0.087833 -0.081470 -0.038147 0 0 255
0.045221 -0.024801 -0.186002 255 0 0
-0.271969 -0.276708 0.412696 76 0 153
0.344643 -0.028317 0.175808 0 0 255
0.334755 -0.604086 0.456696 153 0 76
0.333147 -0.265629 0.432471 153 0 76
-0.177013 0.287493 -0.222122 204 51 127
-0.102060 0.145997 -0.295883 0 255 0
0.294920 -0.480565 0.251552 153 0 76
-0.046768 0.493821 -0.289127 255 0 0
-0.030366 -0.020122 -0.233419 0 0 255
-0.214598 -0.137497 -0.148926 0 127 127
-0.025748 -0.020648 0.055762 0 0 255
-0.243880 0.422990 -0.238905 153 0 76
0.336186 -0.040794 0.131128 0 0 255
-0.070601 -0.477411 0.122796 76 0 153
0.294502 -0.114078 0.407973 153 0 76
-0.065525 0.525255 -0.290409 255 0 0
-0.170578 -0.483782 0.133088 76 0 153
-0.091142 -0.035797 -0.244015 0 0 255
0.115904 -0.081470 0.412638 0 0 255
-0.312778 -0.494239 0.052256 153 76 0
0.282541 -0.675891 -0.198893 76 153 0
-0.027465 0.635382 -0.318920 255 0 0
-0.115279 -0.028493 -0.175099 0 0 255
-0.314205 -0.447036 0.098359 153 76 0
0.335575 0.228947 -0.181347 153 0 76
-0.373201 0.532883 -0.244116 153 0 76
0.041582 -0.020336 -0.166705 0 0 255
-0.316897 0.280641 -0.173878 153 0 76
-0.303032 -0.081030 -0.127143 0 0 255
-0.266610 0.735085 -0.319581 153 0 76
-0.267105 -0.020121 0.043304 0 0 255
0.039940 0.172488 -0.240525 255 0 0
-0.127870 -0.081470 -0.035911 0 0 255
-0.043282 -0.040800 -0.299786 0 255 0
0.370891 -0.062355 0.324001 0 0 255
0.301324 -0.454636 -0.008734 153 0 76
-0.199090 0.770886 -0.335430 204 51 127
0.280289 -0.083030 0.412001 153 0 76
0.123803 0.419462 -0.263846 76 0 153
-0.039608 -0.081470 -0.016134 0 0 255
0.176825 0.614487 -0.297606 153 76 0
0.299535 -0.491895 0.007108 153 0 76
0.369234 -0.022073 0.317725 0 0 255
0.065108 0.789790 -0.345082 255 0 0
-0.063885 -0.000114 -0.295348 0 255 0
0.288420 -0.493317 0.086613 153 0 76
0.340537 -0.684950 0.491021 153 0 76
-0.206551 0.631457 -0.310131 204 51 127
0.362882 -0.681505 0.466922 153 0 76
0.075353 -0.080833 -0.285529 127 0 127
0.272983 -0.244214 -0.171980 76 153 0
0.286060 -0.485150 -0.102315 153 0 76
-0.171255 0.159345 -0.218905 204 51 127
-0.346823 -0.634850 0.465156 76 0 153
0.160348 0.469507 -0.301515 127 127 0
0.252789 -0.278484 -0.188563 76 153 0
-0.120638 0.569413 -0.301314 0 0 255
-0.341861 -0.394844 0.412816 76 0 153
-0.282081 -0.020192 0.459714 0 0 255
-0.338136 -0.475845 0.129602 153 76 0
0.175850 0.419743 -0.274170 153 76 0
0.280902 -0.081470 0.346396 0 0 255
-0.254003 -0.489590 -0.190796 0 127 127
0.341975 -0.468992 0.413618 153 0 76
0.057736 0.272471 -0.238465 255 0 0
-0.141396 0.792617 -0.331078 0 0 255
0.171796 0.468964 -0.261006 153 76 0
-0.264341 0.694602 -0.319991 153 0 76
-0.137096 0.313581 -0.317122 0 255 0
0.104597 0.395523 -0.272853 76 0 153
0.281184 -0.020451 0.128041 0 0 255
0.035919 -0.081470 0.184549 0 0 255
0.091712 0.172576 -0.214644 76 0 153
0.339776 -0.307298 0.445336 153 0 76
0.318723 0.319471 -0.211923 153 0 76
-0.102452 -0.020375 -0.108848 0 0 255
0.004150 -0.482510 0.171099 76 0 153
0.060845 -0.081470 0.289007 0 0 255
0.238828 0.548592 -0.289159 76 0 153
-0.007218 -0.081470 0.099771 0 0 255
0.031051 -0.020455 -0.013100 0 0 255
-0.382181 -0.542334 0.476453 76 0 153
-0.335948 -0.049200 0.066702 0 0 255
-0.072376 -0.081470 0.156156 0 0 255
-0.119186 -0.081470 0.339900 0 0 255
-0.257946 -0.020121 0.236809 0 0 255
-0.003146 0.705104 -0.314281 255 0 0
-0.047281 0.008489 -0.211038 255 0 0
0.259958 -0.559253 -0.179896 76 153 0
0.150041 -0.081470 0.194050 0 0 255
0.252574 -0.242026 -0.183544 76 153 0
-0.053579 0.148342 -0.229476 255 0 0
0.000406 -0.081470 -0.284409 127 0 127
0.278348 -0.309452 -0.128123 76 153 0
-0.257302 0.766256 -0.345075 153 0 76
0.121616 0.767562 -0.326475 76 0 153
-0.162732 0.390148 -0.303852 0 255 0
0.169445 0.391891 -0.243772 153 76 0
0.213311 -0.213614 -0.153776 76 153 0
-0.303608 -0.081470 0.162752 0 0 255
-0.155185 -0.020791 0.112827 0 0 255
0.214876 -0.020474 0.135862 0 0 255
0.047282 -0.020121 0.106136 0 0 255
0.114991 -0.020455 0.001074 0 0 255
-0.256713 0.486485 -0.276197 153 0 76
0.092680 0.785917 -0.341586 153 0 76
-0.203250 0.628014 -0.325141 0 255 0
0.280476 0.741830 -0.338557 153 0 76
-0.107108 -0.081470 0.146031 0 0 255
-0.202121 -0.020260 -0.151336 0 0 255
-0.342440 -0.461399 0.293083 153 76 0
0.287702 -0.576822 -0.216091 76 153 0
0.331153 -0.455874 0.270564 153 0 76
-0.081777 0.090364 -0.285209 0 255 0
0.042166 0.053409 -0.201625 255 0 0
0.023388 0.558319 -0.288597 255 0 0
-0.218540 -0.049961 -0.133833 0 127 127
0.311439 0.140010 -0.134074 153 0 76
0.371103 -0.046708 0.347298 0 0 255
0.226160 -0.287088 -0.173696 76 153 0
-0.245827 -0.081470 0.355165 0 0 255
0.242245 0.622937 -0.297953 76 0 153
0.190225 -0.081470 0.291199 0 0 255
-0.263106 -0.389766 -0.202423 0 127 127
-0.382024 0.449841 -0.246315 153 0 76
0.254397 -0.424396 -0.202252 76 153 0
-0.029123 0.254665 -0.250888 255 0 0
0.188561 0.036929 -0.155638 76 0 153
-0.246735 0.474204 -0.274720 153 0 76
0.222454 0.701952 -0.317143 127 127 0
-0.161244 -0.026271 -0.159816 204 51 127
0.331789 -0.459797 0.410702 153 0 76
-0.267731 -0.181954 -0.133674 0 127 127
-0.283639 -0.471596 0.096126 153 76 0
0.364581 -0.081221 0.311565 0 0 255
0.198006 0.689821 -0.321525 153 76 0
-0.374417 0.489583 -0.270296 153 0 76
0.373425 -0.806742 0.514329 153 0 76
0.340148 0.246517 -0.193420 153 0 76
-0.309802 -0.471575 0.134598 76 0 153
-0.095661 -0.027573 0.501393 0 0 255
-0.207920 0.765274 -0.342156 204 51 127
-0.061010 -0.020455 0.055272 0 0 255
-0.111975 -0.020440 -0.202922 0 0 255
-0.049944 -0.081470 -0.151771 0 0 255
0.315032 -0.467993 0.389131 153 0 76
0.257053 -0.169204 0.408558 153 0 76
-0.178816 -0.081470 -0.071167 0 0 255
-0.093735 -0.081470 0.461848 0 0 255
0.266222 0.709735 -0.322444 76 0 153
-0.086729 -0.081470 0.037588 0 0 255
0.226739 -0.081470 0.225045 0 0 255
-0.065180 0.469348 -0.291926 255 0 0
-0.117835 0.043992 -0.201661 0 0 255
0.313493 -0.081439 -0.064569 0 0 255
0.006393 -0.081468 -0.323354 127 0 127
-0.131806 0.747172 -0.336157 0 0 255
0.305975 -0.081470 0.028147 0 0 255
0.156030 -0.020121 0.453827 0 0 255
-0.070108 -0.081470 0.395619 0 0 255
-0.241379 -0.407395 -0.172197 0 127 127
0.293220 -0.020121 0.186478 0 0 255
-0.040907 0.817120 -0.365454 153 0 76
-0.226841 0.308415 -0.234885 153 0 76
-0.352035 0.464882 -0.263119 153 0 76
-0.105549 -0.081469 -0.217156 0 0 255
0.126558 -0.020121 0.424710 0 0 255
-0.274111 -0.267086 -0.122794 0 127 127
-0.059079 0.514485 -0.280315 255 0 0
0.029787 -0.081470 0.250834 0 0 255
-0.201451 0.686148 -0.309028 204 51 127
0.082431 0.160985 -0.310366 127 127 0
-0.097778 -0.020121 0.238116 0 0 255
-0.073626 -0.020278 0.137653 0 0 255
-0.380882 -0.528051 0.475037 76 0 153
-0.245062 0.513072 -0.279909 153 0 76
0.045086 0.758967 -0.343896 255 0 0
0.071018 0.073414 -0.299136 127 127 0
-0.279631 -0.266367 0.447847 76 0 153
-0.267178 -0.232575 -0.178149 0 127 127
-0.297247 -0.455882 -0.137722 0 127 127
0.263463 -0.020121 0.006506 0 0 255
0.190680 0.079650 -0.168404 76 0 153
0.255455 -0.540493 -0.179366 76 153 0
-0.257202 -0.144546 -0.125955 0 127 127
-0.027357 -0.006735 -0.188693 255 0 0
-0.325540 -0.688025 -0.177840 0 127 127
-0.095732 -0.020455 -0.022764 0 0 255
-0.072323 -0.020121 0.289010 0 0 255
0.338855 -0.757036 -0.203022 76 153 0
-0.319202 -0.228411 0.394898 76 0 153
0.223606 -0.136693 -0.163392 76 153 0
-0.347304 0.488800 -0.268820 153 0 76
0.309078 -0.265071 0.390368 153 0 76
0.363487 -0.742217 0.518163 153 0 76
-0.332262 0.256780 -0.163900 153 0 76
-0.025201 -0.020121 0.442943 0 0 255
0.311015 -0.498063 0.178803 153 0 76
0.268838 -0.554435 -0.159276 76 153 0
-0.340466 -0.059406 0.114977 0 0 255
-0.189288 0.545181 -0.277655 204 51 127
-0.381226 0.546597 -0.286860 153 0 76
-0.378625 0.415947 -0.248903 153 0 76
0.238855 -0.481026 0.156855 76 0 153
0.283308 -0.248503 0.389898 153 0 76
0.335647 -0.473940 0.179208 153 0 76
0.314847 0.303879 -0.177583 153 0 76
-0.082808 0.508983 -0.298120 255 0 0
0.264893 -0.337387 -0.127667 76 153 0
0.016077 0.564185 -0.306173 255 0 0
0.119498 0.781542 -0.340892 76 0 153
0.032312 0.720057 -0.327348 255 0 0
-0.298922 -0.536851 -0.147669 0 127 127
-0.257085 0.012319 -0.092877 153 0 76
-0.310211 -0.020121 0.227804 0 0 255
-0.280740 -0.027890 -0.117869 153 0 76
0.325692 -0.457191 0.359068 153 0 76
-0.061606 0.077443 -0.296550 0 255 0
-0.344628 -0.423832 0.484745 76 0 153
0.118844 0.337137 -0.258156 76 0 153
0.281665 -0.020121 0.179134 0 0 255
0.182737 -0.081470 0.448133 0 0 255
-0.352622 -0.551471 0.437864 76 0 153
-0.333183 -0.049206 -0.043522 0 0 255
-0.173143 0.202461 -0.228463 204 51 127
0.235261 -0.340759 -0.180858 76 153 0
-0.074049 0.046828 -0.286036 0 255 0
0.078550 -0.080924 -0.242012 0 0 255
-0.349733 0.253113 -0.196553 153 0 76
0.101492 0.223867 -0.313193 127 127 0
-0.311354 -0.462283 -0.039111 153 76 0
0.095673 -0.033781 -0.190524 76 0 153
0.103382 -0.081470 0.454209 0 0 255
0.003484 0.583106 -0.304472 255 0 0
0.163111 -0.081470 -0.109669 0 0 255
0.369631 -0.566251 0.452589 153 0 76
0.103495 -0.081470 0.065873 0 0 255
-0.176476 0.251632 -0.238936 204 51 127
0.231256 -0.020121 0.265270 0 0 255
0.155332 0.292524 -0.243708 153 76 0
0.297820 -0.366534 0.421888 153 0 76
0.094617 0.079452 -0.212069 76 0 153
-0.126920 -0.020121 0.259239 0 0 255
-0.382001 0.542700 -0.259495 153 0 76
-0.317620 -0.356729 0.462707 76 0 153
0.240145 -0.081470 0.382050 0 0 255
0.157742 0.281538 -0.222222 153 76 0
0.032225 -0.081470 -0.029340 0 0 255
-0.346700 0.476660 -0.257126 153 0 76
0.178257 -0.081470 -0.166989 0 0 255
0.092040 -0.081470 -0.052343 0 0 255
0.147500 -0.021403 -0.180199 153 76 0
0.116035 0.622751 -0.296695 76 0 153
0.230882 -0.020122 -0.049455 0 0 255
-0.238485 -0.081470 0.386428 0 0 255
-0.232227 -0.020421 0.138994 0 0 255
0.173625 -0.020126 0.473285 0 0 255
-0.306358 -0.493804 0.031021 153 76 0
-0.153346 0.021574 -0.188581 204 51 127
0.329735 -0.738320 -0.217670 76 153 0
-0.094085 0.790334 -0.330577 153 0 76
-0.141109 -0.081470 -0.032992 0 0 255
0.208425 -0.478231 0.160638 76 0 153
-0.230745 -0.186253 -0.168641 0 127 127
0.063305 0.528876 -0.283680 255 0 0
0.344773 -0.408492 0.424156 153 0 76
-0.249635 0.574964 -0.281480 153 0 76
0.302423 0.245031 -0.193045 153 0 76
0.300038 -0.177928 0.429057 153 0 76
0.332693 -0.661572 -0.197158 76 153 0
-0.108428 0.031728 -0.203591 0 0 255
-0.073932 0.550925 -0.306433 255 0 0
0.204748 0.007691 -0.152101 76 0 153
0.283866 -0.395216 -0.132738 76 153 0
-0.166807 0.812560 -0.331772 153 0 76
-0.322674 -0.361674 0.414187 76 0 153
-0.284306 -0.568238 -0.212362 0 127 127
-0.055092 -0.036762 -0.292076 0 255 0
0.221787 0.688869 -0.327890 127 127 0
0.246137 -0.020121 0.354826 0 0 255
-0.026882 0.691912 -0.311796 255 0 0
-0.293827 -0.086786 0.406969 76 0 153
-0.287728 -0.480365 0.139218 153 76 0
-0.124636 -0.457956 0.163121 76 0 153
-0.296299 -0.295417 0.397472 76 0 153
-0.239843 -0.081470 0.408926 0 0 255
0.185780 0.608713 -0.315935 127 127 0
-0.331138 -0.471153 0.419723 76 0 153
0.029266 -0.049878 -0.338250 127 0 127
-0.168199 0.421129 -0.319288 0 255 0
-0.317239 -0.452507 0.275521 153 76 0
0.263537 -0.081470 -0.060898 0 0 255
0.023263 -0.081470 -0.065324 0 0 255
-0.209847 -0.466159 0.161058 76 0 153
-0.014782 -0.071045 0.503346 0 0 255
0.123598 0.491864 -0.288079 76 0 153
-0.228440 -0.303250 -0.172213 0 127 127
-0.344460 -0.463970 0.381057 153 76 0
0.283467 -0.637900 -0.176970 76 153 0
0.298044 -0.676575 -0.220240 76 153 0
0.117488 -0.063608 0.499648 0 0 255
0.205689 -0.020279 0.144284 0 0 255
-0.188225 0.496506 -0.289707 204 51 127
0.212889 -0.081470 0.412336 0 0 255
0.025314 0.648802 -0.324351 255 0 0
0.218328 -0.281039 -0.137835 76 153 0
-0.371147 -0.509616 0.488766 76 0 153
-0.106880 -0.008156 -0.195706 0 0 255
-0.211225 0.662026 -0.324086 0 255 0
-0.044024 0.322083 -0.266315 255 0 0
0.362499 -0.684473 0.515751 153 0 76
0.263635 -0.182471 -0.150845 76 153 0
-0.056172 0.678136 -0.319222 255 0 0
-0.340600 -0.298475 0.449616 76 0 153
0.274400 0.005137 -0.129551 153 0 76
0.026693 0.252078 -0.254459 255 0 0
-0.270311 -0.492073 -0.144271 0 127 127
-0.000223 -0.081470 -0.238138 0 0 255
0.221177 0.762566 -0.310845 153 0 76
0.324759 -0.450665 0.190806 153 0 76
0.324710 0.182235 -0.180330 153 0 76
-0.356756 -0.063995 0.200144 0 0 255
0.381382 -0.722094 0.517152 153 0 76
-0.183554 0.285230 -0.243434 204 51 127
0.169759 0.286855 -0.245373 153 76 0
0.243710 0.439122 -0.247095 76 0 153
0.336390 0.436394 -0.243319 153 0 76
-0.031972 0.273133 -0.246507 255 0 0
-0.281801 -0.472760 0.038011 153 76 0
-0.094843 -0.493245 0.156867 76 0 153
0.064882 -0.468660 0.122564 76 0 153
-0.284978 -0.337240 -0.186318 0 127 127
0.276089 -0.180241 0.433385 153 0 76
-0.353671 -0.616280 0.455157 76 0 153
0.242478 0.451424 -0.247896 76 0 153
0.076309 -0.066094 -0.257154 127 0 127
0.091345 0.228912 -0.292547 127 127 0
0.107945 -0.020121 0.242511 0 0 255
0.152600 0.449906 -0.323599 127 127 0
0.137819 -0.081470 0.029800 0 0 255
-0.053299 -0.081470 -0.049134 0 0 255
-0.031607 0.644332 -0.303380 255 0 0
0.275933 0.043505 -0.101938 153 0 76
-0.023475 0.385084 -0.277554 255 0 0
-0.244348 0.347385 -0.223372 153 0 76
0.261443 -0.515922 -0.205760 76 153 0
-0.021287 -0.020121 0.338538 0 0 255
-0.339636 0.583641 -0.269976 153 0 76
0.113509 0.405423 -0.251780 76 0 153
-0.206314 0.618662 -0.306584 204 51 127
-0.236380 -0.280577 -0.181654 0 127 127
-0.302501 -0.551790 -0.216073 0 127 127
-0.194952 -0.081469 0.473799 0 0 255
0.324368 -0.590170 0.460749 153 0 76
0.197384 -0.487037 0.151981 76 0 153
0.273435 -0.473799 -0.084010 153 0 76
0.225334 -0.178931 -0.120918 76 153 0
0.213732 -0.076437 0.487013 0 0 255
-0.011463 -0.020121 -0.303618 127 0 127
-0.359911 -0.692147 0.478386 76 0 153
-0.129887 -0.020455 -0.075474 0 0 255
0.243801 -0.479825 -0.184930 76 153 0
0.323089 -0.076271 -0.069735 0 0 255
0.286316 -0.294901 -0.142549 76 153 0
0.160223 -0.042805 -0.225982 0 0 255
0.194174 0.722867 -0.317508 153 76 0
0.343416 0.262925 -0.204446 153 0 76
-0.226588 -0.081470 0.090843 0 0 255
-0.322416 -0.501681 0.494188 76 0 153
-0.242504 -0.130095 -0.116576 0 127 127
-0.345061 -0.373897 0.465673 76 0 153
0.339875 0.253214 -0.166043 153 0 76
0.231242 0.748615 -0.333805 127 127 0
-0.340670 0.406507 -0.223566 153 0 76
0.011471 0.179360 -0.241543 255 0 0
-0.084441 -0.081470 0.142954 0 0 255
-0.328024 0.652945 -0.278996 153 0 76
-0.306182 0.080824 -0.147612 153 0 76
-0.083419 -0.081470 0.325937 0 0 255
0.279213 0.692089 -0.324788 153 0 76
-0.070752 0.228495 -0.239559 255 0 0
0.281642 -0.436675 -0.209064 76 153 0
0.036125 0.113115 -0.227734 255 0 0
-0.103658 0.811595 -0.363849 153 0 76
-0.399459 -0.772181 0.519345 76 0 153
-0.384121 -0.781541 0.527021 76 0 153
0.056649 -0.020455 -0.019697 0 0 255
0.029639 -0.001795 -0.189950 255 0 0
0.172785 0.788469 -0.318370 153 0 76
-0.165494 -0.020121 0.382785 0 0 255
0.252254 0.718748 -0.336874 153 0 76
0.091970 -0.493726 0.138669 76 0 153
-0.216359 0.682413 -0.323093 0 255 0
-0.268633 -0.221795 0.422091 76 0 153
-0.059002 -0.020121 0.424493 0 0 255
-0.256857 -0.451317 -0.144919 0 127 127
-0.247640 -0.259652 -0.119548 0 127 127
0.026878 -0.020121 0.146087 0 0 255
-0.277186 -0.545335 -0.154978 0 127 127
0.300520 0.137069 -0.167881 153 0 76
-0.185175 -0.020455 -0.002630 0 0 255
-0.192995 0.678619 -0.319368 204 51 127
-0.126188 0.323365 -0.237613 0 0 255
-0.329426 -0.478436 0.061074 153 76 0
-0.023644 0.436865 -0.278701 255 0 0
-0.350841 0.373096 -0.236454 153 0 76
0.194481 0.127815 -0.185509 76 0 153
0.247664 -0.098885 -0.141476 76 153 0
0.268364 -0.106341 0.418655 153 0 76
-0.103387 -0.020455 -0.092918 0 0 255
0.262790 -0.298120 -0.193151 76 153 0
0.053323 -0.081470 0.214548 0 0 255
-0.309480 -0.446790 0.177594 153 76 0
-0.192411 -0.462364 0.160300 76 0 153
0.149479 0.100346 -0.206575 153 76 0
-0.051737 -0.081470 0.470962 0 0 255
-0.189369 -0.020130 -0.199710 0 0 255
-0.174532 0.132876 -0.209772 204 51 127
-0.361685 -0.028809 0.222545 0 0 255
0.203751 -0.020455 -0.075310 0 0 255
-0.120677 0.299309 -0.314383 0 255 0
-0.228041 0.155438 -0.198662 153 0 76
-0.086713 -0.058424 -0.323523 127 0 127
-0.242196 -0.254793 -0.184399 0 127 127
-0.196120 0.472421 -0.264810 204 51 127
-0.205643 0.602448 -0.302908 204 51 127
0.366060 -0.475515 0.442985 153 0 76
-0.072977 0.062972 -0.283317 0 255 0
0.351966 0.329558 -0.223804 153 0 76
-0.108871 0.141685 -0.224454 0 0 255
0.351827 -0.062760 0.207300 0 0 255
-0.025306 -0.081470 -0.194827 0 0 255
-0.084911 0.107226 -0.285465 0 255 0
0.333326 0.396775 -0.243333 153 0 76
-0.058571 -0.020455 -0.044100 0 0 255
-0.136226 0.490506 -0.286479 0 0 255
0.291126 -0.336725 -0.160412 76 153 0
-0.382938 -0.606708 0.496858 76 0 153
-0.358919 -0.081276 0.251971 0 0 255
0.099561 0.059674 -0.208956 76 0 153
0.127179 0.657400 -0.305650 76 0 153
0.380075 -0.780332 0.494310 153 0 76
0.218128 -0.020121 0.217675 0 0 255
0.109308 -0.020121 0.446643 0 0 255
0.267207 0.725560 -0.326420 76 0 153
0.232715 -0.081470 -0.069759 0 0 255
-0.119913 0.380262 -0.271546 0 0 255
0.154208 -0.081470 0.438783 0 0 255
0.304363 0.256277 -0.185119 153 0 76
0.170238 -0.081464 0.480548 0 0 255
-0.288429 -0.591336 -0.212754 0 127 127
0.395576 -0.771434 0.506797 153 0 76
0.159194 -0.020121 -0.167190 0 0 255
0.010967 0.621574 -0.299659 255 0 0
-0.313824 -0.081470 0.418413 0 0 255
0.278892 -0.217081 0.441616 153 0 76
0.276975 0.089255 -0.153990 153 0 76
-0.320190 -0.537321 0.446941 76 0 153
0.328089 -0.032709 0.031612 0 0 255
-0.295661 -0.391009 0.427122 76 0 153
0.251561 -0.354253 -0.185064 76 153 0
0.368180 -0.464757 0.454356 153 0 76
-0.311102 -0.467477 0.144961 76 0 153
0.311783 -0.795669 -0.205443 76 153 0
-0.321338 0.691406 -0.290170 153 0 76
0.256769 0.684686 -0.320153 76 0 153
-0.188694 0.394420 -0.267856 204 51 127
0.068374 -0.020125 -0.301343 127 0 127
0.160135 0.440603 -0.320946 127 127 0
0.245475 0.651497 -0.305291 76 0 153
-0.206644 -0.477043 0.161693 76 0 153
-0.038787 -0.020455 -0.039211 0 0 255
0.132532 -0.020455 -0.027172 0 0 255
-0.278833 0.048932 -0.142275 153 0 76
0.262609 -0.231176 0.410750 153 0 76
-0.349526 -0.332825 0.431039 76 0 153
0.280299 -0.081470 0.092158 0 0 255
-0.015121 -0.496686 0.137661 76 0 153
0.231997 -0.081470 0.158953 0 0 255
0.370280 -0.060293 0.310741 0 0 255
0.339717 -0.397774 0.475493 153 0 76
-0.100254 0.820138 -0.356797 153 0 76
0.140275 0.434250 -0.305245 127 127 0
-0.287222 0.002434 -0.128766 153 0 76
-0.056674 -0.009244 -0.207850 255 0 0
-0.211195 -0.076344 -0.149539 0 127 127
-0.247872 -0.485202 0.148244 76 0 153
0.184916 -0.020121 0.222842 0 0 255
0.140471 0.003015 -0.184567 153 76 0
-0.216109 0.171656 -0.204119 153 0 76
0.114560 0.339975 -0.306543 127 127 0
0.150862 0.384733 -0.311898 127 127 0
-0.226606 0.199511 -0.211881 153 0 76
-0.186402 0.567295 -0.285185 204 51 127
-0.250544 -0.081470 0.400211 0 0 255
-0.030748 0.364124 -0.273812 255 0 0
0.031790 -0.020121 -0.253071 127 0 127
0.125801 -0.073362 -0.234656 0 0 255
0.283377 -0.358534 0.429332 153 0 76
-0.345974 -0.470348 0.332965 153 76 0
0.327773 -0.075587 -0.007715 0 0 255
0.115060 0.210536 -0.222740 76 0 153
0.249415 -0.081470 0.338981 0 0 255
0.285174 -0.020122 -0.138857 0 0 255
0.226139 -0.020121 0.287812 0 0 255
-0.075268 0.444575 -0.279337 255 0 0
0.282619 0.104115 -0.119547 153 0 76
-0.317877 -0.438665 -0.160108 0 127 127
0.200788 -0.020445 -0.103128 0 0 255
0.327492 -0.031250 -0.022396 0 0 255
0.013036 -0.081470 0.103839 0 0 255
-0.076411 -0.020124 0.487449 0 0 255
-0.323141 -0.485603 0.350474 153 76 0
0.296671 -0.488095 -0.038022 153 0 76
-0.209175 0.156188 -0.194002 153 0 76
-0.321182 -0.593344 -0.164022 0 127 127
-0.063731 0.759712 -0.323492 255 0 0
0.240985 0.001736 -0.110553 153 0 76
0.290637 -0.083915 0.399443 153 0 76
0.306377 -0.485322 -0.015642 153 0 76
-0.067834 0.798040 -0.350015 255 0 0
-0.289791 -0.398130 -0.132635 0 127 127
-0.058363 -0.024953 -0.290744 0 255 0
-0.035390 -0.489740 0.166078 76 0 153
-0.263562 -0.543508 -0.190313 0 127 127
0.110193 0.314810 -0.299162 127 127 0
-0.255344 -0.313236 -0.195801 0 127 127
0.368199 0.581366 -0.286621 153 0 76
0.271932 -0.081470 0.388007 0 0 255
0.234219 0.776397 -0.340435 153 0 76
0.297483 -0.478844 -0.210083 76 153 0
-0.289721 0.074162 -0.149605 153 0 76
0.024501 -0.020121 0.455045 0 0 255
0.352680 -0.081407 0.259614 0 0 255
-0.013046 0.197304 -0.234977 255 0 0
0.245296 -0.467084 -0.192787 76 153 0
0.195355 0.034999 -0.173162 76 0 153
0.005497 -0.020121 -0.201417 0 0 255
-0.331263 -0.486054 0.372774 153 76 0
-0.091974 0.201661 -0.301167 0 255 0
-0.032023 0.411226 -0.262305 255 0 0
0.018295 -0.020229 -0.085677 0 0 255
0.306314 -0.727998 -0.216594 76 153 0
0.302606 -0.386246 0.416453 153 0 76
-0.325934 -0.481838 0.495205 76 0 153
-0.062944 -0.020741 0.498945 0 0 255
-0.119145 -0.081470 0.424209 0 0 255
0.056315 0.202280 -0.235351 255 0 0
0.358231 -0.747970 0.499894 153 0 76
0.285962 -0.268372 -0.164328 76 153 0
0.180622 0.357817 -0.252500 153 76 0
0.213419 -0.221012 -0.145047 76 153 0
0.262119 -0.208423 0.403266 153 0 76
-0.083078 -0.081470 0.257596 0 0 255
0.197947 0.080658 -0.183523 76 0 153
0.009938 -0.020315 -0.102158 0 0 255
-0.005105 0.125223 -0.212094 255 0 0
0.324950 -0.619428 -0.177034 76 153 0
0.089033 0.088820 -0.198402 76 0 153
-0.297974 -0.226549 0.386282 76 0 153
-0.279367 -0.307661 0.413970 76 0 153
-0.113263 -0.081470 -0.050517 0 0 255
-0.036427 0.515890 -0.287651 255 0 0
0.028543 -0.081470 0.096892 0 0 255
0.091323 -0.020121 0.213187 0 0 255
-0.297775 -0.335968 0.401261 76 0 153
-0.384694 -0.600501 0.469292 76 0 153
0.139116 -0.081470 -0.017524 0 0 255
-0.071442 0.802762 -0.331025 255 0 0
0.337388 -0.502088 0.500270 153 0 76
0.128927 0.819356 -0.327344 153 0 76
0.042241 0.480081 -0.274940 255 0 0
0.319218 -0.448104 0.208699 153 0 76
-0.339387 -0.080440 0.122999 0 0 255
-0.345529 0.551232 -0.288206 153 0 76
-0.188387 -0.081470 0.173266 0 0 255
-0.094075 0.184551 -0.310054 0 255 0
-0.315959 0.270111 -0.167773 153 0 76
0.181658 0.781714 -0.316407 153 0 76
0.240669 0.481621 -0.253180 76 0 153
0.125482 0.590991 -0.292193 76 0 153
0.257408 -0.081470 0.205072 0 0 255
-0.105187 -0.081470 -0.040996 0 0 255
-0.318235 -0.199857 0.398912 76 0 153
-0.056993 0.754281 -0.342379 255 0 0
-0.132866 -0.081470 0.139601 0 0 255
-0.288769 0.695740 -0.304757 153 0 76
0.081656 -0.081470 0.026411 0 0 255
0.061195 0.106593 -0.287123 127 127 0
0.162142 -0.081470 0.039135 0 0 255
-0.316760 -0.463918 0.345181 153 76 0
-0.023511 0.522551 -0.292661 255 0 0
-0.316859 -0.424005 0.484374 76 0 153
0.369646 0.570629 -0.290500 153 0 76
0.267658 -0.330459 -0.193437 76 153 0
-0.342181 -0.483027 0.305320 153 76 0
0.255797 0.681313 -0.302110 76 0 153
-0.215346 -0.081470 0.411918 0 0 255
-0.055913 -0.081470 0.245055 0 0 255
-0.031873 -0.020121 0.384910 0 0 255
0.103142 0.487695 -0.277635 76 0 153
0.294689 0.074090 -0.119694 153 0 76
0.163961 -0.081470 0.061370 0 0 255
-0.053590 -0.020121 0.159154 0 0 255
0.343605 0.474737 -0.227222 153 0 76
-0.042941 -0.032397 -0.279055 0 255 0
-0.252846 0.774621 -0.325198 153 0 76
-0.173639 0.377528 -0.243478 204 51 127
-0.192632 -0.020121 0.439303 0 0 255
-0.212233 0.733355 -0.325907 204 51 127
-0.273267 -0.586585 -0.191947 0 127 127
-0.217874 0.621131 -0.324414 0 255 0
0.100180 -0.081470 0.417682 0 0 255
-0.171741 0.214978 -0.231403 204 51 127
-0.114597 0.472641 -0.281009 0 0 255
-0.056158 -0.492288 0.162085 76 0 153
0.241798 -0.336981 -0.130311 76 153 0
-0.168837 -0.020121 0.367652 0 0 255
-0.189257 0.790307 -0.357664 153 0 76
0.263239 -0.081470 0.012941 0 0 255
-0.067287 0.288918 -0.260189 255 0 0
-0.177931 -0.488874 0.152311 76 0 153
-0.243554 -0.081470 0.043188 0 0 255
-0.153570 0.445878 -0.309539 0 255 0
-0.228035 0.790363 -0.318920 153 0 76
0.011812 0.825704 -0.360505 153 0 76
-0.306336 -0.504698 0.453415 76 0 153
-0.111399 0.280624 -0.304059 0 255 0
0.068168 -0.020121 0.353874 0 0 255
0.322763 -0.483694 0.397739 153 0 76
-0.353953 0.658115 -0.297013 153 0 76
-0.136077 0.440096 -0.273820 0 0 255
-0.245923 -0.029338 -0.119535 153 0 76
-0.071448 -0.020121 0.364992 0 0 255
-0.321134 -0.476267 0.004491 153 76 0
-0.355636 0.500849 -0.273569 153 0 76
-0.120078 0.798429 -0.360024 153 0 76
0.218847 0.735792 -0.323501 127 127 0
-0.045149 -0.081470 -0.190985 0 0 255
-0.181207 0.211288 -0.224619 204 51 127
0.273933 -0.193646 0.434744 153 0 76
0.377057 -0.553412 0.471624 153 0 76
-0.191692 0.531714 -0.296692 204 51 127
0.253389 -0.071455 0.477982 0 0 255
-0.349957 -0.020294 0.224495 0 0 255
0.288389 -0.020121 0.327627 0 0 255
-0.303296 -0.402385 0.474901 76 0 153
0.102164 0.153822 -0.227641 76 0 153
0.195511 0.058088 -0.178040 76 0 153
-0.329045 0.615973 -0.305791 153 0 76
-0.340618 -0.476336 0.159462 153 76 0
-0.038893 -0.028486 -0.188918 255 0 0
0.270030 -0.327904 0.437544 153 0 76
-0.222622 0.091156 -0.182735 153 0 76
-0.025667 -0.020321 -0.331752 127 0 127
0.078892 -0.020455 -0.102521 0 0 255
-0.242282 0.383993 -0.229848 153 0 76
0.332808 0.410749 -0.212136 153 0 76
-0.239090 0.784697 -0.317274 153 0 76
0.216029 -0.020121 -0.162146 0 0 255
-0.075689 -0.061931 -0.327992 127 0 127
0.011417 -0.020262 -0.066592 0 0 255
0.059813 0.051849 -0.283368 127 127 0
0.130475 0.699162 -0.317445 76 0 153
0.239551 -0.312439 -0.192536 76 153 0
0.057848 -0.025362 0.502648 0 0 255
0.243288 -0.036385 0.480778 0 0 255
0.118496 0.713701 -0.316335 76 0 153
0.337464 -0.063205 0.434553 0 0 255
0.069243 -0.448547 0.140002 76 0 153
-0.352480 -0.660821 0.507940 76 0 153
-0.010326 -0.020121 -0.314900 127 0 127
0.151107 0.263596 -0.233344 153 76 0
-0.238698 -0.351542 -0.171017 0 127 127
-0.290483 -0.487830 -0.026522 153 76 0
-0.320002 -0.503526 -0.200993 0 127 127
0.040479 0.585587 -0.313316 255 0 0
0.107874 0.559310 -0.298452 76 0 153
0.265113 -0.483301 0.152364 76 0 153
-0.138827 -0.081206 0.490932 0 0 255
-0.065492 -0.020121 0.401699 0 0 255
0.310985 -0.498206 0.158555 153 0 76
-0.304105 -0.388774 0.417222 76 0 153
0.374936 -0.543983 0.480929 153 0 76
-0.266583 0.679701 -0.301794 153 0 76
0.304217 -0.386823 -0.159534 76 153 0
-0.030255 0.461674 -0.271206 255 0 0
0.331043 -0.680886 -0.204761 76 153 0
-0.109847 0.150013 -0.203753 0 0 255
-0.309065 -0.449457 0.211805 153 76 0
0.243687 0.018084 -0.101454 153 0 76
-0.295645 -0.460373 -0.115110 153 76 0
0.014724 0.811542 -0.325074 153 0 76
0.331360 -0.472135 0.122612 153 0 76
0.337368 0.546107 -0.261765 153 0 76
-0.030243 0.533211 -0.283811 255 0 0
0.331855 -0.030798 0.101060 0 0 255
-0.390783 -0.804854 0.531203 76 0 153
0.034777 0.003314 -0.283381 127 127 0
-0.365870 0.575402 -0.256468 153 0 76
0.192749 0.762855 -0.320352 153 0 76
0.014617 -0.020147 -0.001098 0 0 255
-0.231870 -0.169677 -0.167273 0 127 127
-0.326965 -0.448501 0.179345 153 76 0
0.233082 -0.081470 0.359531 0 0 255
0.261170 0.626865 -0.301045 76 0 153
0.027963 -0.081470 0.199256 0 0 255
0.063498 0.083870 -0.306324 127 127 0
0.262514 -0.407720 -0.133967 76 153 0
-0.069350 0.813575 -0.325664 153 0 76
0.167381 -0.081470 0.449661 0 0 255
-0.130739 0.601414 -0.291463 0 0 255
-0.135627 -0.020539 0.109220 0 0 255
-0.223818 0.182328 -0.207982 153 0 76
0.020773 -0.020121 0.165626 0 0 255
-0.158643 -0.081470 0.115267 0 0 255
-0.305657 -0.459124 -0.052470 153 76 0
0.185590 -0.020121 0.347478 0 0 255
0.306617 0.682690 -0.287638 153 0 76
0.270403 -0.033156 -0.094453 153 0 76
-0.077899 -0.081468 0.484318 0 0 255
0.332429 -0.346734 0.457244 153 0 76
-0.189843 -0.081470 0.231337 0 0 255
0.329965 0.332255 -0.185827 153 0 76
-0.112643 0.310903 -0.235491 0 0 255
-0.190828 -0.081470 0.154697 0 0 255
0.163187 0.226132 -0.233498 153 76 0
-0.006658 -0.459824 0.170365 76 0 153
0.323317 -0.020729 0.441291 0 0 255
-0.073642 -0.020121 0.172902 0 0 255
-0.187649 0.765502 -0.330149 153 0 76
0.196184 0.717587 -0.331361 153 76 0
0.354822 -0.020452 0.395656 0 0 255
0.294596 -0.560696 -0.151966 76 153 0
0.199535 0.710274 -0.322460 153 76 0
0.261653 -0.187226 -0.132573 76 153 0
0.162059 -0.488596 0.154864 76 0 153
0.233132 -0.081470 0.447220 0 0 255
-0.315590 -0.552538 -0.155569 0 127 127
0.178906 -0.081470 -0.020397 0 0 255
-0.080137 0.078596 -0.303955 0 255 0
-0.344956 0.238860 -0.169814 153 0 76
0.361446 0.579007 -0.257516 153 0 76
-0.377816 -0.039670 0.334723 0 0 255
0.168727 0.529960 -0.284366 153 76 0
-0.288272 0.056181 -0.144381 153 0 76
-0.017230 -0.020623 0.011560 0 0 255
-0.139659 -0.020121 0.167879 0 0 255
-0.048319 0.043459 -0.212523 255 0 0
0.341954 -0.346017 0.436400 153 0 76
0.247911 -0.020121 -0.118887 0 0 255
0.336030 -0.479560 0.207964 153 0 76
-0.355652 -0.674326 0.515731 76 0 153
0.321033 -0.078230 0.447213 0 0 255
-0.332433 -0.462295 0.093689 153 76 0
-0.290807 -0.395464 -0.200515 0 127 127
0.164046 -0.064369 -0.224860 0 0 255
0.057115 -0.020121 0.313890 0 0 255
-0.194180 -0.020121 0.269374 0 0 255
0.346021 0.275712 -0.186115 153 0 76
-0.355099 0.647440 -0.316157 153 0 76
0.283169 0.115926 -0.122978 153 0 76
-0.219802 -0.223011 -0.150904 0 127 127
-0.380614 0.554026 -0.278812 153 0 76
-0.242936 0.395688 -0.257672 153 0 76
-0.160460 0.229444 -0.225640 204 51 127
0.014234 0.565904 -0.289914 255 0 0
-0.221135 0.228949 -0.217454 153 0 76
-0.069139 -0.043702 -0.330251 127 0 127
0.020220 -0.081470 -0.130685 0 0 255
0.240605 -0.459391 0.150865 76 0 153
-0.355706 0.599139 -0.302125 153 0 76
-0.026131 0.243419 -0.237589 255 0 0
0.073770 0.169952 -0.293571 127 127 0
0.290426 -0.123257 0.416995 153 0 76
0.084916 -0.081470 0.233463 0 0 255
0.273687 -0.020121 0.294827 0 0 255
-0.249151 -0.067956 -0.193092 0 0 255
-0.328520 -0.081463 0.152933 0 0 255
0.124765 0.660727 -0.321320 76 0 153
-0.320659 -0.081470 0.276735 0 0 255
0.291199 0.199195 -0.181037 153 0 76
0.114021 0.243109 -0.308230 127 127 0
0.284426 -0.284788 -0.161255 76 153 0
0.300521 -0.500773 0.448475 153 0 76
-0.274237 -0.160877 0.426220 76 0 153
-0.244288 -0.098621 -0.155731 0 127 127
0.345228 -0.616580 0.508524 153 0 76
0.335649 0.625914 -0.309903 153 0 76
0.274349 0.134181 -0.161269 153 0 76
-0.194804 0.802048 -0.333695 153 0 76
0.239069 -0.001703 -0.088962 153 0 76
-0.150383 0.434234 -0.310167 0 255 0
0.249303 -0.454248 -0.146301 76 153 0
0.325316 0.224348 -0.154477 153 0 76
0.201815 0.137146 -0.174806 76 0 153
0.141118 0.023515 -0.188544 153 76 0
-0.225082 -0.307698 -0.157022 0 127 127
0.017200 0.795181 -0.333684 153 0 76
-0.212358 -0.081470 0.183324 0 0 255
-0.304621 -0.483860 0.150652 76 0 153
-0.113196 -0.020176 -0.143810 0 0 255
0.351974 -0.497496 0.496025 153 0 76
-0.364458 -0.607683 0.509036 76 0 153
0.077785 -0.020121 0.234765 0 0 255
-0.253577 -0.091961 -0.134654 0 127 127
-0.347059 0.488701 -0.247483 153 0 76
-0.367233 -0.668993 0.519392 76 0 153
-0.034081 0.235931 -0.251202 255 0 0
-0.372065 0.547532 -0.248372 153 0 76
0.027214 -0.493974 0.132787 76 0 153
0.028364 -0.081470 -0.103323 0 0 255
0.285205 -0.565847 -0.215641 76 153 0
0.104151 -0.081470 -0.018774 0 0 255
-0.238770 0.330017 -0.217705 153 0 76
0.078338 -0.081470 0.092101 0 0 255
0.089627 -0.020455 0.034356 0 0 255
-0.126285 0.784449 -0.330215 153 0 76
-0.057670 -0.020455 -0.101784 0 0 255
-0.182744 -0.020289 -0.057098 0 0 255
0.342563 -0.020121 0.291491 0 0 255
-0.322994 -0.461044 0.031839 153 76 0
-0.339482 -0.472954 0.140036 153 76 0
-0.277348 -0.286324 -0.184107 0 127 127
-0.336144 -0.020348 0.153554 0 0 255
0.318045 0.197693 -0.185494 153 0 76
0.023797 -0.044963 -0.280626 127 127 0
-0.263127 0.702001 -0.311986 153 0 76
-0.083516 0.572316 -0.309757 255 0 0
0.003643 -0.028567 -0.189515 255 0 0
-0.029546 -0.081470 0.224351 0 0 255
-0.041298 0.209550 -0.246505 255 0 0
-0.013956 -0.020121 0.119116 0 0 255
0.162503 -0.020172 0.082920 0 0 255
-0.367221 -0.020201 0.349208 0 0 255
0.027587 0.433995 -0.286519 255 0 0
0.346605 0.624024 -0.309354 153 0 76
-0.120683 -0.020229 0.138226 0 0 255
-0.360478 0.357225 -0.231842 153 0 76
0.094864 -0.020121 0.279852 0 0 255
0.020068 -0.020121 -0.281725 127 0 127
-0.386125 -0.624261 0.473072 76 0 153
0.153579 -0.020186 -0.147200 0 0 255
0.356529 -0.671256 0.518968 153 0 76
0.260471 -0.544217 -0.165281 76 153 0
0.298547 -0.081470 0.178065 0 0 255
-0.230499 -0.020274 0.108415 0 0 255
0.115984 -0.042354 -0.236829 0 0 255
-0.040730 0.008582 -0.191301 255 0 0
-0.377395 -0.034725 0.350280 0 0 255
-0.093299 -0.020141 0.145259 0 0 255
0.209289 0.687070 -0.316689 127 127 0
0.076505 -0.020524 0.092328 0 0 255
0.132407 -0.020455 -0.002455 0 0 255
-0.243052 -0.081470 0.078848 0 0 255
0.284336 -0.091079 0.375494 153 0 76
0.258689 -0.389508 -0.134408 76 153 0
0.289083 -0.476885 0.219400 153 0 76
0.101797 0.222169 -0.217043 76 0 153
-0.027033 0.675667 -0.308932 255 0 0
-0.270111 -0.445701 -0.136250 0 127 127
0.336138 -0.372692 0.428070 153 0 76
-0.373621 0.586949 -0.259823 153 0 76
-0.320157 -0.058640 -0.107027 0 0 255
0.071725 -0.081470 0.179574 0 0 255
0.151592 0.209983 -0.208735 153 76 0
-0.333321 -0.326239 0.400650 76 0 153
-0.220548 -0.087512 -0.113755 0 127 127
-0.092839 -0.480358 0.124970 76 0 153
0.040671 0.039431 -0.204623 255 0 0
-0.102592 -0.081470 0.240293 0 0 255
0.193302 0.114440 -0.177968 76 0 153
-0.189548 -0.081470 0.323651 0 0 255
0.175110 0.300395 -0.244136 153 76 0
0.104064 0.424795 -0.276978 76 0 153
0.087806 -0.081470 0.443795 0 0 255
-0.303976 -0.463236 0.434223 76 0 153
-0.279637 -0.466706 -0.115741 153 76 0
0.244974 0.733082 -0.305717 153 0 76
-0.261011 -0.005010 -0.087843 153 0 76
-0.314123 -0.523412 0.483373 76 0 153
0.373120 0.436692 -0.244268 153 0 76
0.320362 -0.020121 0.345187 0 0 255
0.041920 0.421528 -0.284419 255 0 0
0.245814 0.024397 -0.116606 153 0 76
0.265917 0.073810 -0.149502 153 0 76
0.324056 -0.482461 0.081396 153 0 76
0.293550 -0.020121 0.256871 0 0 255
0.373026 0.550992 -0.280814 153 0 76
-0.293933 -0.413661 0.437862 76 0 153
-0.028119 -0.446415 0.151765 76 0 153
-0.336898 0.263676 -0.204664 153 0 76
-0.307504 -0.200950 0.437151 76 0 153
-0.058123 0.167056 -0.226224 255 0 0
-0.318762 -0.446154 0.159444 153 76 0
0.069632 -0.020121 0.305898 0 0 255
0.027337 -0.020121 -0.307472 127 0 127
-0.023520 -0.007279 -0.208421 255 0 0
-0.019063 0.010253 -0.191743 255 0 0
-0.297885 0.681199 -0.325965 153 0 76
-0.308687 0.104699 -0.158477 153 0 76
0.007049 0.172152 -0.220446 255 0 0
0.220148 -0.081470 0.106754 0 0 255
-0.264768 -0.020121 0.029933 0 0 255
0.055274 0.085348 -0.286713 127 127 0
-0.123296 0.349973 -0.241151 0 0 255
-0.150486 0.337537 -0.303277 0 255 0
-0.051770 -0.020455 -0.200987 0 0 255
0.101575 0.192849 -0.295442 127 127 0
0.187256 0.789509 -0.357432 153 0 76
-0.229405 0.283647 -0.207050 153 0 76
-0.323082 0.159379 -0.135603 153 0 76
-0.161922 -0.049762 0.496157 0 0 255
-0.312820 -0.400858 0.480079 76 0 153
-0.088757 0.534615 -0.286218 255 0 0
-0.107854 0.255709 -0.227663 0 0 255
-0.001890 0.797885 -0.327973 153 0 76
-0.112797 -0.456893 0.130568 76 0 153
0.322222 0.342860 -0.194720 153 0 76
0.360427 -0.080989 0.356784 0 0 255
0.293844 -0.465343 -0.127830 153 0 76
0.022968 0.728873 -0.318646 255 0 0
-0.278613 0.700626 -0.317288 153 0 76
-0.256663 -0.020121 0.425071 0 0 255
-0.188746 -0.020121 0.413061 0 0 255
-0.249048 -0.368737 -0.156605 0 127 127
0.000075 -0.020121 0.261672 0 0 255
-0.230709 -0.081470 -0.163494 0 0 255
-0.342058 0.423119 -0.212664 153 0 76
-0.346414 0.376982 -0.198822 153 0 76
-0.330313 -0.781279 -0.223666 0 127 127
0.180065 0.491026 -0.265555 153 76 0
-0.377163 -0.067864 0.319298 0 0 255
-0.260189 -0.067339 0.408516 76 0 153
-0.327992 0.332507 -0.190797 153 0 76
0.348186 -0.419633 0.477042 153 0 76
0.218753 0.708293 -0.332024 127 127 0
0.022097 0.131958 -0.233263 255 0 0
-0.275586 -0.507124 -0.211470 0 127 127
-0.142102 0.366840 -0.296280 0 255 0
-0.035911 -0.020294 -0.198911 0 0 255
0.318206 -0.404420 0.408225 153 0 76
-0.352079 -0.081399 0.410543 0 0 255
0.003089 0.408936 -0.281937 255 0 0
-0.074543 0.828434 -0.340789 153 0 76
-0.013074 0.318045 -0.256939 255 0 0
0.327918 -0.457230 0.136599 153 0 76
-0.075292 -0.081470 -0.156826 0 0 255
-0.133049 -0.020121 0.415309 0 0 255
-0.362963 0.322819 -0.184366 153 0 76
-0.111817 -0.081470 0.411813 0 0 255
0.275915 -0.020121 -0.091523 0 0 255
0.040875 -0.058192 0.503220 0 0 255
-0.046195 -0.489262 0.166036 76 0 153
0.090425 0.229647 -0.309768 127 127 0
0.232798 -0.020121 0.243706 0 0 255
0.021761 -0.020121 0.369365 0 0 255
0.236293 -0.081470 0.194463 0 0 255
-0.014617 -0.081470 0.019681 0 0 255
0.081192 0.190052 -0.291235 127 127 0
0.018576 -0.081470 0.289282 0 0 255
0.297635 -0.516485 -0.145849 76 153 0
0.326611 0.690569 -0.289927 153 0 76
-0.339494 -0.280941 0.413877 76 0 153
-0.195687 -0.020121 0.451023 0 0 255
0.345817 0.429055 -0.213950 153 0 76
0.236437 0.337450 -0.237155 76 0 153
0.298023 0.675785 -0.288509 153 0 76
-0.334628 -0.477377 0.099331 153 76 0
0.256705 -0.129969 0.385231 153 0 76
0.377240 -0.665977 0.514965 153 0 76
-0.076753 0.587357 -0.303049 255 0 0
-0.358549 0.600731 -0.263827 153 0 76
0.316024 -0.789248 -0.220434 76 153 0
0.310987 -0.501382 0.433989 153 0 76
-0.254813 0.541263 -0.289500 153 0 76
0.282582 -0.397782 0.451608 153 0 76
0.286291 0.080156 -0.112586 153 0 76
0.301667 -0.152961 0.392767 153 0 76
-0.153654 -0.081470 -0.112624 0 0 255
-0.105515 -0.032408 -0.179652 0 0 255
-0.264121 0.067639 -0.126649 153 0 76
-0.313010 0.113276 -0.134633 153 0 76
-0.258139 -0.416295 -0.198486 0 127 127
0.278211 -0.461341 -0.044453 153 0 76
-0.360676 -0.705926 0.511927 76 0 153
0.149679 0.160274 -0.217864 153 76 0
-0.022750 -0.020121 -0.248002 0 0 255
0.132093 0.782917 -0.326674 153 0 76
0.096857 -0.488449 0.163153 76 0 153
-0.250938 0.592712 -0.287187 153 0 76
-0.170600 0.499154 -0.322053 0 255 0
-0.334737 -0.283655 0.442847 76 0 153
-0.274635 -0.288680 0.410840 76 0 153
0.335034 -0.484075 0.262364 153 0 76
0.199864 0.663256 -0.320010 127 127 0
0.253613 0.059010 -0.117198 153 0 76
0.243559 -0.481425 -0.169121 76 153 0
-0.169101 0.246175 -0.214154 204 51 127
-0.319936 -0.021066 -0.089849 0 0 255
-0.004015 -0.081470 -0.036832 0 0 255
0.005431 0.189362 -0.243264 255 0 0
0.086966 -0.020240 -0.234583 0 0 255
-0.207472 0.756940 -0.327177 153 0 76
-0.215521 0.127666 -0.171818 153 0 76
-0.278638 -0.223672 0.438436 76 0 153
-0.182201 -0.081470 -0.054155 0 0 255
0.183456 -0.476939 0.163027 76 0 153
-0.242840 0.400319 -0.233490 153 0 76
0.264443 0.712316 -0.311047 76 0 153
-0.189806 -0.081470 0.088006 0 0 255
0.241625 0.568280 -0.293992 76 0 153
0.338309 0.470640 -0.239540 153 0 76
0.023007 0.288287 -0.241642 255 0 0
-0.227373 -0.050789 -0.113433 0 127 127
-0.197032 -0.081470 0.057089 0 0 255
0.263642 0.669983 -0.303805 76 0 153
0.027112 -0.081470 -0.156612 0 0 255
0.104365 0.245661 -0.245604 76 0 153
-0.341436 0.570517 -0.274008 153 0 76
0.342096 -0.020121 0.361331 0 0 255
-0.306041 0.206386 -0.188020 153 0 76
-0.028882 0.418068 -0.283329 255 0 0
-0.215298 -0.024896 0.487700 0 0 255
0.299438 0.226265 -0.155034 153 0 76
0.146838 0.125081 -0.190946 153 76 0
-0.351126 0.572393 -0.294355 153 0 76
-0.246316 -0.006529 -0.093171 153 0 76
0.012972 0.138995 -0.234441 255 0 0
0.274115 -0.475312 0.134925 76 0 153
0.099851 0.274844 -0.249406 76 0 153
0.194870 0.616697 -0.302229 153 76 0
-0.334966 -0.623949 0.479195 76 0 153
0.344070 -0.529466 0.432592 153 0 76
-0.340727 -0.485061 0.291474 153 76 0
0.370903 -0.555609 0.453372 153 0 76
0.005405 -0.002221 -0.189711 255 0 0
-0.039753 -0.020121 0.471966 0 0 255
0.322925 -0.055255 -0.071600 0 0 255
-0.038996 0.269696 -0.257118 255 0 0
0.306145 -0.492401 -0.206484 76 153 0
-0.224226 -0.231935 -0.165833 0 127 127
-0.127799 0.618201 -0.313966 0 0 255
0.277502 -0.506202 -0.142624 76 153 0
0.113957 0.660565 -0.307524 76 0 153
0.116652 0.788896 -0.357254 153 0 76
0.031305 -0.020121 -0.230809 0 0 255
-0.161538 0.423259 -0.299000 0 255 0
-0.209011 0.139517 -0.179225 153 0 76
-0.283776 0.146915 -0.138446 153 0 76
0.027233 -0.050155 -0.289994 127 127 0
-0.045205 -0.020455 0.047184 0 0 255
0.112495 -0.020121 0.294819 0 0 255
0.188839 0.705589 -0.329917 153 76 0
0.313267 -0.192472 0.413639 153 0 76
-0.224493 -0.020121 0.302966 0 0 255
0.067114 -0.081470 0.196861 0 0 255
0.308351 -0.453916 0.488177 153 0 76
0.290532 -0.428743 0.436561 153 0 76
0.049222 -0.020455 -0.011960 0 0 255
0.158579 0.335921 -0.253482 153 76 0
0.326930 -0.242817 0.419288 153 0 76
0.295076 -0.045193 -0.145728 0 0 255
-0.109649 0.320887 -0.240745 0 0 255
0.162604 0.309847 -0.226886 153 76 0
0.008954 -0.081470 -0.133665 0 0 255
-0.044451 -0.081470 0.130906 0 0 255
-0.028482 -0.031318 0.503528 0 0 255
-0.097272 0.217899 -0.295668 0 255 0
-0.042364 -0.081470 -0.280133 127 0 127
0.305743 -0.416823 -0.157287 76 153 0
-0.218461 -0.189943 -0.152022 0 127 127
0.264334 -0.325700 -0.123236 76 153 0
0.300368 -0.456586 0.428325 153 0 76
0.350399 -0.473995 0.492412 153 0 76
-0.278682 0.121557 -0.152914 153 0 76
-0.133372 0.656648 -0.303060 0 0 255
-0.049357 0.062301 -0.216818 255 0 0
-0.314508 -0.050602 0.456478 0 0 255
-0.175966 -0.081470 -0.168624 0 0 255
-0.318464 -0.020121 0.376490 0 0 255
0.229139 0.400662 -0.258566 76 0 153
0.199768 -0.020121 0.252333 0 0 255
-0.310213 0.720062 -0.335532 153 0 76
-0.102907 0.048635 -0.186472 0 0 255
0.165701 0.456700 -0.320059 127 127 0
-0.270702 -0.081470 -0.005773 0 0 255
-0.162419 -0.476775 0.165196 76 0 153
-0.330935 -0.080531 0.013702 0 0 255
0.292251 -0.398747 -0.138558 76 153 0
-0.249152 -0.127615 -0.159217 0 127 127
0.311950 -0.436213 -0.163629 76 153 0
0.060294 -0.449587 0.157522 76 0 153
-0.311860 -0.648509 -0.168805 0 127 127
0.314140 -0.020421 -0.080983 0 0 255
0.167018 0.459650 -0.305896 127 127 0
0.305988 -0.493757 0.237990 153 0 76
0.201038 0.739201 -0.329907 153 76 0
0.208404 0.223771 -0.194949 76 0 153
0.090592 0.242539 -0.300171 127 127 0
0.056726 0.802197 -0.331794 255 0 0
0.132280 -0.020121 0.468182 0 0 255
-0.294769 -0.081470 0.238518 0 0 255
0.292263 -0.376543 0.434284 153 0 76
0.070659 -0.494169 0.157201 76 0 153
-0.030965 -0.020461 0.017293 0 0 255
0.130295 -0.081468 -0.217115 0 0 255
0.082456 0.822195 -0.328169 153 0 76
0.265616 -0.031781 -0.176344 0 0 255
0.009167 0.471848 -0.273265 255 0 0
0.272707 -0.020121 0.080580 0 0 255
-0.031499 0.538607 -0.293853 255 0 0
-0.266290 -0.081470 0.156291 0 0 255
-0.198154 0.705361 -0.314709 204 51 127
-0.022863 0.764901 -0.327229 255 0 0
0.329425 -0.030298 0.067464 0 0 255
-0.348663 0.314539 -0.219441 153 0 76
-0.342158 0.562896 -0.283716 153 0 76
0.084036 -0.081470 0.414257 0 0 255
-0.239219 -0.081470 -0.149837 0 0 255
-0.095405 -0.493960 0.138817 76 0 153
0.064735 0.766932 -0.337460 255 0 0
0.260401 0.614338 -0.297007 76 0 153
0.116855 -0.020455 0.062827 0 0 255
-0.253748 0.404224 -0.240908 153 0 76
0.212762 -0.135611 -0.156622 76 153 0
-0.302548 -0.540450 -0.215605 0 127 127
0.318714 -0.466568 0.032004 153 0 76
-0.358234 -0.467447 0.489868 76 0 153
-0.344838 -0.465626 0.342471 153 76 0
-0.280405 -0.020121 0.188971 0 0 255
0.120205 -0.020455 -0.035980 0 0 255
-0.047650 0.579694 -0.295060 255 0 0
-0.044356 -0.448494 0.136828 76 0 153
-0.246262 -0.417553 -0.156352 0 127 127
-0.197576 0.001134 -0.146844 153 0 76
-0.058842 -0.081470 -0.078842 0 0 255
-0.345318 -0.075820 0.146621 0 0 255
0.101570 -0.482651 0.126895 76 0 153
0.253598 -0.020411 0.078892 0 0 255
0.034146 0.035134 -0.196487 255 0 0
0.313033 -0.447945 0.225258 153 0 76
0.071774 0.577467 -0.296106 255 0 0
-0.347445 -0.513362 0.501218 76 0 153
-0.041964 0.135236 -0.233406 255 0 0
0.145605 -0.081470 0.125914 0 0 255
0.149223 -0.020121 0.288850 0 0 255
-0.106619 -0.081470 -0.172988 0 0 255
0.277336 -0.060854 0.368653 153 0 76
0.097621 -0.020121 0.309661 0 0 255
-0.216004 -0.081470 -0.128037 0 0 255
-0.341425 -0.344985 0.456548 76 0 153
0.319428 0.651719 -0.278640 153 0 76
-0.314240 0.262703 -0.193459 153 0 76
-0.088381 0.155382 -0.309195 0 255 0
-0.109438 0.802099 -0.322330 153 0 76
0.212710 -0.040631 -0.207364 0 0 255
0.305354 -0.595442 -0.159533 76 153 0
0.390123 -0.670713 0.496398 153 0 76
-0.067876 0.572735 -0.310317 255 0 0
0.315146 -0.575011 -0.162553 76 153 0
-0.340926 0.411694 -0.214268 153 0 76
-0.185240 -0.080497 -0.217524 0 0 255
0.248340 0.031606 -0.130569 153 0 76
-0.201512 0.604552 -0.327961 0 255 0
-0.122707 -0.081470 -0.193424 0 0 255
0.374250 0.460722 -0.225078 153 0 76
0.202430 0.793130 -0.319724 153 0 76
0.160118 0.772949 -0.328470 153 0 76
0.385438 -0.681237 0.500961 153 0 76
0.192878 0.572669 -0.294339 153 76 0
0.262259 0.093978 -0.125460 153 0 76
0.168838 -0.020121 0.054440 0 0 255
-0.035207 0.789269 -0.352141 153 0 76
0.280511 -0.385357 -0.136530 76 153 0
0.162336 -0.020121 0.407033 0 0 255
0.341362 -0.474749 0.402894 153 0 76
-0.292468 -0.020121 -0.066945 0 0 255
0.342374 -0.479601 0.496609 153 0 76
0.025241 0.108460 -0.209346 255 0 0
0.149537 0.064023 -0.199134 153 76 0
-0.316018 -0.672760 -0.168953 0 127 127
-0.107464 0.171414 -0.304559 0 255 0
-0.064244 -0.020273 -0.303839 127 0 127
0.294828 -0.448547 0.145676 153 0 76
0.005205 -0.081470 0.354180 0 0 255
0.328554 -0.250229 0.427392 153 0 76
0.306836 0.223335 -0.192944 153 0 76
-0.048218 0.025994 -0.194319 255 0 0
-0.213503 -0.133890 -0.132490 0 127 127
0.267150 -0.247763 -0.125942 76 153 0
0.325298 -0.571623 -0.190715 76 153 0
0.207092 0.112694 -0.191451 76 0 153
-0.353782 0.489795 -0.231597 153 0 76
0.036929 -0.081470 -0.132923 0 0 255
0.092745 0.135603 -0.204031 76 0 153
-0.009852 0.569493 -0.290341 255 0 0
-0.273466 -0.198793 -0.139550 0 127 127
0.298100 -0.326079 0.468900 153 0 76
0.222687 -0.020121 0.454143 0 0 255
0.100869 0.071263 -0.188883 76 0 153
0.069383 -0.081470 0.416675 0 0 255
0.226086 -0.465097 0.159148 76 0 153
-0.034256 -0.022072 0.502189 0 0 255
-0.323398 0.148466 -0.162131 153 0 76
-0.358626 -0.023083 0.214144 0 0 255
-0.215746 -0.147982 -0.150132 0 127 127
-0.381763 0.441300 -0.252614 153 0 76
-0.036615 0.486733 -0.286865 255 0 0
-0.260340 0.464052 -0.259746 153 0 76
-0.109880 -0.486700 0.163987 76 0 153
-0.038328 -0.488912 0.127273 76 0 153
-0.315948 -0.020121 0.204164 0 0 255
0.322859 0.240975 -0.159308 153 0 76
0.009310 0.798110 -0.325089 153 0 76
-0.164848 0.122661 -0.211701 204 51 127
-0.115950 0.234968 -0.219186 0 0 255
0.369783 -0.039854 0.302523 0 0 255
-0.115389 -0.020455 0.006367 0 0 255
-0.252486 -0.282364 -0.120317 0 127 127
0.373761 -0.740470 0.485809 153 0 76
-0.303424 -0.457650 0.476889 76 0 153
-0.302399 -0.389104 0.470852 76 0 153
-0.331452 -0.552331 0.443066 76 0 153
-0.112838 0.417885 -0.260129 0 0 255
0.229796 -0.250126 -0.123716 76 153 0
-0.247543 -0.374113 -0.173140 0 127 127
0.069453 -0.020674 -0.322408 127 0 127
-0.046819 -0.081470 0.354394 0 0 255
0.123952 -0.020121 -0.191698 0 0 255
0.334404 -0.551825 0.503551 153 0 76
-0.042660 0.335512 -0.248892 255 0 0
0.155618 -0.020205 -0.070878 0 0 255
-0.334236 -0.053932 -0.015329 0 0 255
-0.364808 -0.547787 0.501233 76 0 153
0.369726 0.574640 -0.274874 153 0 76
0.001266 0.485375 -0.275595 255 0 0
-0.116558 -0.020156 -0.188232 0 0 255
-0.127734 0.698260 -0.314812 0 0 255
0.160948 -0.081470 -0.145999 0 0 255
0.104174 -0.020455 0.026519 0 0 255
0.186894 0.551220 -0.280446 153 76 0
0.336156 -0.462140 0.341799 153 0 76
-0.302851 -0.216903 0.386473 76 0 153
-0.180568 -0.020121 0.337151 0 0 255
0.097830 -0.463237 0.125931 76 0 153
-0.362288 -0.080096 0.237703 0 0 255
-0.310780 -0.598173 -0.159847 0 127 127
-0.077689 0.058588 -0.300380 0 255 0
-0.112943 -0.081470 0.223263 0 0 255
-0.285991 -0.287524 -0.177432 0 127 127
0.279811 -0.567414 -0.156075 76 153 0
-0.340960 0.215885 -0.186590 153 0 76
-0.195490 0.454650 -0.261494 204 51 127
-0.034229 0.655154 -0.305269 255 0 0
0.133410 -0.071809 0.498242 0 0 255
0.037879 0.218863 -0.228885 255 0 0
-0.236172 -0.020121 -0.032804 0 0 255
0.067768 0.128869 -0.306660 127 127 0
-0.346273 -0.468445 0.363103 153 76 0
0.233526 0.536951 -0.281185 76 0 153
0.150093 -0.081470 -0.169927 0 0 255
0.038571 -0.081470 -0.211228 0 0 255
-0.008709 0.102265 -0.208025 255 0 0
0.374347 0.459396 -0.238251 153 0 76
-0.264117 0.535881 -0.271024 153 0 76
0.059888 -0.081415 0.494940 0 0 255
-0.065546 0.195260 -0.242828 255 0 0
-0.200975 -0.081470 0.093094 0 0 255
-0.236479 -0.248389 -0.123514 0 127 127
0.200759 -0.032035 -0.143198 76 0 153
0.234718 0.375188 -0.229369 76 0 153
0.321061 -0.664440 -0.175446 76 153 0
0.309451 -0.081470 0.389404 0 0 255
