ply
format ascii 1.0
element vertex 1279
property float x
property float y
property float z
property uchar red
property uchar green
property uchar blue
end_header
-0.277503 -0.021550 0.059900 0 0 255
-0.068629 0.215437 -0.227649 255 0 0
-0.325699 -0.080041 0.345829 0 0 255
-0.239890 -0.080041 0.083149 0 0 255
0.307749 -0.080041 0.250676 0 0 255
0.045610 -0.021550 0.320122 0 0 255
-0.033470 0.294518 -0.242039 255 0 0
0.252771 -0.021550 0.122532 0 0 255
-0.278997 -0.031004 -0.098170 153 0 76
-0.370353 0.519663 -0.240275 153 0 76
0.287557 -0.463198 0.198485 153 0 76
0.088331 -0.080041 -0.233582 0 0 255
0.331658 -0.627151 0.471789 153 0 76
-0.187342 -0.021550 0.096248 0 0 255
-0.029787 0.380236 -0.256860 255 0 0
-0.332140 -0.589820 -0.196300 0 127 127
0.104507 0.235395 -0.290464 127 127 0
0.203856 -0.460131 0.137374 76 0 153
0.296941 -0.496643 0.141673 153 0 76
-0.199422 0.612674 -0.292891 204 51 127
-0.336938 -0.073462 0.100594 0 0 255
0.175531 0.582755 -0.289101 153 76 0
-0.188732 -0.080041 0.178148 0 0 255
-0.176155 -0.021550 0.465560 0 0 255
-0.225031 0.090104 -0.172859 153 0 76
-0.330156 -0.242849 0.406536 76 0 153
-0.324420 -0.072420 0.449019 0 0 255
0.233339 0.387804 -0.255503 76 0 153
-0.305138 -0.453321 -0.141713 0 127 127
-0.128276 0.614697 -0.313619 0 0 255
0.307972 -0.168419 0.406839 153 0 76
0.145741 -0.080041 -0.039133 0 0 255
0.007719 0.422786 -0.265814 255 0 0
-0.228853 0.776896 -0.353768 153 0 76
0.259117 -0.021550 -0.169109 0 0 255
-0.310527 -0.495930 0.067772 153 76 0
-0.295962 -0.502419 -0.214600 0 127 127
-0.257374 -0.489129 -0.155531 0 127 127
-0.239397 0.326982 -0.241470 153 0 76
0.241340 -0.021550 0.300066 0 0 255
0.160707 0.167887 -0.198454 153 76 0
0.008762 -0.080041 0.085937 0 0 255
-0.071273 -0.080041 0.397038 0 0 255
-0.363697 -0.604788 0.452310 76 0 153
0.350630 -0.021550 0.408951 0 0 255
0.311011 -0.080041 -0.109078 0 0 255
0.367052 -0.078519 0.290602 0 0 255
-0.079040 -0.080041 -0.284878 127 0 127
-0.078965 -0.080041 0.500594 0 0 255
-0.161237 0.058497 -0.197923 204 51 127
-0.063918 -0.021550 -0.102143 0 0 255
-0.224373 -0.021550 -0.080358 0 0 255
-0.374069 -0.594914 0.503349 76 0 153
-0.011919 0.089574 -0.225565 255 0 0
-0.111343 -0.080041 0.306244 0 0 255
0.363419 0.363628 -0.218079 153 0 76
-0.037246 -0.475344 0.172609 76 0 153
-0.149837 -0.021550 -0.064779 0 0 255
-0.030135 -0.021550 0.255770 0 0 255
-0.011898 0.003498 -0.210398 255 0 0
-0.180879 -0.033802 -0.220238 0 0 255
0.072857 -0.021550 -0.032462 0 0 255
-0.250484 -0.127065 -0.158048 0 127 127
0.135300 -0.080041 0.113957 0 0 255
0.317887 -0.486908 0.058226 153 0 76
0.028981 -0.080041 0.322820 0 0 255
0.055635 0.417714 -0.266593 255 0 0
-0.067120 -0.447888 0.140724 76 0 153
0.297393 -0.407129 0.415933 153 0 76
0.284330 -0.457420 -0.055915 153 0 76
0.201198 -0.021550 -0.185646 0 0 255
-0.174997 -0.021550 0.009121 0 0 255
0.348092 -0.074120 0.196971 0 0 255
0.035996 -0.080041 -0.156562 0 0 255
0.358306 -0.031593 0.242035 0 0 255
-0.174604 -0.080041 -0.169824 0 0 255
-0.060578 0.673320 -0.327348 255 0 0
-0.025297 0.524798 -0.302159 255 0 0
0.016690 0.709455 -0.334980 255 0 0
-0.268570 -0.196914 0.422139 76 0 153
0.017524 -0.021550 -0.301527 127 0 127
-0.109764 -0.080041 0.182154 0 0 255
0.117124 0.752956 -0.332470 76 0 153
0.196589 -0.061834 -0.127300 76 153 0
-0.220878 -0.198831 -0.135151 0 127 127
0.215507 -0.184005 -0.160104 76 153 0
-0.260169 -0.324675 -0.122433 0 127 127
-0.052170 -0.021550 0.436020 0 0 255
0.075615 0.820201 -0.366349 153 0 76
-0.392238 -0.693301 0.487783 76 0 153
0.094719 0.209535 -0.218759 76 0 153
0.279032 -0.203614 0.385894 153 0 76
0.236506 -0.294814 -0.187050 76 153 0
0.267305 0.715568 -0.297201 153 0 76
0.272567 -0.609608 -0.181546 76 153 0
-0.145464 -0.477820 0.166167 76 0 153
-0.206435 0.009879 -0.145190 153 0 76
0.297502 -0.446929 0.108499 153 0 76
0.234383 -0.039446 0.481706 0 0 255
0.280141 -0.351285 0.436386 153 0 76
-0.178369 0.213398 -0.209603 204 51 127
0.291793 -0.080041 0.437444 0 0 255
-0.210340 -0.467912 0.161748 76 0 153
0.075883 -0.061441 -0.324070 127 0 127
0.359407 0.503392 -0.274308 153 0 76
-0.354729 -0.057364 0.418122 0 0 255
0.057985 -0.080041 0.230301 0 0 255
0.269650 -0.512235 -0.146411 76 153 0
0.330840 -0.080041 0.362914 0 0 255
-0.283862 -0.110933 0.419668 76 0 153
-0.370594 -0.773823 0.503241 76 0 153
0.104701 -0.021550 0.178870 0 0 255
0.033938 -0.080041 0.145201 0 0 255
0.344733 -0.405033 0.419786 153 0 76
-0.020186 0.757681 -0.325720 255 0 0
-0.027925 0.248526 -0.252068 255 0 0
0.341685 -0.333034 0.443244 153 0 76
-0.298034 -0.298695 -0.155089 0 127 127
0.122654 0.398243 -0.266989 76 0 153
0.132015 -0.490347 0.137482 76 0 153
0.082399 -0.080041 -0.169612 0 0 255
-0.328537 -0.516612 -0.177217 0 127 127
-0.334772 -0.470534 0.096377 153 76 0
-0.354326 -0.539972 0.503419 76 0 153
0.029492 0.791438 -0.329992 153 0 76
-0.294267 0.178939 -0.178767 153 0 76
0.214004 -0.080041 0.233357 0 0 255
-0.124798 -0.021550 0.386929 0 0 255
-0.048888 0.823031 -0.364221 153 0 76
0.008335 -0.080041 0.015698 0 0 255
-0.195331 0.689856 -0.312773 204 51 127
0.329976 -0.021550 0.321345 0 0 255
0.227323 -0.021550 0.046174 0 0 255
-0.012656 0.152313 -0.216817 255 0 0
0.254284 -0.110701 0.381688 153 0 76
-0.094242 -0.021550 0.081686 0 0 255
-0.046255 -0.080041 0.441638 0 0 255
0.314089 -0.495883 0.232792 153 0 76
0.252263 -0.063928 0.368823 153 0 76
0.353225 -0.478084 0.427719 153 0 76
0.154916 -0.080041 0.216863 0 0 255
0.007938 -0.080041 -0.221100 0 0 255
-0.352972 -0.444506 0.487378 76 0 153
-0.096472 -0.032468 -0.184205 0 0 255
-0.322941 -0.021550 0.386264 0 0 255
-0.081487 -0.021550 -0.004291 0 0 255
-0.282085 -0.474997 0.037476 153 76 0
-0.222716 -0.043852 -0.204370 0 0 255
-0.285025 0.153302 -0.134303 153 0 76
0.127754 0.580906 -0.301247 76 0 153
-0.025127 0.612884 -0.297883 255 0 0
-0.313432 0.652111 -0.316269 153 0 76
0.128140 0.663271 -0.319260 76 0 153
0.277589 -0.461014 -0.132375 76 153 0
-0.128708 0.269849 -0.293911 0 255 0
-0.108647 -0.041953 -0.237931 0 0 255
-0.333405 -0.044224 0.028535 0 0 255
0.159897 0.368048 -0.242962 153 76 0
-0.136443 -0.080041 0.454249 0 0 255
0.018193 -0.468466 0.121037 76 0 153
-0.298952 -0.646345 -0.171758 0 127 127
0.309713 -0.531929 -0.154203 76 153 0
0.081168 -0.473837 0.170687 76 0 153
0.221006 0.308009 -0.237309 76 0 153
-0.299252 -0.021550 0.205975 0 0 255
-0.078372 -0.021550 0.131403 0 0 255
-0.282360 0.012489 -0.092927 153 0 76
-0.281052 -0.364603 -0.185926 0 127 127
-0.284496 0.716492 -0.297458 153 0 76
0.116211 -0.080041 0.345973 0 0 255
-0.339361 -0.021550 0.294483 0 0 255
0.290812 0.050949 -0.142861 153 0 76
-0.237854 -0.284506 -0.180293 0 127 127
-0.167196 -0.057258 0.494197 0 0 255
0.155809 -0.080041 -0.125419 0 0 255
0.291971 -0.492914 0.021498 153 0 76
0.332568 -0.675991 -0.183033 76 153 0
-0.308224 0.235963 -0.190052 153 0 76
-0.217447 0.249341 -0.206753 153 0 76
-0.025957 -0.021550 -0.134267 0 0 255
-0.058544 -0.021550 -0.331211 127 0 127
0.227360 0.745744 -0.309994 153 0 76
0.331668 -0.057720 0.109408 0 0 255
0.262547 -0.230448 0.423167 153 0 76
-0.244083 -0.057962 0.480970 0 0 255
-0.034137 -0.027189 0.502095 0 0 255
-0.359574 -0.643240 0.511714 76 0 153
-0.348405 -0.647770 0.469219 76 0 153
-0.158139 0.796664 -0.320751 153 0 76
-0.251587 -0.098503 -0.124908 0 127 127
0.311416 -0.458077 -0.193427 76 153 0
0.166952 -0.080041 0.382171 0 0 255
0.168584 0.517580 -0.278099 153 76 0
0.092836 -0.060525 0.499825 0 0 255
-0.130503 0.346973 -0.299831 0 255 0
-0.329802 -0.494336 0.213517 153 76 0
0.271756 -0.080041 0.289328 0 0 255
-0.107456 -0.080041 -0.047970 0 0 255
0.214245 -0.226596 -0.141557 76 153 0
0.290919 -0.445014 0.466276 153 0 76
-0.109748 -0.021550 0.462316 0 0 255
-0.207962 -0.021550 0.057330 0 0 255
0.307733 -0.021550 0.177703 0 0 255
0.049864 -0.015676 -0.190262 255 0 0
0.228394 0.468082 -0.269355 76 0 153
0.105507 -0.021550 -0.151461 0 0 255
0.338231 -0.468051 0.262451 153 0 76
0.102583 -0.021550 0.454595 0 0 255
-0.033625 -0.021550 -0.181935 255 0 0
-0.187913 -0.080041 0.135484 0 0 255
0.384476 -0.720308 0.514457 153 0 76
0.334050 0.275628 -0.208136 153 0 76
-0.293852 -0.444388 -0.209257 0 127 127
0.004821 0.562057 -0.307806 255 0 0
0.263299 0.072949 -0.110492 153 0 76
-0.046978 0.073689 -0.203217 255 0 0
-0.285076 -0.243209 -0.144549 0 127 127
0.070235 -0.080041 0.085871 0 0 255
0.321201 -0.261317 0.397846 153 0 76
0.167070 -0.021550 0.153585 0 0 255
0.095681 -0.080041 0.261986 0 0 255
-0.294769 -0.154151 0.380841 76 0 153
0.010886 -0.077365 0.502223 0 0 255
0.120760 -0.021550 0.374987 0 0 255
0.242354 0.612136 -0.299757 76 0 153
-0.303284 0.069033 -0.146312 153 0 76
-0.066139 -0.080041 0.034538 0 0 255
0.150418 -0.035584 0.495283 0 0 255
-0.254220 -0.080041 0.329485 0 0 255
0.246058 -0.360504 -0.179009 76 153 0
-0.136400 0.697639 -0.328363 0 0 255
0.299608 -0.080041 0.033337 0 0 255
-0.211311 0.178018 -0.190008 153 0 76
0.151296 -0.021550 -0.214125 0 0 255
0.174907 -0.021550 0.230084 0 0 255
0.096574 0.129306 -0.221935 76 0 153
-0.308852 -0.446984 0.177088 153 76 0
0.310406 -0.460564 -0.000513 153 0 76
-0.177255 -0.080041 0.294666 0 0 255
-0.236381 -0.021550 -0.148745 0 0 255
0.329593 -0.634855 -0.192276 76 153 0
0.203242 -0.080041 0.323980 0 0 255
0.256167 -0.481688 -0.204384 76 153 0
0.234825 0.539886 -0.283976 76 0 153
-0.251986 -0.021550 0.371092 0 0 255
-0.316635 0.273991 -0.168900 153 0 76
-0.295473 -0.080041 0.005696 0 0 255
0.015644 0.640623 -0.322844 255 0 0
-0.322411 -0.450033 0.259177 153 76 0
0.045289 -0.021550 0.049383 0 0 255
0.300145 -0.080041 0.130745 0 0 255
-0.074372 0.592020 -0.298098 255 0 0
0.207361 -0.080041 0.154102 0 0 255
0.217190 -0.080041 -0.057440 0 0 255
-0.059973 -0.021550 0.056793 0 0 255
-0.359416 -0.724461 0.496908 76 0 153
0.264708 -0.053902 0.409921 153 0 76
-0.092223 -0.489301 0.130777 76 0 153
-0.035934 -0.021550 -0.033497 0 0 255
-0.318337 -0.059997 -0.107659 0 0 255
-0.230134 -0.283585 -0.133077 0 127 127
-0.102311 -0.041447 0.499650 0 0 255
-0.291788 0.022512 -0.131925 153 0 76
-0.327098 -0.359375 0.461121 76 0 153
-0.337866 -0.426243 0.415139 76 0 153
0.249342 -0.107772 -0.140677 76 153 0
-0.294559 -0.453289 0.004644 153 76 0
-0.234438 0.688608 -0.325746 0 255 0
-0.276262 -0.062865 0.411096 76 0 153
0.105567 0.825197 -0.330885 153 0 76
0.168691 0.244527 -0.215908 153 76 0
-0.043473 -0.080041 0.361552 0 0 255
0.346736 -0.553826 0.504965 153 0 76
-0.216891 0.761277 -0.310470 153 0 76
0.213504 -0.021550 -0.068327 0 0 255
0.162779 0.439720 -0.270766 153 76 0
0.325477 0.353490 -0.229962 153 0 76
-0.279595 -0.478278 -0.121615 153 76 0
-0.303909 -0.719927 -0.197664 0 127 127
0.326259 -0.080041 0.405988 0 0 255
0.318231 -0.324847 0.396453 153 0 76
0.325852 -0.051593 -0.041735 0 0 255
0.044314 0.320746 -0.266677 255 0 0
0.309766 -0.370883 0.465639 153 0 76
0.091145 -0.021550 0.020020 0 0 255
0.206356 -0.080041 -0.201437 0 0 255
-0.040163 -0.080041 -0.232393 0 0 255
-0.118465 -0.080041 0.026159 0 0 255
0.212988 -0.080041 0.019580 0 0 255
0.041536 -0.021550 0.362471 0 0 255
-0.272544 0.086866 -0.114535 153 0 76
0.298525 0.226824 -0.193874 153 0 76
-0.317268 -0.609385 -0.163771 0 127 127
-0.167270 -0.021550 -0.146655 0 0 255
0.379834 -0.603781 0.488080 153 0 76
-0.161009 -0.080041 0.382723 0 0 255
-0.382241 0.519942 -0.279116 153 0 76
-0.270404 -0.183037 -0.150111 0 127 127
-0.181119 -0.021550 0.415501 0 0 255
-0.280946 -0.055439 -0.166458 0 0 255
0.388950 -0.676860 0.493388 153 0 76
0.332301 -0.722883 -0.212410 76 153 0
-0.036580 -0.080041 -0.153897 0 0 255
0.290984 0.682889 -0.301490 153 0 76
0.296682 -0.217528 0.444062 153 0 76
-0.333846 0.686643 -0.327547 153 0 76
0.094473 0.050644 -0.206785 76 0 153
-0.010462 -0.021550 0.110724 0 0 255
-0.148714 -0.021550 0.323515 0 0 255
-0.327663 0.644252 -0.276471 153 0 76
-0.321047 -0.080041 0.140739 0 0 255
-0.324215 -0.080041 0.269357 0 0 255
0.381809 -0.785922 0.495410 153 0 76
-0.274420 -0.570079 -0.202821 0 127 127
-0.249540 -0.021550 0.433194 0 0 255
-0.267428 -0.377592 -0.138007 0 127 127
0.270920 -0.312262 0.445064 153 0 76
-0.376230 -0.475686 0.462544 76 0 153
0.303475 -0.524216 0.469197 153 0 76
-0.102713 -0.080041 0.108641 0 0 255
0.284596 0.176782 -0.161041 153 0 76
0.062061 0.252521 -0.240073 255 0 0
0.338664 -0.036182 0.153244 0 0 255
0.018396 0.485105 -0.276843 255 0 0
0.320201 -0.292032 0.457979 153 0 76
0.344762 -0.671611 0.474681 153 0 76
-0.326144 -0.308560 0.465819 76 0 153
-0.225247 -0.021550 0.295894 0 0 255
-0.034376 -0.021550 0.176722 0 0 255
0.280420 -0.080041 0.166993 0 0 255
0.157102 -0.080041 0.079499 0 0 255
0.318515 0.168094 -0.138493 153 0 76
0.181003 -0.029922 -0.150258 76 0 153
-0.307935 -0.477920 0.298249 153 76 0
-0.369688 -0.079819 0.268450 0 0 255
0.039179 -0.053172 -0.290376 127 127 0
-0.314930 -0.498516 0.151123 153 76 0
0.217286 0.664717 -0.324285 127 127 0
-0.341098 0.225245 -0.156427 153 0 76
0.236920 -0.436229 -0.169832 76 153 0
0.001697 -0.021550 0.009976 0 0 255
0.283027 -0.678600 -0.198486 76 153 0
-0.328429 0.187242 -0.143697 153 0 76
-0.174671 0.449593 -0.271651 204 51 127
0.077366 -0.080041 0.394122 0 0 255
-0.306020 -0.458542 -0.046862 153 76 0
0.239393 -0.383967 -0.147576 76 153 0
0.296523 -0.125755 0.388865 153 0 76
0.349550 0.312984 -0.180229 153 0 76
0.006114 -0.080041 0.287820 0 0 255
0.177359 -0.021550 0.115359 0 0 255
0.202685 -0.021550 0.375452 0 0 255
0.057896 -0.080041 -0.028881 0 0 255
-0.332093 0.608253 -0.304772 153 0 76
0.074000 -0.080041 0.310177 0 0 255
0.049478 0.070339 -0.288593 127 127 0
-0.284089 -0.300162 0.409210 76 0 153
-0.167718 0.412067 -0.304153 0 255 0
0.256840 -0.021550 -0.125971 0 0 255
-0.122893 -0.080041 0.355664 0 0 255
-0.258701 0.042797 -0.101732 153 0 76
0.139990 -0.080041 0.454836 0 0 255
0.215319 -0.096519 -0.114618 76 153 0
0.317255 -0.452571 0.292274 153 0 76
-0.262278 -0.021550 0.133146 0 0 255
-0.210388 -0.059542 -0.149330 0 127 127
0.052687 -0.039607 0.501524 0 0 255
0.310518 0.255870 -0.163636 153 0 76
0.036141 -0.080041 0.459717 0 0 255
-0.129016 0.777118 -0.353698 153 0 76
-0.331877 -0.571731 0.497884 76 0 153
-0.075744 -0.076451 -0.326548 127 0 127
-0.273223 -0.238791 0.434215 76 0 153
-0.317420 -0.426276 -0.169412 0 127 127
-0.232296 -0.080041 0.000836 0 0 255
0.019850 -0.044817 -0.338162 127 0 127
-0.154696 0.138751 -0.201554 204 51 127
0.258227 0.728990 -0.339850 153 0 76
-0.271605 -0.080041 0.209584 0 0 255
-0.309743 -0.683803 -0.173782 0 127 127
0.245713 -0.021550 0.163197 0 0 255
0.321981 0.624983 -0.270873 153 0 76
0.280544 -0.080041 0.347396 0 0 255
-0.253984 -0.094541 0.388375 76 0 153
-0.159818 -0.021550 0.253300 0 0 255
-0.334254 -0.331427 0.402698 76 0 153
-0.045123 -0.080041 -0.098647 0 0 255
-0.052352 -0.080041 0.252640 0 0 255
-0.307833 -0.626619 -0.217573 0 127 127
0.291450 -0.535925 -0.216038 76 153 0
-0.255806 -0.021550 -0.007005 0 0 255
0.154969 0.090985 -0.182473 153 76 0
-0.028591 -0.021550 -0.249569 0 0 255
0.159312 0.511174 -0.317822 127 127 0
-0.372029 0.365211 -0.234162 153 0 76
0.167600 -0.080041 0.163376 0 0 255
0.265752 -0.211293 -0.132122 76 153 0
-0.267518 0.638671 -0.310019 153 0 76
0.331834 -0.481242 0.147564 153 0 76
0.185552 0.698420 -0.326983 153 76 0
0.017015 -0.021550 -0.075990 0 0 255
-0.138084 -0.021550 0.020122 0 0 255
0.188645 0.574418 -0.327611 127 127 0
0.173795 -0.080041 0.009855 0 0 255
0.330098 0.210245 -0.163250 153 0 76
0.284038 -0.021550 -0.063936 0 0 255
0.337185 0.554313 -0.250341 153 0 76
-0.011445 -0.080041 0.213710 0 0 255
-0.237281 -0.245614 -0.123080 0 127 127
0.368177 0.578137 -0.296023 153 0 76
-0.366339 0.627701 -0.274867 153 0 76
-0.061782 -0.080041 -0.029535 0 0 255
0.028496 -0.080041 -0.101935 0 0 255
0.313522 -0.021550 0.450172 0 0 255
-0.294427 0.685841 -0.327314 153 0 76
-0.215881 -0.160841 -0.136420 0 127 127
-0.103463 -0.080041 0.268737 0 0 255
0.329599 -0.455067 0.185029 153 0 76
-0.340793 0.411915 -0.209052 153 0 76
-0.221783 -0.021550 0.199417 0 0 255
0.208298 -0.148510 -0.147953 76 153 0
0.088862 -0.025254 -0.318091 127 0 127
0.361894 -0.630964 0.510886 153 0 76
-0.218911 -0.080041 -0.097260 0 0 255
0.368083 0.470828 -0.226086 153 0 76
-0.269441 -0.080041 0.145537 0 0 255
0.338643 0.472370 -0.263188 153 0 76
-0.199457 0.539226 -0.313925 0 255 0
0.243498 0.018485 -0.096759 153 0 76
0.108437 -0.021550 0.095168 0 0 255
-0.359308 -0.479952 0.427495 153 76 0
0.178574 0.626192 -0.299071 153 76 0
-0.112019 0.256500 -0.224443 0 0 255
-0.297509 -0.021550 -0.051146 0 0 255
-0.329354 -0.080041 0.208723 0 0 255
0.087726 -0.021550 -0.112192 0 0 255
-0.338994 -0.773208 -0.192274 0 127 127
-0.366149 0.331536 -0.212009 153 0 76
0.303183 0.727323 -0.300605 153 0 76
-0.329512 0.334746 -0.186551 153 0 76
0.145445 0.815873 -0.336773 153 0 76
-0.288041 0.135113 -0.167312 153 0 76
-0.120027 -0.080041 0.233563 0 0 255
0.271195 0.121007 -0.161564 153 0 76
0.369137 0.420661 -0.211512 153 0 76
-0.243076 0.503239 -0.276422 153 0 76
0.311884 -0.450340 0.072883 153 0 76
-0.203974 0.572923 -0.290920 204 51 127
0.335623 0.426647 -0.251299 153 0 76
0.311331 -0.485123 0.491006 153 0 76
-0.251853 0.734874 -0.302870 153 0 76
-0.259086 -0.393042 -0.201358 0 127 127
-0.013755 -0.495259 0.134192 76 0 153
0.317095 -0.504049 0.430479 153 0 76
-0.100422 0.827593 -0.329737 153 0 76
-0.327173 -0.021550 0.169398 0 0 255
0.063992 0.543960 -0.286343 255 0 0
0.070856 -0.021550 0.096798 0 0 255
0.321641 0.688898 -0.328202 153 0 76
-0.342564 0.567986 -0.256928 153 0 76
-0.057576 0.787283 -0.356786 153 0 76
0.045033 -0.021550 0.136212 0 0 255
0.084629 -0.080041 -0.083286 0 0 255
0.005743 -0.465818 0.172641 76 0 153
0.059405 0.773275 -0.346514 255 0 0
-0.222298 -0.080041 0.456201 0 0 255
0.073797 -0.021550 0.382608 0 0 255
0.221115 -0.073360 -0.156705 76 153 0
-0.137350 0.538651 -0.295587 0 0 255
0.255756 0.685381 -0.320137 76 0 153
0.009632 -0.080041 -0.183710 0 0 255
-0.215043 -0.080041 0.337214 0 0 255
-0.312971 0.106131 -0.158893 153 0 76
0.314671 0.660177 -0.281098 153 0 76
0.292390 -0.402474 -0.141236 76 153 0
-0.172074 -0.080041 -0.040927 0 0 255
0.072196 -0.053797 -0.255774 127 0 127
-0.349021 0.490276 -0.231737 153 0 76
-0.322129 -0.202748 0.409296 76 0 153
-0.195181 0.793912 -0.358712 153 0 76
0.144258 -0.021550 0.027516 0 0 255
-0.305900 -0.401922 0.414293 76 0 153
0.054498 -0.021550 0.274048 0 0 255
-0.381527 0.437851 -0.255259 153 0 76
0.153881 -0.457479 0.134935 76 0 153
-0.344405 -0.475947 0.242344 153 76 0
-0.182426 0.471831 -0.307782 0 255 0
-0.261630 0.573946 -0.296267 153 0 76
0.079745 -0.080041 0.048756 0 0 255
-0.289401 -0.080041 0.076778 0 0 255
-0.306724 -0.509395 0.459186 76 0 153
-0.300339 -0.021550 0.305833 0 0 255
-0.341856 -0.483050 0.355155 153 76 0
-0.075100 -0.021550 0.319782 0 0 255
-0.300046 -0.080041 -0.038277 0 0 255
0.266517 0.111999 -0.121837 153 0 76
0.293085 -0.329460 -0.161904 76 153 0
-0.283712 -0.476386 0.086748 153 76 0
-0.184931 -0.021550 0.330754 0 0 255
-0.069438 0.102806 -0.301879 0 255 0
-0.237735 -0.080041 0.229539 0 0 255
-0.148192 -0.080041 -0.110810 0 0 255
-0.214545 -0.100366 -0.152084 0 127 127
-0.200671 -0.035124 0.489537 0 0 255
0.043490 -0.002272 -0.280259 127 127 0
-0.281043 -0.540760 -0.151416 0 127 127
0.226517 -0.480570 0.157987 76 0 153
0.151804 -0.021550 -0.082934 0 0 255
0.261581 -0.282671 -0.122746 76 153 0
0.144781 -0.080041 0.043396 0 0 255
0.262388 -0.154499 0.421230 153 0 76
-0.287780 -0.080041 0.349358 0 0 255
-0.008441 -0.080041 -0.303200 127 0 127
-0.336378 -0.670051 -0.214120 0 127 127
-0.334982 0.370741 -0.205420 153 0 76
-0.120705 0.477443 -0.288515 0 0 255
0.197547 0.774959 -0.353205 153 0 76
-0.147747 -0.021550 -0.115457 0 0 255
-0.357689 0.287467 -0.210649 153 0 76
-0.363031 -0.022034 0.234251 0 0 255
0.335053 0.387967 -0.240774 153 0 76
0.237227 0.780541 -0.316066 153 0 76
-0.201481 -0.021550 0.367116 0 0 255
0.337067 -0.771108 -0.196423 76 153 0
0.292696 -0.021550 0.047022 0 0 255
0.036226 0.569971 -0.290738 255 0 0
-0.383423 0.480152 -0.265741 153 0 76
-0.138998 -0.080041 -0.186155 0 0 255
0.011835 0.752081 -0.342457 255 0 0
0.099944 -0.080041 -0.131873 0 0 255
-0.041846 -0.021550 0.132665 0 0 255
0.059607 -0.021550 0.429907 0 0 255
-0.209587 0.614414 -0.328909 0 255 0
0.018385 -0.021550 0.192091 0 0 255
-0.158318 -0.012154 -0.182535 0 0 255
-0.297524 -0.440196 0.466574 76 0 153
-0.006073 0.824701 -0.366536 153 0 76
0.312962 -0.414361 0.482835 153 0 76
0.142116 -0.021550 -0.141475 0 0 255
-0.283318 -0.021550 0.241276 0 0 255
0.326844 -0.059164 0.021411 0 0 255
0.075513 -0.453486 0.131601 76 0 153
-0.332363 -0.056745 -0.041280 0 0 255
0.026312 -0.021550 -0.217250 0 0 255
-0.241523 -0.352093 -0.146829 0 127 127
0.238769 -0.021550 0.351360 0 0 255
0.120607 0.334865 -0.247347 76 0 153
0.158168 0.767422 -0.349879 153 0 76
-0.006023 0.358074 -0.272913 255 0 0
0.104186 -0.080041 0.423671 0 0 255
-0.135989 -0.021550 0.081464 0 0 255
-0.284332 0.746310 -0.335773 153 0 76
-0.299384 -0.253109 0.454695 76 0 153
0.217742 -0.080041 0.117663 0 0 255
0.329159 -0.021550 0.271283 0 0 255
0.053632 0.831000 -0.334398 153 0 76
0.327176 -0.044141 0.055121 0 0 255
-0.355672 -0.055267 0.201824 0 0 255
-0.235333 0.448862 -0.255447 153 0 76
0.130346 -0.080041 0.252114 0 0 255
-0.108345 -0.021550 0.151401 0 0 255
0.014851 0.022630 -0.194153 255 0 0
-0.094385 0.785200 -0.348056 153 0 76
0.311265 -0.792720 -0.211293 76 153 0
0.004141 -0.021550 0.245003 0 0 255
-0.019638 -0.080041 -0.038301 0 0 255
-0.208030 -0.080041 0.409486 0 0 255
-0.290566 -0.021550 0.370720 0 0 255
-0.287117 -0.475009 0.145447 153 76 0
-0.329057 -0.466861 0.057255 153 76 0
0.288622 -0.021550 -0.100161 0 0 255
-0.334071 -0.738073 -0.187118 0 127 127
-0.328701 -0.513125 0.497628 76 0 153
0.294281 -0.288118 0.390589 153 0 76
0.281102 -0.466225 0.157825 153 0 76
0.365255 -0.030355 0.375937 0 0 255
-0.093470 -0.021550 -0.125679 0 0 255
0.283334 -0.060172 0.466733 0 0 255
0.306501 -0.478328 0.327929 153 0 76
0.142723 0.028809 -0.170187 153 76 0
-0.246116 -0.457411 -0.167658 0 127 127
-0.112719 -0.021550 -0.061947 0 0 255
-0.217512 -0.021550 -0.015650 0 0 255
-0.107279 0.049892 -0.206917 0 0 255
-0.330965 -0.554188 -0.180422 0 127 127
0.279272 -0.293955 -0.182991 76 153 0
0.134950 -0.021550 0.410925 0 0 255
-0.318183 -0.794213 -0.212292 0 127 127
0.185633 -0.021550 0.184037 0 0 255
-0.018914 0.404587 -0.281022 255 0 0
-0.378259 -0.523367 0.481397 76 0 153
-0.059022 0.004362 -0.192521 255 0 0
0.156107 -0.021550 -0.019293 0 0 255
-0.197310 0.509564 -0.289713 204 51 127
0.378476 -0.741866 0.486744 153 0 76
0.124603 -0.021550 -0.190544 0 0 255
0.168598 0.303964 -0.225912 153 76 0
0.179497 -0.057444 0.491782 0 0 255
-0.354650 -0.080041 0.390680 0 0 255
0.010692 -0.080041 0.407858 0 0 255
-0.174751 -0.021550 0.180991 0 0 255
0.019655 -0.080041 0.230960 0 0 255
0.297393 0.085462 -0.152887 153 0 76
0.235965 -0.021550 0.091207 0 0 255
-0.377417 -0.677474 0.515949 76 0 153
0.344764 0.275255 -0.169267 153 0 76
-0.022994 -0.021550 0.075323 0 0 255
-0.183950 -0.021550 -0.076247 0 0 255
0.153815 -0.080041 0.302975 0 0 255
0.353942 -0.702065 0.512024 153 0 76
0.043851 -0.080041 0.009749 0 0 255
0.218837 -0.021550 -0.105023 153 0 76
-0.336027 -0.488027 0.317396 153 76 0
0.241966 -0.021550 0.440618 0 0 255
-0.342299 -0.275422 0.416363 76 0 153
-0.277808 -0.587366 -0.170246 0 127 127
0.235405 -0.024779 -0.195388 0 0 255
0.317538 0.313936 -0.209557 153 0 76
0.014746 0.105787 -0.208804 255 0 0
0.311198 -0.567509 -0.158715 76 153 0
0.375770 0.508001 -0.243311 153 0 76
0.334327 -0.080041 0.273983 0 0 255
-0.373400 -0.672834 0.465974 76 0 153
-0.148543 -0.046404 -0.229547 0 0 255
0.275716 -0.466001 0.005535 153 0 76
0.011398 0.204635 -0.245996 255 0 0
-0.028776 -0.080041 0.282838 0 0 255
-0.326430 -0.581734 0.463629 76 0 153
-0.217718 -0.080041 0.264171 0 0 255
-0.358094 -0.021550 0.352144 0 0 255
0.346103 -0.484572 0.496063 153 0 76
0.265864 -0.284332 0.412779 153 0 76
-0.232377 -0.077331 -0.199980 0 0 255
-0.072424 0.426305 -0.283860 255 0 0
-0.229478 -0.477936 0.134094 76 0 153
0.326401 -0.035798 -0.010405 0 0 255
0.280092 0.008049 -0.121739 153 0 76
-0.337042 -0.528668 0.432758 76 0 153
-0.403429 -0.785811 0.506815 76 0 153
0.000504 0.678004 -0.329328 255 0 0
-0.055349 -0.080041 0.326182 0 0 255
0.046370 -0.477206 0.171880 76 0 153
0.360948 0.613502 -0.293305 153 0 76
-0.225822 -0.021550 0.132605 0 0 255
0.162173 0.437873 -0.317980 127 127 0
0.177101 -0.021550 0.297068 0 0 255
0.276570 -0.080041 -0.103153 0 0 255
-0.075422 -0.080041 0.188614 0 0 255
0.041087 -0.080041 0.110996 0 0 255
-0.108775 -0.021550 0.193707 0 0 255
0.170724 -0.021550 0.415244 0 0 255
0.331444 0.585190 -0.270010 153 0 76
-0.151769 -0.021550 0.140855 0 0 255
-0.275563 -0.323462 0.435870 76 0 153
-0.263487 -0.509089 -0.201683 0 127 127
-0.028614 -0.464054 0.122046 76 0 153
-0.001277 -0.073955 -0.339510 127 0 127
0.105125 0.788289 -0.325453 153 0 76
0.045479 0.159952 -0.238354 255 0 0
-0.064366 0.299472 -0.257212 255 0 0
-0.019606 0.798752 -0.322438 153 0 76
0.321965 -0.516760 -0.183209 76 153 0
-0.060685 -0.080041 -0.202275 0 0 255
0.233220 -0.021550 0.011684 0 0 255
-0.109043 0.208305 -0.289191 0 255 0
-0.148038 -0.021550 0.213163 0 0 255
0.114969 -0.481679 0.166429 76 0 153
0.369067 -0.053626 0.315403 0 0 255
-0.297811 -0.459300 0.213343 153 76 0
-0.043374 -0.080041 0.142211 0 0 255
0.038974 -0.021550 -0.039746 0 0 255
-0.175700 -0.461629 0.161266 76 0 153
-0.165031 0.288072 -0.228401 204 51 127
-0.119259 0.422312 -0.278777 0 0 255
0.325562 -0.594394 -0.197409 76 153 0
-0.293450 -0.062694 0.381042 76 0 153
-0.282075 -0.535917 -0.213113 0 127 127
-0.301906 -0.472258 0.442578 76 0 153
0.104044 -0.472537 0.124398 76 0 153
0.275817 -0.475659 0.046720 153 0 76
0.104169 -0.080041 -0.196458 0 0 255
-0.294912 -0.021550 0.437695 0 0 255
-0.169277 -0.080041 0.465019 0 0 255
-0.064355 -0.493053 0.160551 76 0 153
0.280540 -0.642951 -0.199739 76 153 0
0.201182 -0.021550 -0.027295 0 0 255
-0.184174 0.771079 -0.315209 153 0 76
0.254107 -0.080041 -0.168029 0 0 255
0.191532 -0.080041 0.081146 0 0 255
0.034437 0.352710 -0.252445 255 0 0
0.346737 -0.376194 0.438548 153 0 76
0.025706 -0.021550 0.441464 0 0 255
0.201566 -0.080041 0.398642 0 0 255
-0.014280 -0.021550 -0.280904 127 0 127
0.260036 -0.080041 0.062567 0 0 255
-0.295038 -0.327496 -0.178080 0 127 127
-0.244292 -0.021550 0.050885 0 0 255
-0.038007 -0.021550 0.468391 0 0 255
0.308392 0.128788 -0.129157 153 0 76
0.249689 -0.353189 -0.135151 76 153 0
0.178556 -0.080041 -0.049329 0 0 255
-0.003763 -0.080041 0.168477 0 0 255
-0.284815 -0.482911 -0.058426 153 76 0
-0.109511 -0.021550 0.417634 0 0 255
-0.305958 -0.581186 -0.216688 0 127 127
-0.355328 0.444192 -0.218348 153 0 76
0.279575 -0.480200 0.117124 153 0 76
-0.044431 0.477466 -0.273892 255 0 0
-0.282564 -0.080041 -0.114420 0 0 255
0.228662 -0.080041 0.448946 0 0 255
0.179739 -0.021550 0.053850 0 0 255
-0.373316 0.398130 -0.243726 153 0 76
0.103748 -0.080041 0.100992 0 0 255
-0.107121 0.311199 -0.245596 0 0 255
-0.055758 -0.080041 0.475630 0 0 255
0.174999 -0.021550 0.349000 0 0 255
0.328789 -0.591254 0.455847 153 0 76
0.297103 -0.021550 0.005471 0 0 255
-0.016295 0.178300 -0.241168 255 0 0
-0.133564 0.820757 -0.333337 153 0 76
0.371841 -0.515085 0.454088 153 0 76
-0.091032 -0.021550 0.362303 0 0 255
-0.332958 -0.045547 -0.006518 0 0 255
0.038285 0.505810 -0.299244 255 0 0
-0.120306 0.360308 -0.267888 0 0 255
-0.321930 -0.493279 0.269702 153 76 0
-0.247616 -0.080041 -0.054364 0 0 255
-0.317698 -0.467216 -0.016208 153 76 0
0.234667 -0.080041 -0.006521 0 0 255
-0.075435 -0.045622 -0.243617 0 0 255
0.048475 -0.021550 -0.110032 0 0 255
-0.126111 0.198070 -0.220222 0 0 255
-0.065323 -0.047868 0.501343 0 0 255
-0.043726 -0.080041 -0.296866 127 0 127
0.008500 -0.021550 0.315750 0 0 255
-0.256927 -0.080041 0.295415 0 0 255
-0.331074 -0.453991 0.308031 153 76 0
0.243379 -0.021550 0.219392 0 0 255
0.295595 -0.455355 0.433952 153 0 76
-0.358598 -0.408967 0.435374 76 0 153
-0.327486 -0.464175 0.418718 76 0 153
0.110104 -0.080041 0.031084 0 0 255
-0.018494 0.122514 -0.231324 255 0 0
0.227231 -0.215179 -0.173867 76 153 0
-0.305476 -0.125357 0.397816 76 0 153
-0.297455 -0.292504 0.458687 76 0 153
-0.300809 -0.052299 0.462029 0 0 255
-0.290974 -0.080041 0.435976 0 0 255
-0.269632 -0.021550 -0.141733 0 0 255
0.303423 -0.383369 -0.166530 76 153 0
0.125804 -0.021550 0.341815 0 0 255
-0.317822 0.720087 -0.298503 153 0 76
-0.231678 0.397830 -0.251572 153 0 76
-0.226182 -0.209676 -0.166659 0 127 127
0.335319 -0.558525 0.440456 153 0 76
-0.207506 -0.021550 0.438222 0 0 255
-0.032371 0.691204 -0.311634 255 0 0
0.068588 -0.080041 0.450707 0 0 255
0.360972 -0.618053 0.456135 153 0 76
-0.292423 -0.490160 0.007886 153 76 0
0.054540 0.599007 -0.295978 255 0 0
0.097369 0.280193 -0.231926 76 0 153
0.305875 0.258505 -0.201456 153 0 76
0.006447 -0.080041 0.052668 0 0 255
0.279105 -0.363211 -0.182339 76 153 0
-0.370140 0.596428 -0.262577 153 0 76
-0.160333 -0.021550 -0.025908 0 0 255
0.181406 -0.021550 0.454612 0 0 255
-0.174257 0.335537 -0.256044 204 51 127
-0.318883 -0.484641 -0.154942 0 127 127
0.041328 -0.491477 0.130207 76 0 153
-0.050920 0.396014 -0.278239 255 0 0
-0.250568 0.003311 -0.090260 153 0 76
0.259810 -0.170682 -0.135066 76 153 0
-0.121266 -0.493835 0.146164 76 0 153
0.291949 -0.463472 0.231386 153 0 76
-0.010997 -0.031161 -0.204194 255 0 0
-0.118038 -0.004540 -0.185237 0 0 255
0.347741 -0.422804 0.478665 153 0 76
0.338519 0.521488 -0.256017 153 0 76
-0.009042 -0.080041 0.355399 0 0 255
0.176730 0.551056 -0.279514 153 76 0
0.128930 -0.021550 0.227604 0 0 255
0.096530 -0.080041 0.155239 0 0 255
0.295274 -0.346679 0.405963 153 0 76
-0.380524 -0.710518 0.518218 76 0 153
-0.254403 0.756742 -0.347913 153 0 76
-0.347141 -0.047732 0.162455 0 0 255
-0.376152 -0.065990 0.328294 0 0 255
-0.255400 -0.056906 -0.187929 0 0 255
-0.003048 0.500716 -0.298067 255 0 0
0.258797 -0.180621 0.401226 153 0 76
0.050361 -0.080041 -0.235133 0 0 255
-0.313995 -0.537080 -0.152900 0 127 127
0.358995 0.342037 -0.192783 153 0 76
0.109063 -0.080041 -0.012911 0 0 255
0.276394 -0.049761 -0.164588 0 0 255
-0.378840 0.551456 -0.288272 153 0 76
0.011091 -0.021550 0.378956 0 0 255
-0.328744 -0.719718 -0.219352 0 127 127
0.267699 -0.021550 -0.016708 0 0 255
0.291148 -0.021550 0.103279 0 0 255
-0.167016 -0.080041 0.239277 0 0 255
-0.091679 -0.021550 -0.218438 0 0 255
0.316984 -0.743400 -0.185974 76 153 0
0.328273 -0.080041 0.222562 0 0 255
-0.352922 0.663270 -0.286707 153 0 76
0.307083 -0.047072 -0.118415 0 0 255
0.345462 0.635174 -0.312594 153 0 76
-0.244121 -0.249418 -0.184209 0 127 127
-0.308177 -0.381749 -0.174069 0 127 127
-0.287478 -0.354029 0.434356 76 0 153
0.366262 0.543783 -0.286042 153 0 76
0.205960 0.046296 -0.173047 76 0 153
-0.292978 0.183082 -0.145520 153 0 76
0.118095 -0.080041 0.492392 0 0 255
0.059347 0.491039 -0.276987 255 0 0
-0.374032 -0.057814 0.293414 0 0 255
-0.054649 0.048586 -0.296027 0 255 0
0.031491 -0.021550 -0.150734 0 0 255
-0.050120 0.740302 -0.322948 255 0 0
0.152549 0.391286 -0.311597 127 127 0
0.165800 -0.080041 -0.222718 0 0 255
-0.315729 -0.021550 0.044134 0 0 255
0.302836 -0.423407 -0.192734 76 153 0
-0.268382 -0.178063 0.393494 76 0 153
0.018238 0.044815 -0.217883 255 0 0
0.136273 -0.021550 0.164447 0 0 255
0.306541 -0.703636 -0.217981 76 153 0
-0.104875 -0.080041 -0.212878 0 0 255
-0.209256 -0.080041 -0.177135 0 0 255
-0.004164 0.728053 -0.318318 255 0 0
-0.068422 -0.080041 0.074764 0 0 255
-0.268031 -0.021550 0.185753 0 0 255
-0.327792 -0.021550 0.105745 0 0 255
0.300210 -0.497427 0.098040 153 0 76
-0.067613 -0.021550 0.025255 0 0 255
0.222182 -0.080041 0.050694 0 0 255
-0.346558 0.517816 -0.262235 153 0 76
0.177265 -0.484663 0.135131 76 0 153
0.182058 -0.080041 0.238708 0 0 255
0.361710 -0.512684 0.492514 153 0 76
-0.247548 -0.402740 -0.142328 0 127 127
-0.084407 -0.021550 0.438630 0 0 255
0.323545 -0.575513 0.495403 153 0 76
-0.242104 -0.348683 -0.178977 0 127 127
-0.338741 -0.668415 -0.181709 0 127 127
-0.142837 -0.080041 0.299013 0 0 255
-0.288089 -0.080041 0.264660 0 0 255
0.268819 -0.088751 0.415981 153 0 76
0.271310 -0.080041 0.214699 0 0 255
0.053870 0.653272 -0.325332 255 0 0
0.288527 -0.021550 0.257917 0 0 255
0.137007 -0.051999 -0.230802 0 0 255
-0.052904 -0.080041 0.213937 0 0 255
-0.333314 -0.075272 0.019382 0 0 255
0.307176 -0.475460 -0.042244 153 0 76
-0.064062 -0.021550 -0.299528 127 0 127
-0.036943 -0.044694 -0.336799 127 0 127
-0.339194 0.581448 -0.287626 153 0 76
-0.336172 -0.483067 0.131297 153 76 0
-0.200236 -0.021550 -0.143185 0 0 255
0.302401 -0.570659 -0.215881 76 153 0
-0.253066 -0.131175 -0.122674 0 127 127
0.363137 -0.049623 0.268111 0 0 255
-0.187196 -0.080041 -0.080012 0 0 255
-0.030214 0.634074 -0.321380 255 0 0
0.291294 -0.021550 0.366620 0 0 255
-0.099236 -0.449571 0.152802 76 0 153
-0.289821 -0.142770 0.426006 76 0 153
-0.361729 -0.419167 0.467599 76 0 153
0.378418 -0.573378 0.478194 153 0 76
0.113949 -0.021550 0.307197 0 0 255
0.226315 -0.080041 -0.088958 0 0 255
0.115593 -0.021550 0.047572 0 0 255
-0.386491 -0.601969 0.474540 76 0 153
0.280189 -0.260943 -0.137004 76 153 0
0.130834 -0.021550 0.469497 0 0 255
0.022833 0.270009 -0.257592 255 0 0
-0.115508 -0.080041 0.146841 0 0 255
-0.295334 -0.021550 -0.019334 0 0 255
0.124871 -0.080041 0.193171 0 0 255
-0.168212 -0.080041 -0.202528 0 0 255
-0.278070 0.117008 -0.123293 153 0 76
0.089773 -0.021550 -0.079020 0 0 255
0.325494 -0.455302 0.126899 153 0 76
0.137973 -0.080041 0.415325 0 0 255
0.093433 0.215647 -0.312822 127 127 0
0.274790 -0.506633 -0.213765 76 153 0
0.221860 -0.021550 0.242772 0 0 255
-0.183577 0.380293 -0.266261 204 51 127
0.388269 -0.774363 0.524266 153 0 76
-0.101424 -0.080041 -0.150767 0 0 255
0.292125 0.196141 -0.185043 153 0 76
0.022220 0.829516 -0.330295 153 0 76
0.017361 0.452704 -0.269948 255 0 0
0.102044 0.470258 -0.276691 76 0 153
0.306060 -0.191137 0.429245 153 0 76
0.332956 -0.027174 0.117728 0 0 255
0.204073 0.767681 -0.312330 153 0 76
0.124686 -0.080041 -0.065093 0 0 255
-0.210568 -0.080041 0.203560 0 0 255
-0.234402 0.785716 -0.323914 153 0 76
-0.143503 -0.080041 0.417618 0 0 255
0.314421 -0.080041 0.171780 0 0 255
-0.018160 0.310587 -0.264464 255 0 0
0.312257 -0.080041 0.095824 0 0 255
0.240658 -0.330056 -0.190763 76 153 0
0.210042 -0.021550 0.117740 0 0 255
-0.213445 -0.080041 0.158279 0 0 255
-0.271831 -0.220421 0.399805 76 0 153
-0.334783 -0.056154 0.070678 0 0 255
-0.163897 -0.080041 0.075922 0 0 255
-0.243962 -0.022510 -0.107086 153 0 76
-0.047273 0.773784 -0.326083 255 0 0
0.209396 -0.021550 0.299038 0 0 255
0.197107 0.147101 -0.192832 76 0 153
0.289141 -0.383596 0.435085 153 0 76
0.106514 0.422685 -0.278367 76 0 153
0.220676 -0.053915 -0.108741 76 153 0
0.064531 0.448231 -0.269547 255 0 0
0.017981 -0.021550 0.471900 0 0 255
-0.259889 -0.127155 0.390183 76 0 153
-0.373923 -0.021550 0.293634 0 0 255
0.284853 -0.455902 -0.024622 153 0 76
-0.212930 0.112441 -0.191198 153 0 76
0.281192 -0.329638 -0.132927 76 153 0
-0.223613 0.311253 -0.219403 153 0 76
-0.155407 -0.456644 0.135466 76 0 153
0.018283 0.304395 -0.260884 255 0 0
0.228681 0.290450 -0.211464 76 0 153
-0.307012 -0.232078 0.387802 76 0 153
0.282303 -0.055411 0.376638 153 0 76
0.205178 0.196581 -0.189387 76 0 153
0.142948 -0.080041 0.362252 0 0 255
0.238358 -0.220301 -0.119721 76 153 0
-0.235818 -0.080041 0.363591 0 0 255
0.318726 -0.474710 0.029567 153 0 76
-0.312702 -0.021550 0.136436 0 0 255
0.222071 0.240885 -0.220439 76 0 153
-0.342930 -0.472971 0.190093 153 76 0
0.364991 -0.551012 0.446213 153 0 76
-0.371874 -0.048931 0.375211 0 0 255
-0.093042 -0.021550 0.249286 0 0 255
0.220200 0.416036 -0.249573 76 0 153
0.169634 -0.080041 0.467542 0 0 255
-0.304286 -0.021550 0.077264 0 0 255
-0.028278 0.024287 -0.194153 255 0 0
0.173982 0.800802 -0.321953 153 0 76
-0.313048 -0.383748 0.474235 76 0 153
-0.060001 -0.080041 -0.260366 127 0 127
0.346788 -0.080041 0.318337 0 0 255
-0.124062 0.148181 -0.210960 0 0 255
-0.025881 -0.021550 0.037589 0 0 255
0.353221 -0.052412 0.219627 0 0 255
-0.205146 -0.021550 0.173268 0 0 255
-0.161225 -0.080041 0.011765 0 0 255
-0.287054 -0.080041 -0.068806 0 0 255
0.284522 -0.021550 0.224938 0 0 255
-0.303292 -0.449922 0.034069 153 76 0
0.211734 -0.049297 -0.206290 0 0 255
0.256692 0.050306 -0.142674 153 0 76
0.024939 -0.080041 0.261352 0 0 255
0.026039 -0.021550 0.160492 0 0 255
0.079782 -0.021550 0.197860 0 0 255
0.335852 -0.644611 0.497644 153 0 76
-0.295492 -0.080041 0.042794 0 0 255
-0.189699 0.644467 -0.307621 204 51 127
-0.308360 0.245130 -0.160664 153 0 76
0.093548 0.783724 -0.355752 153 0 76
0.367709 -0.057699 0.362063 0 0 255
0.056568 -0.080041 -0.309003 127 0 127
0.314284 -0.493225 0.268677 153 0 76
-0.053484 -0.021550 0.384393 0 0 255
0.000207 0.386831 -0.258225 255 0 0
-0.080119 0.152654 -0.295625 0 255 0
0.216960 -0.021550 0.463793 0 0 255
0.316422 -0.544743 0.491670 153 0 76
0.015099 -0.080041 -0.059235 0 0 255
0.273041 -0.021550 0.309384 0 0 255
-0.206439 0.756742 -0.347912 153 0 76
-0.180064 -0.080041 0.350835 0 0 255
0.184267 -0.080041 0.299046 0 0 255
0.294202 -0.492621 0.182123 153 0 76
-0.286839 -0.298625 -0.184509 0 127 127
0.200418 -0.001294 -0.162606 76 0 153
-0.319373 -0.465671 0.366914 153 76 0
0.081603 -0.021550 0.487266 0 0 255
0.112507 -0.021550 0.145064 0 0 255
0.225378 -0.251316 -0.127240 76 153 0
-0.083935 -0.051298 -0.275397 127 0 127
-0.222450 -0.139403 -0.159394 0 127 127
-0.029971 0.443077 -0.287729 255 0 0
-0.323889 -0.080041 0.314999 0 0 255
0.018096 0.792734 -0.358369 153 0 76
-0.373359 -0.574954 0.451317 76 0 153
-0.040430 -0.448015 0.156201 76 0 153
0.284386 0.741204 -0.328665 153 0 76
0.055913 -0.021550 -0.301320 127 0 127
-0.099561 -0.021550 0.301494 0 0 255
0.081033 -0.021550 0.318058 0 0 255
-0.077053 -0.080041 -0.101409 0 0 255
-0.009869 0.545721 -0.286153 255 0 0
0.168300 -0.021550 0.084824 0 0 255
0.082187 -0.052105 -0.293132 127 0 127
-0.108060 -0.080041 0.424249 0 0 255
0.304485 -0.455083 -0.146219 76 153 0
0.338477 0.670433 -0.308829 153 0 76
0.281910 -0.080041 0.002028 0 0 255
0.254855 -0.422150 -0.202060 76 153 0
-0.258105 -0.021550 0.304879 0 0 255
-0.190073 -0.021550 0.245152 0 0 255
0.256712 -0.266628 -0.189757 76 153 0
0.195389 0.642791 -0.325498 127 127 0
-0.305018 0.084239 -0.119040 153 0 76
-0.242988 -0.054742 -0.146040 0 127 127
-0.237749 -0.316128 -0.186856 0 127 127
-0.218993 -0.080041 -0.026481 0 0 255
0.041653 0.053281 -0.199736 255 0 0
0.257441 -0.547960 -0.177651 76 153 0
0.198615 -0.080041 0.438258 0 0 255
-0.011372 0.587140 -0.313238 255 0 0
0.301954 -0.234976 0.388385 153 0 76
0.270351 0.005640 -0.090937 153 0 76
-0.264617 -0.080041 0.009413 0 0 255
0.292224 0.064932 -0.114774 153 0 76
0.074986 0.172191 -0.305404 127 127 0
-0.024927 0.348199 -0.251248 255 0 0
-0.353520 -0.023852 0.420251 0 0 255
-0.129778 -0.021550 0.051826 0 0 255
0.286999 -0.475668 -0.212969 76 153 0
-0.070606 0.655447 -0.305074 255 0 0
-0.218296 -0.080041 0.105051 0 0 255
-0.131915 -0.021550 0.354293 0 0 255
0.242038 -0.461672 -0.186657 76 153 0
-0.253770 -0.021550 0.247704 0 0 255
-0.287716 -0.314801 -0.130048 0 127 127
0.362348 -0.456102 0.475187 153 0 76
-0.061150 -0.080041 -0.171506 0 0 255
0.295304 -0.144658 0.420567 153 0 76
0.047150 -0.056849 -0.333357 127 0 127
-0.321333 -0.495578 -0.197682 0 127 127
0.256990 -0.021550 0.413993 0 0 255
-0.371368 -0.746879 0.519127 76 0 153
0.032416 0.424010 -0.284792 255 0 0
0.277579 -0.242748 0.446596 153 0 76
0.225330 0.376948 -0.228541 76 0 153
-0.042740 0.150785 -0.216343 255 0 0
0.311345 -0.466782 0.360377 153 0 76
0.296513 -0.271802 0.461006 153 0 76
-0.277584 -0.212252 -0.150978 0 127 127
0.052803 0.186932 -0.226977 255 0 0
0.283165 -0.021550 0.157280 0 0 255
0.047639 -0.080041 0.389561 0 0 255
-0.324554 -0.453137 0.492341 76 0 153
-0.260938 -0.080041 0.109106 0 0 255
0.084780 -0.021550 0.253654 0 0 255
-0.271385 -0.021550 0.030489 0 0 255
-0.226864 0.154002 -0.199120 153 0 76
0.316182 -0.449585 0.253836 153 0 76
-0.067027 0.234560 -0.250737 255 0 0
-0.252549 -0.080041 0.456832 0 0 255
0.049068 0.801562 -0.360934 153 0 76
0.366138 0.391985 -0.203181 153 0 76
-0.327676 -0.238622 0.436119 76 0 153
-0.047263 0.832431 -0.332173 153 0 76
-0.049496 -0.003698 -0.280351 0 255 0
0.319243 -0.486944 -0.181810 76 153 0
-0.140060 0.770175 -0.326747 0 0 255
0.277427 -0.597649 -0.208557 76 153 0
-0.132060 -0.080041 0.060374 0 0 255
-0.229893 -0.080041 -0.134016 0 0 255
0.181987 -0.021550 -0.210477 0 0 255
0.315139 -0.531512 0.442132 153 0 76
-0.292460 0.747386 -0.307028 153 0 76
0.222672 -0.067443 0.484388 0 0 255
0.302504 -0.021550 0.333036 0 0 255
-0.274058 -0.080041 -0.151033 0 0 255
-0.295729 0.688902 -0.295790 153 0 76
-0.065868 0.563977 -0.288990 255 0 0
0.341381 -0.470692 0.400015 153 0 76
0.278514 0.148979 -0.169850 153 0 76
0.078642 -0.080041 0.480941 0 0 255
-0.328407 -0.048310 -0.069554 0 0 255
0.230084 -0.021550 0.272392 0 0 255
-0.055861 -0.021550 0.200002 0 0 255
0.242549 -0.080041 0.163866 0 0 255
0.007142 0.077472 -0.203764 255 0 0
0.285616 -0.587816 -0.159060 76 153 0
-0.040659 0.204113 -0.245551 255 0 0
-0.229469 -0.021550 -0.178533 0 0 255
0.102519 0.183364 -0.233463 76 0 153
0.185604 0.493496 -0.285840 153 76 0
0.320543 -0.021550 0.418037 0 0 255
0.303891 -0.682192 -0.172033 76 153 0
0.180564 -0.080041 -0.148342 0 0 255
0.155946 -0.080041 0.135990 0 0 255
0.315166 -0.021550 0.207011 0 0 255
0.046406 -0.458811 0.125112 76 0 153
-0.350715 0.275947 -0.169469 153 0 76
-0.319546 -0.359086 0.410585 76 0 153
0.041718 0.623125 -0.319938 255 0 0
0.094385 -0.021550 -0.010099 0 0 255
0.214232 0.097181 -0.177702 76 0 153
0.104523 0.113599 -0.197455 76 0 153
0.252518 -0.133923 0.399946 153 0 76
-0.259903 -0.156256 -0.157803 0 127 127
0.217116 -0.165297 -0.124529 76 153 0
-0.263851 0.699277 -0.319871 153 0 76
-0.291111 -0.271934 -0.141026 0 127 127
-0.253196 -0.021550 0.477923 0 0 255
0.252571 -0.449192 -0.142774 76 153 0
-0.306144 0.204563 -0.187490 153 0 76
-0.137306 -0.080041 -0.050166 0 0 255
0.084278 0.121485 -0.295679 127 127 0
0.216841 -0.021550 0.401939 0 0 255
-0.139103 -0.021550 0.465636 0 0 255
-0.202600 0.071757 -0.164410 153 0 76
0.043891 -0.021550 -0.254603 127 0 127
-0.012944 -0.492461 0.163575 76 0 153
-0.085262 0.520543 -0.301003 255 0 0
0.253871 -0.230794 -0.180330 76 153 0
0.120568 -0.050635 0.497993 0 0 255
-0.025592 -0.021550 0.364366 0 0 255
-0.337957 -0.773654 -0.221760 0 127 127
-0.145899 -0.485624 0.132208 76 0 153
-0.005946 -0.053165 0.502306 0 0 255
0.253145 -0.135949 -0.132309 76 153 0
0.104411 0.517593 -0.285407 76 0 153
-0.386342 -0.724562 0.484339 76 0 153
-0.344214 -0.296423 0.439246 76 0 153
-0.201289 -0.466338 0.132114 76 0 153
-0.294719 -0.417125 0.447401 76 0 153
-0.013030 -0.021550 0.279726 0 0 255
-0.026582 0.060044 -0.220262 255 0 0
0.279973 -0.080041 0.317574 0 0 255
0.295547 -0.080041 -0.025412 0 0 255
0.284495 -0.486801 -0.057277 153 0 76
0.098740 0.228614 -0.240777 76 0 153
0.274186 -0.080041 -0.052328 0 0 255
-0.285046 -0.468464 0.115025 153 76 0
0.324414 -0.024063 -0.051899 0 0 255
-0.066201 -0.465730 0.171161 76 0 153
-0.262651 -0.444617 -0.205018 0 127 127
-0.099051 -0.080041 0.479190 0 0 255
0.249873 0.045482 -0.106343 153 0 76
0.331900 -0.693942 -0.206228 76 153 0
-0.364465 -0.050639 0.240569 0 0 255
-0.320392 0.259095 -0.203333 153 0 76
0.130227 0.779542 -0.339483 153 0 76
0.243004 -0.080041 -0.043563 0 0 255
-0.363075 0.393676 -0.203672 153 0 76
0.296220 -0.080041 0.067287 0 0 255
-0.248596 -0.021550 0.402859 0 0 255
-0.233554 0.746012 -0.329078 0 255 0
-0.185181 -0.080041 0.266489 0 0 255
0.090091 -0.021550 -0.215378 0 0 255
0.311464 -0.643257 -0.217224 76 153 0
-0.334693 0.223980 -0.193131 153 0 76
-0.236026 -0.080041 0.052688 0 0 255
0.336264 0.238526 -0.159306 153 0 76
-0.358878 0.545548 -0.247795 153 0 76
-0.151495 0.085642 -0.193309 204 51 127
-0.186160 -0.021550 0.036101 0 0 255
-0.145055 0.321669 -0.299557 0 255 0
-0.161465 -0.021550 0.109748 0 0 255
0.118350 0.306085 -0.317644 127 127 0
0.100098 -0.053749 -0.238240 0 0 255
0.030244 0.221874 -0.229363 255 0 0
0.078601 -0.021550 0.165845 0 0 255
0.242899 -0.080041 0.293528 0 0 255
0.258510 -0.383562 -0.199040 76 153 0
-0.137923 -0.053232 0.497130 0 0 255
0.254526 -0.021550 -0.055126 0 0 255
0.139466 -0.465629 0.165861 76 0 153
-0.097235 -0.021550 -0.033897 0 0 255
0.217529 -0.276918 -0.170278 76 153 0
-0.332825 0.300471 -0.176593 153 0 76
-0.158678 -0.080041 0.127486 0 0 255
-0.173780 0.806786 -0.343115 153 0 76
-0.366080 -0.539244 0.439994 76 0 153
0.373451 0.443137 -0.233139 153 0 76
-0.377802 -0.802012 0.504568 76 0 153
0.194722 -0.483401 0.158329 76 0 153
-0.151085 -0.021550 0.403756 0 0 255
0.130984 -0.021550 -0.034617 0 0 255
-0.310771 -0.696988 -0.217262 0 127 127
-0.276257 -0.169128 0.428590 76 0 153
-0.009677 -0.021550 0.480696 0 0 255
-0.094261 -0.080041 0.379327 0 0 255
-0.332162 -0.021550 0.010472 0 0 255
0.353426 -0.726398 0.496231 153 0 76
0.116623 0.341577 -0.313060 127 127 0
0.372893 -0.671299 0.467600 153 0 76
-0.303018 -0.468374 0.270511 153 76 0
0.349460 -0.052930 0.415970 0 0 255
0.355359 -0.408578 0.449440 153 0 76
0.001870 0.627971 -0.300724 255 0 0
-0.177145 0.400949 -0.247007 204 51 127
0.011361 0.160832 -0.238278 255 0 0
0.012794 -0.021550 0.077517 0 0 255
0.255923 -0.021550 0.050596 0 0 255
-0.169013 -0.028381 0.493963 0 0 255
0.143349 0.145528 -0.205374 153 76 0
-0.044938 0.092655 -0.224915 255 0 0
-0.366228 -0.701198 0.478003 76 0 153
-0.251332 -0.057910 0.397370 76 0 153
-0.345382 -0.021550 0.261383 0 0 255
0.146988 0.190817 -0.209391 153 76 0
-0.372121 -0.566353 0.499728 76 0 153
0.235693 -0.050149 -0.145645 76 153 0
-0.362164 0.458380 -0.261230 153 0 76
0.267905 -0.021550 0.278071 0 0 255
0.001194 -0.080041 -0.249134 0 0 255
0.368819 -0.806431 0.513742 153 0 76
0.392464 -0.749185 0.510863 153 0 76
-0.304275 -0.314619 0.394588 76 0 153
-0.329977 -0.494121 0.175293 153 76 0
-0.351609 -0.614401 0.508439 76 0 153
0.132849 -0.080041 -0.185308 0 0 255
0.324567 -0.237016 0.425533 153 0 76
-0.232235 0.263592 -0.226928 153 0 76
-0.203981 -0.055491 -0.121548 0 127 127
0.023278 -0.021550 0.029014 0 0 255
0.141719 -0.033434 -0.170704 153 76 0
0.039380 -0.080041 0.080207 0 0 255
-0.185488 0.269386 -0.236088 204 51 127
-0.034163 -0.080041 0.025565 0 0 255
0.247879 -0.080041 0.107941 0 0 255
-0.275249 -0.405899 -0.132187 0 127 127
-0.329218 -0.481157 0.496520 76 0 153
-0.097808 -0.021550 0.110310 0 0 255
-0.176061 0.228846 -0.233656 204 51 127
-0.304023 -0.475346 -0.209642 0 127 127
0.300365 -0.732651 -0.207186 76 153 0
-0.214174 -0.021550 0.227050 0 0 255
0.029662 0.404861 -0.261602 255 0 0
0.345370 0.370856 -0.197042 153 0 76
0.217949 -0.021550 0.176548 0 0 255
0.260059 0.757457 -0.347670 153 0 76
0.245999 -0.175129 -0.168700 76 153 0
-0.190839 -0.080041 0.321936 0 0 255
0.225243 -0.315399 -0.137315 76 153 0
-0.209065 -0.080041 0.070142 0 0 255
0.329038 -0.486862 0.350126 153 0 76
-0.219113 -0.021550 -0.052258 0 0 255
-0.302922 -0.494502 0.038978 153 76 0
0.276313 -0.232739 -0.147782 76 153 0
-0.123678 -0.459127 0.164101 76 0 153
-0.265148 -0.021550 0.088770 0 0 255
-0.132849 0.409017 -0.257231 0 0 255
-0.009476 -0.021550 -0.055349 0 0 255
0.001029 -0.021550 -0.144944 0 0 255
0.129712 0.730125 -0.320818 76 0 153
-0.258592 -0.021550 -0.078739 0 0 255
-0.108204 -0.021550 0.010270 0 0 255
0.344482 -0.045213 0.180226 0 0 255
-0.335597 -0.080041 0.241096 0 0 255
0.285817 -0.433941 -0.135736 76 153 0
-0.392064 -0.765894 0.523772 76 0 153
0.149384 -0.080041 -0.093592 0 0 255
0.024296 -0.021550 -0.008738 0 0 255
0.174623 0.423478 -0.250608 153 76 0
-0.097130 -0.021550 -0.155190 0 0 255
0.112552 0.262639 -0.292119 127 127 0
-0.313591 -0.178908 0.396327 76 0 153
-0.120348 0.805444 -0.362062 153 0 76
-0.047731 0.271522 -0.257381 255 0 0
-0.314124 -0.021550 -0.114090 0 0 255
0.068349 -0.080041 -0.144314 0 0 255
-0.107570 0.108688 -0.196348 0 0 255
0.267999 -0.385703 -0.133428 76 153 0
-0.262754 -0.080041 0.173840 0 0 255
0.066610 -0.080041 0.154301 0 0 255
0.282869 -0.459380 -0.102975 153 0 76
-0.219522 -0.021550 -0.121511 0 0 255
-0.059843 0.491082 -0.295984 255 0 0
-0.341032 -0.064501 0.127972 0 0 255
0.014550 -0.080041 -0.286646 127 0 127
