-0.380699 -0.352767 0.187100 0.300000 0.000000 0.600000
0.410026 -0.012721 0.322105 1.000000 0.000000 0.000000
-0.427303 0.601106 -0.435571 0.500000 0.500000 0.000000
-0.404319 -0.489149 -0.389025 0.000000 0.000000 1.000000
0.391155 -0.513887 0.572717 0.600000 0.000000 0.300000
-0.088683 0.192973 -0.283402 0.500000 0.500000 0.000000
0.385663 -0.507403 0.534077 0.300000 0.000000 0.600000
-0.019811 -0.069545 0.463310 0.600000 0.000000 0.300000
-0.035895 -0.062592 0.444153 0.800000 0.200000 0.500000
-0.329650 0.662061 -0.509190 0.500000 0.500000 0.000000
-0.208459 -0.088274 0.443546 0.800000 0.200000 0.500000
-0.033712 0.550243 -0.504642 0.500000 0.500000 0.000000
0.214954 0.545193 -0.394324 0.500000 0.500000 0.000000
0.379601 -0.226807 -0.177915 0.800000 0.200000 0.500000
0.270993 -0.182548 0.053492 0.500000 0.000000 0.500000
-0.488791 0.287086 -0.150130 0.000000 0.000000 1.000000
0.501284 0.262745 0.063767 1.000000 0.000000 0.000000
-0.373428 0.246341 0.038861 0.000000 0.000000 1.000000
0.020994 -0.302237 -0.132197 0.000000 0.500000 0.500000
-0.028341 -0.167050 0.191611 0.800000 0.200000 0.500000
-0.017406 -0.257250 -0.308754 0.500000 0.500000 0.000000
0.188617 -0.305259 -0.324349 0.500000 0.500000 0.000000
-0.203786 0.481590 -0.375158 0.500000 0.500000 0.000000
0.248625 0.037542 -0.250922 0.500000 0.500000 0.000000
0.123546 -0.196347 -0.034143 0.800000 0.200000 0.500000
0.433861 0.235270 -0.007554 1.000000 0.000000 0.000000
0.302652 -0.239149 -0.158789 0.800000 0.200000 0.500000
-0.221048 -0.353103 0.064479 0.000000 1.000000 0.000000
0.369183 -0.265602 -0.244964 0.800000 0.200000 0.500000
0.263802 0.235138 -0.376076 0.500000 0.500000 0.000000
-0.367446 -0.238014 -0.171782 0.800000 0.200000 0.500000
0.127352 -0.157832 0.886065 0.600000 0.000000 0.300000
-0.395114 -0.219740 0.242992 0.000000 0.000000 1.000000
-0.466938 0.069672 0.318083 0.000000 0.000000 1.000000
0.042264 -0.133622 -0.373233 0.500000 0.500000 0.000000
-0.058561 0.631597 -0.427979 0.500000 0.500000 0.000000
0.380873 -0.160713 0.175210 0.800000 0.200000 0.500000
0.245691 0.587677 -0.501928 0.500000 0.500000 0.000000
0.377680 -0.104927 0.061415 0.800000 0.200000 0.500000
-0.344872 0.564618 -0.382017 0.500000 0.500000 0.000000
-0.199223 0.455829 -0.465025 0.500000 0.500000 0.000000
0.501278 0.235430 -0.128398 1.000000 0.000000 0.000000
-0.187135 -0.202108 -0.332798 0.800000 0.200000 0.500000
0.387298 -0.359835 -0.121985 0.600000 0.300000 0.000000
0.390088 0.237530 0.276572 1.000000 0.000000 0.000000
-0.276783 -0.203343 0.906124 0.600000 0.000000 0.300000
0.199633 -0.093794 -0.281868 0.800000 0.200000 0.500000
-0.032236 0.177186 -0.380565 0.500000 0.500000 0.000000
0.389061 0.072283 0.359481 1.000000 0.000000 0.000000
-0.458705 -0.247383 0.195379 0.000000 0.000000 1.000000
0.492040 0.324640 -0.041408 1.000000 0.000000 0.000000
-0.107099 -0.204147 -0.067674 0.800000 0.200000 0.500000
-0.479713 -0.020831 0.386727 0.000000 0.000000 1.000000
0.463587 -0.306791 -0.019187 1.000000 0.000000 0.000000
-0.386681 0.120229 0.297641 0.000000 0.000000 1.000000
0.111603 -0.186670 0.557699 0.600000 0.000000 0.300000
-0.445050 -0.132177 0.345407 0.000000 0.000000 1.000000
0.032751 -0.261335 -0.387119 0.500000 0.500000 0.000000
0.024082 -0.336730 0.147911 0.300000 0.600000 0.000000
0.330519 -0.100246 0.742631 0.600000 0.000000 0.300000
0.176530 0.209434 -0.281562 0.500000 0.500000 0.000000
0.420405 -0.300731 -0.396256 0.500000 0.500000 0.000000
-0.396971 0.324287 -0.033627 0.000000 0.000000 1.000000
-0.018198 -0.350617 0.134390 0.300000 0.600000 0.000000
-0.275077 -0.218279 0.041869 0.500000 0.500000 0.000000
-0.318771 0.695406 -0.420154 0.500000 0.500000 0.000000
0.386874 -0.145825 -0.186837 0.800000 0.200000 0.500000
0.299086 -0.177155 0.386954 0.800000 0.200000 0.500000
0.314639 -0.319744 0.051097 0.000000 1.000000 0.000000
0.210701 -0.190313 0.013880 0.800000 0.200000 0.500000
-0.393945 -0.206774 0.201975 0.000000 0.000000 1.000000
-0.390563 -0.166762 0.237176 0.000000 0.000000 1.000000
0.396865 0.368580 -0.310724 0.500000 0.500000 0.000000
0.235604 -0.170921 0.267081 0.800000 0.200000 0.500000
0.365591 -0.188407 0.598483 0.600000 0.000000 0.300000
0.385031 -0.346564 0.016762 0.300000 0.000000 0.600000
-0.192775 -0.229582 -0.382101 0.500000 0.500000 0.000000
0.137629 -0.032004 -0.007758 0.800000 0.200000 0.500000
0.248004 0.693046 -0.528377 0.500000 0.500000 0.000000
-0.421853 -0.012968 0.404512 0.000000 0.000000 1.000000
-0.046044 0.354257 -0.334639 0.500000 0.500000 0.000000
-0.156909 -0.239265 0.161925 0.600000 0.300000 0.000000
0.370409 -0.467235 0.479042 0.300000 0.000000 0.600000
0.053569 0.031838 -0.368101 0.500000 0.500000 0.000000
0.077508 -0.195999 0.907684 0.600000 0.000000 0.300000
0.376963 -0.101118 -0.132001 0.800000 0.200000 0.500000
0.128344 0.738705 -0.518718 0.500000 0.500000 0.000000
0.376611 -0.168414 0.130707 0.800000 0.200000 0.500000
0.220103 0.221399 -0.377833 0.500000 0.500000 0.000000
0.441341 0.232629 0.097666 1.000000 0.000000 0.000000
0.238768 -0.026265 0.257524 0.800000 0.200000 0.500000
-0.362630 -0.082524 0.627068 0.600000 0.000000 0.300000
0.168371 0.505985 -0.485706 0.500000 0.500000 0.000000
-0.091859 0.220474 -0.387457 0.500000 0.500000 0.000000
0.118669 0.403136 -0.450982 0.500000 0.500000 0.000000
0.461211 0.069648 0.318090 1.000000 0.000000 0.000000
-0.225511 -0.173761 0.164059 0.800000 0.200000 0.500000
-0.362888 -0.205964 -0.285024 0.500000 0.500000 0.000000
-0.379395 0.008352 0.401594 0.000000 0.000000 1.000000
-0.256007 -0.216896 0.728829 0.600000 0.000000 0.300000
-0.380356 -0.113946 0.462717 0.600000 0.000000 0.300000
-0.360170 -0.393450 -0.257946 0.600000 0.000000 0.300000
-0.099543 -0.156879 0.435039 0.600000 0.000000 0.300000
-0.483921 0.188376 -0.318151 0.000000 0.000000 1.000000
0.110826 -0.208810 -0.085962 0.800000 0.200000 0.500000
-0.367132 -0.435651 -0.365456 0.600000 0.000000 0.300000
-0.377424 -0.446618 0.437671 0.300000 0.000000 0.600000
-0.143012 -0.119261 0.799797 0.600000 0.000000 0.300000
-0.382307 -0.496526 -0.441610 0.600000 0.000000 0.300000
-0.282057 0.383019 -0.425778 0.500000 0.500000 0.000000
0.010989 -0.191077 0.582090 0.600000 0.000000 0.300000
0.132809 -0.339371 0.024192 0.500000 0.000000 0.500000
-0.306225 -0.156234 0.433751 0.600000 0.000000 0.300000
-0.280217 -0.196165 0.067798 0.500000 0.500000 0.000000
0.426014 -0.194322 0.291451 1.000000 0.000000 0.000000
0.378838 0.723877 -0.514258 0.500000 0.500000 0.000000
-0.004920 -0.225885 -0.156295 0.800000 0.200000 0.500000
-0.220976 0.348944 -0.321374 0.500000 0.500000 0.000000
-0.190330 -0.215578 -0.099030 0.800000 0.200000 0.500000
-0.003206 -0.059641 -0.369513 0.500000 0.500000 0.000000
0.156380 -0.323776 -0.331204 0.500000 0.500000 0.000000
-0.018939 -0.199041 0.314099 0.300000 0.600000 0.000000
-0.267422 -0.296861 -0.323287 0.500000 0.500000 0.000000
0.383535 -0.349741 -0.036464 0.600000 0.300000 0.000000
-0.007611 0.665960 -0.536314 0.500000 0.500000 0.000000
-0.314467 -0.174804 0.257590 0.800000 0.200000 0.500000
-0.489006 0.233338 0.104457 0.000000 0.000000 1.000000
0.188269 -0.038292 -0.017686 0.800000 0.200000 0.500000
-0.250866 -0.324162 -0.335617 0.500000 0.500000 0.000000
-0.278364 -0.243907 -0.180973 0.800000 0.200000 0.500000
-0.177792 -0.038909 -0.025710 0.800000 0.200000 0.500000
-0.246156 -0.256122 -0.229565 0.800000 0.200000 0.500000
0.097598 -0.138278 0.845970 0.600000 0.000000 0.300000
-0.262834 0.730864 -0.526733 0.500000 0.500000 0.000000
0.010846 -0.023559 0.013443 0.800000 0.200000 0.500000
-0.297458 -0.257280 0.199294 0.600000 0.300000 0.000000
-0.271882 -0.198016 0.621022 0.600000 0.000000 0.300000
0.378914 -0.103316 -0.172377 0.800000 0.200000 0.500000
0.481930 0.088053 0.312817 1.000000 0.000000 0.000000
-0.092105 -0.028072 0.337370 0.800000 0.200000 0.500000
0.018012 -0.027865 -0.009960 0.800000 0.200000 0.500000
0.133984 0.391287 -0.445288 0.500000 0.500000 0.000000
-0.063487 -0.200586 0.635636 0.600000 0.000000 0.300000
-0.120657 -0.091767 0.710629 0.600000 0.000000 0.300000
0.472367 0.287749 -0.446003 1.000000 0.000000 0.000000
0.166510 -0.170851 0.168881 0.800000 0.200000 0.500000
0.022030 -0.009259 0.112386 0.800000 0.200000 0.500000
0.249381 0.519069 -0.382704 0.500000 0.500000 0.000000
-0.375914 -0.144975 0.338896 0.800000 0.200000 0.500000
0.381419 0.362090 -0.399043 0.500000 0.500000 0.000000
-0.080461 0.498229 -0.487707 0.500000 0.500000 0.000000
-0.189854 -0.274502 -0.297739 0.800000 0.200000 0.500000
0.255622 -0.229750 0.802270 0.600000 0.000000 0.300000
0.007268 -0.277174 -0.336640 0.800000 0.200000 0.500000
0.387134 0.138931 0.302874 1.000000 0.000000 0.000000
-0.165633 -0.262225 0.173743 0.600000 0.300000 0.000000
-0.008685 -0.195142 -0.211935 0.000000 0.500000 0.500000
0.137996 0.573129 -0.507680 0.500000 0.500000 0.000000
0.240176 -0.221343 0.754246 0.600000 0.000000 0.300000
0.446079 0.730707 -0.411090 0.500000 0.500000 0.000000
0.338487 -0.312012 -0.334304 0.500000 0.500000 0.000000
-0.198268 -0.279141 0.026355 0.500000 0.500000 0.000000
-0.276156 0.473308 -0.363672 0.500000 0.500000 0.000000
-0.449100 -0.322993 -0.052217 0.000000 0.000000 1.000000
0.341100 -0.324739 -0.413834 0.500000 0.500000 0.000000
-0.350748 -0.252780 -0.194843 0.800000 0.200000 0.500000
-0.328658 -0.067809 -0.342650 0.500000 0.500000 0.000000
0.290127 -0.058225 -0.072524 0.800000 0.200000 0.500000
0.077272 -0.232653 0.818873 0.600000 0.000000 0.300000
0.152264 -0.011998 0.176121 0.800000 0.200000 0.500000
0.138040 0.728949 -0.535518 0.500000 0.500000 0.000000
-0.211656 -0.268045 -0.274180 0.800000 0.200000 0.500000
0.159773 -0.217847 0.903042 0.600000 0.000000 0.300000
0.075607 -0.337694 -0.369441 0.500000 0.500000 0.000000
-0.334108 0.390957 -0.322137 0.500000 0.500000 0.000000
0.377407 0.288848 -0.271641 0.500000 0.500000 0.000000
0.359409 0.354736 -0.401037 0.500000 0.500000 0.000000
-0.337617 -0.496275 -0.471163 0.000000 0.000000 1.000000
0.501113 0.290264 -0.096862 1.000000 0.000000 0.000000
0.177235 -0.089895 0.702516 0.600000 0.000000 0.300000
-0.165799 -0.227541 0.198962 0.600000 0.300000 0.000000
-0.012039 -0.150433 -0.261503 0.000000 0.500000 0.500000
0.305650 0.577096 -0.392192 0.500000 0.500000 0.000000
0.290081 -0.025800 -0.245759 0.500000 0.500000 0.000000
-0.488824 0.300925 -0.316625 0.000000 0.000000 1.000000
0.445517 0.282398 0.175961 1.000000 0.000000 0.000000
0.307078 0.148399 -0.351558 0.500000 0.500000 0.000000
0.037773 0.672097 -0.537307 0.500000 0.500000 0.000000
-0.109584 0.738993 -0.518137 0.500000 0.500000 0.000000
-0.158091 0.007526 -0.261024 0.500000 0.500000 0.000000
-0.472035 0.324640 -0.041412 0.000000 0.000000 1.000000
0.211545 -0.268989 -0.278013 0.800000 0.200000 0.500000
0.270358 -0.279318 -0.296755 0.800000 0.200000 0.500000
-0.384487 -0.082699 0.300304 0.000000 0.000000 1.000000
0.501240 0.270700 -0.404014 1.000000 0.000000 0.000000
-0.379415 -0.058479 -0.234108 0.500000 0.500000 0.000000
-0.366559 -0.194209 0.672883 0.600000 0.000000 0.300000
0.098647 -0.072275 -0.211593 0.800000 0.200000 0.500000
0.477251 0.309294 -0.327618 1.000000 0.000000 0.000000
-0.255936 -0.176121 0.904491 0.600000 0.000000 0.300000
0.046285 0.349199 -0.431412 0.500000 0.500000 0.000000
0.036354 -0.080830 -0.250169 0.800000 0.200000 0.500000
-0.302798 0.004208 -0.341244 0.500000 0.500000 0.000000
0.087063 0.521066 -0.396255 0.500000 0.500000 0.000000
-0.467869 -0.072824 0.302150 0.000000 0.000000 1.000000
-0.373525 0.223098 -0.201881 0.000000 0.000000 1.000000
0.022654 -0.237960 0.290171 0.300000 0.600000 0.000000
-0.454196 0.312847 0.067151 0.000000 0.000000 1.000000
-0.124973 -0.218935 0.740495 0.600000 0.000000 0.300000
0.241067 0.623056 -0.413194 0.500000 0.500000 0.000000
-0.328361 -0.225885 -0.101968 0.800000 0.200000 0.500000
0.218054 -0.184227 -0.373422 0.500000 0.500000 0.000000
-0.086283 -0.066579 -0.188365 0.800000 0.200000 0.500000
0.057217 0.333505 -0.424934 0.500000 0.500000 0.000000
-0.230181 -0.052202 -0.074017 0.800000 0.200000 0.500000
0.324420 0.062866 -0.338936 0.500000 0.500000 0.000000
-0.372850 0.250279 -0.357409 0.500000 0.500000 0.000000
-0.387012 0.324623 -0.157014 0.000000 0.000000 1.000000
-0.303904 0.101640 -0.244471 0.500000 0.500000 0.000000
0.307003 0.010132 -0.239839 0.500000 0.500000 0.000000
-0.005222 -0.189398 -0.378781 0.500000 0.500000 0.000000
-0.110995 -0.173226 0.110279 0.800000 0.200000 0.500000
0.381123 -0.160133 0.200903 0.800000 0.200000 0.500000
-0.344439 -0.184326 0.544778 0.600000 0.000000 0.300000
0.475973 0.222068 -0.176308 1.000000 0.000000 0.000000
-0.488664 0.211943 -0.377600 0.000000 0.000000 1.000000
0.476511 0.235800 -0.471178 1.000000 0.000000 0.000000
-0.433121 -0.067225 0.304741 0.000000 0.000000 1.000000
0.138017 -0.119503 0.800470 0.600000 0.000000 0.300000
0.009570 -0.168053 0.299915 0.800000 0.200000 0.500000
0.437222 0.624899 -0.434842 0.500000 0.500000 0.000000
-0.200718 0.430839 -0.455507 0.500000 0.500000 0.000000
0.406903 -0.214016 0.181613 1.000000 0.000000 0.000000
-0.416526 -0.283772 -0.251436 0.000000 0.000000 1.000000
0.386136 -0.089992 0.214959 0.800000 0.200000 0.500000
0.382726 0.348241 -0.294076 0.500000 0.500000 0.000000
0.351554 -0.152170 0.833854 0.600000 0.000000 0.300000
-0.237681 0.282406 -0.392971 0.500000 0.500000 0.000000
-0.016595 0.737545 -0.519677 0.500000 0.500000 0.000000
0.371077 -0.341824 0.048619 0.300000 0.000000 0.600000
-0.008305 0.504926 -0.392381 0.500000 0.500000 0.000000
-0.176006 0.098449 -0.263549 0.500000 0.500000 0.000000
0.294433 -0.192663 0.908393 0.600000 0.000000 0.300000
-0.021432 0.475174 -0.382600 0.500000 0.500000 0.000000
0.097630 -0.167325 0.218295 0.800000 0.200000 0.500000
0.024591 -0.215596 -0.211556 0.000000 0.500000 0.500000
0.232469 0.401803 -0.440927 0.500000 0.500000 0.000000
-0.307531 0.300512 -0.388736 0.500000 0.500000 0.000000
0.423778 0.232456 -0.075918 1.000000 0.000000 0.000000
-0.283007 -0.135765 0.426186 0.600000 0.000000 0.300000
0.377454 -0.137673 0.058248 0.800000 0.200000 0.500000
0.284558 -0.056786 0.411901 0.800000 0.200000 0.500000
-0.063983 -0.196384 -0.347389 0.800000 0.200000 0.500000
0.461366 -0.054499 0.390932 1.000000 0.000000 0.000000
0.356765 -0.095409 0.706984 0.600000 0.000000 0.300000
0.486862 0.220847 0.302543 1.000000 0.000000 0.000000
0.382263 -0.211100 -0.288400 0.500000 0.500000 0.000000
0.382621 -0.326318 0.095006 0.300000 0.000000 0.600000
-0.477137 -0.057381 0.379427 0.000000 0.000000 1.000000
0.395395 -0.119993 -0.271206 0.500000 0.500000 0.000000
0.074637 -0.171615 0.117187 0.800000 0.200000 0.500000
-0.207425 -0.141306 -0.275985 0.500000 0.500000 0.000000
0.046170 -0.069794 -0.271880 0.500000 0.500000 0.000000
0.387449 0.223416 -0.318587 0.500000 0.500000 0.000000
0.202076 -0.027203 0.065342 0.800000 0.200000 0.500000
0.430046 -0.267589 0.204606 1.000000 0.000000 0.000000
-0.461437 0.000907 0.323838 0.000000 0.000000 1.000000
0.286242 -0.179232 0.134454 0.800000 0.200000 0.500000
0.104979 0.339978 -0.426238 0.500000 0.500000 0.000000
-0.299108 0.528848 -0.476784 0.500000 0.500000 0.000000
-0.402445 -0.489149 0.546687 1.000000 0.000000 0.000000
0.143371 -0.169782 0.412606 0.800000 0.200000 0.500000
-0.067853 -0.076197 0.630579 0.600000 0.000000 0.300000
0.375582 -0.173076 0.725106 0.600000 0.000000 0.300000
-0.004129 -0.124728 0.428672 0.600000 0.000000 0.300000
-0.435240 -0.330088 -0.008323 0.000000 0.000000 1.000000
0.387736 -0.033939 -0.298183 0.500000 0.500000 0.000000
-0.237153 -0.039105 0.336626 0.800000 0.200000 0.500000
-0.426732 0.613795 -0.466703 0.500000 0.500000 0.000000
-0.013822 -0.098973 0.738235 0.600000 0.000000 0.300000
0.413942 0.195834 0.210588 1.000000 0.000000 0.000000
-0.175115 -0.220755 0.750888 0.600000 0.000000 0.300000
-0.049940 -0.267392 -0.291641 0.800000 0.200000 0.500000
0.359433 -0.048944 0.106778 0.800000 0.200000 0.500000
0.033009 -0.166963 0.193957 0.800000 0.200000 0.500000
-0.300061 0.203608 -0.361506 0.500000 0.500000 0.000000
0.099632 -0.017219 0.072470 0.800000 0.200000 0.500000
-0.216615 0.399323 -0.441018 0.500000 0.500000 0.000000
0.265012 -0.319089 -0.333761 0.500000 0.500000 0.000000
-0.387474 -0.125837 0.315608 0.000000 0.000000 1.000000
-0.262983 0.743085 -0.464935 0.500000 0.500000 0.000000
0.291606 -0.223491 0.901843 0.600000 0.000000 0.300000
0.107120 -0.254742 0.165384 0.600000 0.300000 0.000000
-0.271310 0.487057 -0.467658 0.500000 0.500000 0.000000
-0.346917 -0.200450 0.643655 0.600000 0.000000 0.300000
0.308731 -0.041870 0.313173 0.800000 0.200000 0.500000
0.266714 -0.026717 0.172333 0.800000 0.200000 0.500000
-0.099560 0.074415 -0.266851 0.500000 0.500000 0.000000
-0.202687 -0.273291 -0.332313 0.800000 0.200000 0.500000
-0.002711 -0.058813 -0.161411 0.800000 0.200000 0.500000
-0.432767 -0.290850 -0.112457 0.000000 0.000000 1.000000
-0.373750 0.232440 -0.308556 0.000000 0.000000 1.000000
-0.380084 0.151994 -0.299382 0.500000 0.500000 0.000000
0.038920 0.224887 -0.389809 0.500000 0.500000 0.000000
-0.287707 -0.246495 0.162013 0.600000 0.300000 0.000000
-0.055216 0.468814 -0.478355 0.500000 0.500000 0.000000
0.444033 -0.333204 -0.097706 1.000000 0.000000 0.000000
0.401410 0.249378 0.254832 1.000000 0.000000 0.000000
-0.122648 -0.018581 0.074371 0.800000 0.200000 0.500000
0.248489 -0.207320 0.059757 0.500000 0.000000 0.500000
0.460719 0.228877 -0.119259 1.000000 0.000000 0.000000
0.017164 -0.309243 -0.093166 0.000000 0.500000 0.500000
-0.310445 0.014239 -0.238063 0.500000 0.500000 0.000000
-0.234563 0.735992 -0.456034 0.500000 0.500000 0.000000
0.282203 0.225310 -0.271547 0.500000 0.500000 0.000000
-0.461893 0.230336 -0.103422 0.000000 0.000000 1.000000
0.237211 0.594046 -0.405898 0.500000 0.500000 0.000000
0.253045 -0.065482 0.437861 0.800000 0.200000 0.500000
-0.386723 0.215238 -0.433105 0.000000 0.000000 1.000000
0.443774 -0.235269 0.186104 0.600000 0.300000 0.000000
-0.327183 0.083808 -0.338890 0.500000 0.500000 0.000000
0.205414 -0.054443 -0.101201 0.800000 0.200000 0.500000
-0.489107 0.253916 -0.486954 0.000000 0.000000 1.000000
0.431108 -0.191204 0.205167 1.000000 0.000000 0.000000
0.055889 0.161807 -0.278322 0.500000 0.500000 0.000000
0.019555 -0.226868 0.785790 0.600000 0.000000 0.300000
0.385811 0.231063 -0.444367 1.000000 0.000000 0.000000
-0.392163 -0.212517 -0.289047 0.500000 0.500000 0.000000
0.142597 -0.193744 -0.339858 0.800000 0.200000 0.500000
-0.201487 0.413065 -0.349642 0.500000 0.500000 0.000000
-0.361604 -0.378824 0.330999 0.300000 0.000000 0.600000
0.010253 0.306847 -0.316993 0.500000 0.500000 0.000000
0.369636 -0.366117 -0.198928 0.600000 0.300000 0.000000
-0.091534 -0.176099 0.499898 0.600000 0.000000 0.300000
-0.148095 -0.275124 -0.335564 0.800000 0.200000 0.500000
-0.144249 -0.193381 -0.015108 0.800000 0.200000 0.500000
-0.203503 0.593377 -0.408791 0.500000 0.500000 0.000000
-0.276239 -0.074479 -0.172351 0.800000 0.200000 0.500000
0.417153 -0.305995 0.119011 1.000000 0.000000 0.000000
-0.059471 -0.025854 -0.367699 0.500000 0.500000 0.000000
0.477279 0.253434 0.246686 1.000000 0.000000 0.000000
-0.389907 -0.158140 0.264791 0.000000 0.000000 1.000000
-0.349534 -0.489149 -0.434801 0.000000 0.000000 1.000000
0.038047 -0.364037 0.050875 0.500000 0.000000 0.500000
0.377119 -0.142290 0.381371 0.800000 0.200000 0.500000
0.129449 0.681673 -0.437557 0.500000 0.500000 0.000000
-0.332458 -0.354070 0.029635 0.000000 1.000000 0.000000
0.156890 -0.212454 -0.093882 0.800000 0.200000 0.500000
0.360056 -0.199110 0.806778 0.600000 0.000000 0.300000
0.436770 0.631924 -0.461944 0.500000 0.500000 0.000000
0.076287 0.403888 -0.354319 0.500000 0.500000 0.000000
0.175901 0.224660 -0.383888 0.500000 0.500000 0.000000
0.348016 -0.185500 0.117319 0.800000 0.200000 0.500000
-0.468685 0.300093 0.120492 0.000000 0.000000 1.000000
0.376777 -0.101926 0.395900 0.800000 0.200000 0.500000
0.153687 -0.186820 0.017979 0.800000 0.200000 0.500000
-0.445147 -0.172179 0.227029 0.000000 0.000000 1.000000
0.240003 -0.349568 0.027576 0.000000 1.000000 0.000000
-0.394625 0.075722 0.316350 0.000000 0.000000 1.000000
-0.360177 -0.335157 0.052482 0.300000 0.000000 0.600000
-0.115837 -0.239561 0.865283 0.600000 0.000000 0.300000
-0.130916 -0.174887 0.379955 0.800000 0.200000 0.500000
-0.169632 0.575400 -0.506177 0.500000 0.500000 0.000000
-0.021565 -0.238412 -0.303838 0.500000 0.500000 0.000000
-0.385571 0.299521 -0.281369 0.500000 0.500000 0.000000
-0.384205 -0.103081 -0.247523 0.500000 0.500000 0.000000
0.012676 -0.265895 -0.288387 0.800000 0.200000 0.500000
-0.373497 0.228465 0.181732 0.000000 0.000000 1.000000
-0.411764 0.525368 -0.439779 0.500000 0.500000 0.000000
-0.046692 -0.036904 -0.055782 0.800000 0.200000 0.500000
0.387503 0.123118 0.343198 1.000000 0.000000 0.000000
-0.291153 0.011227 -0.241734 0.500000 0.500000 0.000000
0.032641 -0.190191 0.577129 0.600000 0.000000 0.300000
-0.406046 0.323030 -0.015791 0.000000 0.000000 1.000000
0.028284 -0.007018 0.231085 0.800000 0.200000 0.500000
0.311738 -0.345936 0.066808 0.000000 1.000000 0.000000
-0.397984 -0.251048 0.227241 0.000000 0.000000 1.000000
0.239812 -0.118791 0.798489 0.600000 0.000000 0.300000
-0.125768 0.385005 -0.442889 0.500000 0.500000 0.000000
0.042589 0.727619 -0.464719 0.500000 0.500000 0.000000
-0.019845 -0.260286 0.256534 0.300000 0.600000 0.000000
-0.378825 -0.021784 -0.316214 0.500000 0.500000 0.000000
-0.139412 -0.227905 -0.153675 0.800000 0.200000 0.500000
-0.206056 -0.028793 0.302151 0.800000 0.200000 0.500000
-0.083155 0.535422 -0.499301 0.500000 0.500000 0.000000
-0.197549 -0.227051 0.786836 0.600000 0.000000 0.300000
-0.188444 -0.182264 -0.375444 0.500000 0.500000 0.000000
0.387620 0.138357 0.380509 1.000000 0.000000 0.000000
-0.217643 -0.011898 -0.355833 0.500000 0.500000 0.000000
0.406489 0.221611 -0.179209 1.000000 0.000000 0.000000
-0.180973 -0.256717 -0.244338 0.800000 0.200000 0.500000
0.336393 -0.329881 -0.344870 0.500000 0.500000 0.000000
-0.162552 -0.180379 0.523189 0.600000 0.000000 0.300000
-0.381069 -0.140177 0.227971 0.800000 0.200000 0.500000
0.387193 -0.010909 -0.253023 0.500000 0.500000 0.000000
0.385364 0.150601 -0.284773 0.500000 0.500000 0.000000
0.385853 0.223140 -0.205882 1.000000 0.000000 0.000000
0.191295 0.242547 -0.386971 0.500000 0.500000 0.000000
0.470774 0.305526 0.100235 1.000000 0.000000 0.000000
0.271593 0.615858 -0.407921 0.500000 0.500000 0.000000
-0.073303 -0.223230 0.192837 0.600000 0.300000 0.000000
0.015665 -0.324014 0.133774 0.300000 0.600000 0.000000
0.191043 0.044465 -0.360094 0.500000 0.500000 0.000000
-0.208409 -0.319744 0.047688 0.000000 1.000000 0.000000
0.373166 -0.396328 -0.241997 0.600000 0.300000 0.000000
0.167164 0.346750 -0.326687 0.500000 0.500000 0.000000
0.020376 0.108143 -0.271790 0.500000 0.500000 0.000000
-0.270113 -0.270382 -0.268102 0.800000 0.200000 0.500000
0.489491 0.278879 -0.475400 1.000000 0.000000 0.000000
0.253181 0.463813 -0.364021 0.500000 0.500000 0.000000
-0.138695 0.041829 -0.262819 0.500000 0.500000 0.000000
-0.465875 -0.183071 0.239876 0.000000 0.000000 1.000000
0.377279 -0.077660 0.097763 0.800000 0.200000 0.500000
0.137406 0.201093 -0.282385 0.500000 0.500000 0.000000
0.298632 -0.312238 -0.405738 0.500000 0.500000 0.000000
0.318947 -0.035584 0.181943 0.800000 0.200000 0.500000
0.231880 -0.258419 -0.240977 0.800000 0.200000 0.500000
-0.065321 -0.008687 0.132027 0.800000 0.200000 0.500000
0.385959 0.312610 -0.208879 1.000000 0.000000 0.000000
-0.134752 -0.277318 -0.314406 0.500000 0.500000 0.000000
-0.182230 0.381946 -0.437734 0.500000 0.500000 0.000000
0.304036 0.076165 -0.242574 0.500000 0.500000 0.000000
0.424675 0.569301 -0.447689 0.500000 0.500000 0.000000
0.240179 -0.066296 0.524402 0.600000 0.000000 0.300000
-0.395554 0.516618 -0.356454 0.500000 0.500000 0.000000
-0.402426 -0.065938 0.386224 0.000000 0.000000 1.000000
-0.363774 0.130374 -0.233933 0.500000 0.500000 0.000000
-0.043675 0.498975 -0.389857 0.500000 0.500000 0.000000
-0.365267 -0.435527 -0.323760 0.600000 0.000000 0.300000
-0.013211 -0.358149 0.161401 0.300000 0.600000 0.000000
0.369772 0.676210 -0.408608 0.500000 0.500000 0.000000
0.335082 -0.222831 -0.089509 0.800000 0.200000 0.500000
-0.377862 -0.386957 0.311359 0.300000 0.000000 0.600000
-0.385108 -0.058695 -0.267515 0.500000 0.500000 0.000000
0.000119 -0.200914 -0.062007 0.800000 0.200000 0.500000
-0.138615 -0.119096 0.435835 0.800000 0.200000 0.500000
0.012856 -0.171960 -0.235483 0.000000 0.500000 0.500000
-0.334908 -0.514888 -0.390997 0.000000 0.000000 1.000000
0.371042 -0.407511 0.368590 0.300000 0.000000 0.600000
0.322793 -0.060769 -0.343312 0.500000 0.500000 0.000000
-0.173866 0.694070 -0.536079 0.500000 0.500000 0.000000
-0.059844 0.305833 -0.315704 0.500000 0.500000 0.000000
0.125365 0.584075 -0.412764 0.500000 0.500000 0.000000
0.400462 -0.134973 0.328078 1.000000 0.000000 0.000000
0.268901 0.544662 -0.388133 0.500000 0.500000 0.000000
0.027343 -0.189940 -0.011591 0.800000 0.200000 0.500000
-0.448086 -0.167628 0.316013 0.000000 0.000000 1.000000
-0.104796 -0.010067 0.225702 0.800000 0.200000 0.500000
0.207067 -0.228553 0.795428 0.600000 0.000000 0.300000
0.158878 0.313581 -0.314199 0.500000 0.500000 0.000000
-0.054661 -0.234603 0.830038 0.600000 0.000000 0.300000
-0.063202 -0.017357 0.058918 0.800000 0.200000 0.500000
-0.309400 -0.180355 -0.368335 0.500000 0.500000 0.000000
-0.039045 -0.212291 -0.350325 0.800000 0.200000 0.500000
0.413691 -0.489149 0.559980 0.600000 0.000000 0.300000
-0.460190 0.197412 -0.378006 0.000000 0.000000 1.000000
0.318885 -0.064934 -0.091527 0.800000 0.200000 0.500000
0.397041 0.188774 -0.324237 1.000000 0.000000 0.000000
-0.488810 0.311163 0.049341 0.000000 0.000000 1.000000
0.331712 -0.505212 -0.405648 0.800000 0.200000 0.500000
0.336582 -0.086951 -0.210834 0.800000 0.200000 0.500000
-0.262177 -0.251236 -0.306349 0.500000 0.500000 0.000000
0.114528 -0.101620 -0.274100 0.500000 0.500000 0.000000
0.056905 -0.210165 -0.349594 0.800000 0.200000 0.500000
0.398307 -0.140320 -0.321444 0.500000 0.500000 0.000000
-0.328781 0.173434 -0.350302 0.500000 0.500000 0.000000
0.091901 0.127600 -0.272848 0.500000 0.500000 0.000000
0.294700 -0.034425 0.259977 0.800000 0.200000 0.500000
0.429381 0.158958 0.265358 1.000000 0.000000 0.000000
0.165511 -0.327923 0.028786 0.000000 1.000000 0.000000
0.149918 -0.168462 0.275374 0.800000 0.200000 0.500000
0.501185 0.260050 -0.156747 1.000000 0.000000 0.000000
0.335229 -0.090202 0.703846 0.600000 0.000000 0.300000
0.207816 -0.147570 -0.368570 0.500000 0.500000 0.000000
-0.373646 0.308949 -0.094319 0.000000 0.000000 1.000000
0.119559 -0.170966 0.338555 0.800000 0.200000 0.500000
0.401280 0.451192 -0.336545 0.500000 0.500000 0.000000
0.351122 -0.180204 0.185731 0.800000 0.200000 0.500000
-0.401614 -0.341245 -0.361288 0.500000 0.500000 0.000000
-0.037106 -0.139670 0.427083 0.600000 0.000000 0.300000
0.095296 -0.015885 0.274918 0.800000 0.200000 0.500000
0.286801 -0.175736 0.363011 0.800000 0.200000 0.500000
0.152384 -0.092132 0.443578 0.800000 0.200000 0.500000
0.021887 -0.045089 0.407553 0.800000 0.200000 0.500000
0.055167 -0.215487 -0.116620 0.800000 0.200000 0.500000
0.307658 0.734139 -0.440221 0.500000 0.500000 0.000000
-0.258948 0.246799 -0.379198 0.500000 0.500000 0.000000
0.294381 -0.102026 0.748775 0.600000 0.000000 0.300000
0.319057 0.667938 -0.512931 0.500000 0.500000 0.000000
-0.198270 -0.036246 -0.258789 0.500000 0.500000 0.000000
0.385906 0.286604 -0.084007 1.000000 0.000000 0.000000
0.438346 0.223154 0.299360 1.000000 0.000000 0.000000
0.285061 -0.222197 0.190605 0.600000 0.300000 0.000000
0.461778 0.104103 0.396779 1.000000 0.000000 0.000000
-0.364313 -0.180572 0.035867 0.800000 0.200000 0.500000
0.247384 -0.201218 -0.321139 0.800000 0.200000 0.500000
0.129477 -0.179947 0.520834 0.600000 0.000000 0.300000
0.106789 -0.084532 -0.368293 0.500000 0.500000 0.000000
0.439805 0.027813 0.324438 1.000000 0.000000 0.000000
-0.231857 -0.176404 0.132992 0.800000 0.200000 0.500000
-0.307277 -0.079494 -0.184605 0.800000 0.200000 0.500000
0.052835 -0.323734 0.034330 0.000000 1.000000 0.000000
-0.188563 -0.082781 0.442970 0.600000 0.000000 0.300000
0.319399 -0.260091 -0.224222 0.800000 0.200000 0.500000
-0.108073 -0.095897 0.727617 0.600000 0.000000 0.300000
0.300609 -0.158829 0.887170 0.600000 0.000000 0.300000
0.050919 -0.061566 -0.368805 0.500000 0.500000 0.000000
0.369198 -0.461965 -0.393769 0.600000 0.300000 0.000000
0.191311 0.711587 -0.443229 0.500000 0.500000 0.000000
-0.298716 -0.197512 0.009878 0.800000 0.200000 0.500000
0.213702 0.246162 -0.286597 0.500000 0.500000 0.000000
-0.437089 0.239137 0.273872 0.000000 0.000000 1.000000
0.490024 0.312596 0.068581 1.000000 0.000000 0.000000
-0.275634 -0.101514 -0.276321 0.800000 0.200000 0.500000
-0.417985 -0.102327 0.366223 0.000000 0.000000 1.000000
-0.362246 0.326672 -0.288548 0.500000 0.500000 0.000000
0.316113 -0.112744 0.437774 0.800000 0.200000 0.500000
0.236974 0.110888 -0.257564 0.500000 0.500000 0.000000
0.198564 -0.280176 -0.391586 0.500000 0.500000 0.000000
-0.263428 0.668478 -0.421564 0.500000 0.500000 0.000000
-0.320565 -0.055097 -0.016905 0.800000 0.200000 0.500000
0.090703 -0.082418 -0.252469 0.800000 0.200000 0.500000
0.289237 0.017245 -0.243130 0.500000 0.500000 0.000000
0.378832 0.507507 -0.358032 0.500000 0.500000 0.000000
0.381174 -0.149721 0.677483 0.600000 0.000000 0.300000
0.120387 -0.013698 0.109308 0.800000 0.200000 0.500000
-0.235242 -0.234820 0.068016 0.500000 0.500000 0.000000
-0.146766 -0.092179 0.712413 0.600000 0.000000 0.300000
-0.280178 0.569656 -0.491847 0.500000 0.500000 0.000000
0.390702 -0.218433 -0.227345 0.800000 0.200000 0.500000
0.261325 0.589671 -0.402074 0.500000 0.500000 0.000000
0.324212 -0.151237 0.867072 0.600000 0.000000 0.300000
-0.373589 0.224215 -0.236821 0.000000 0.000000 1.000000
-0.252777 -0.025688 0.187186 0.800000 0.200000 0.500000
-0.437630 0.020977 0.324785 0.000000 0.000000 1.000000
-0.353857 -0.174711 0.251104 0.800000 0.200000 0.500000
0.106738 -0.172989 0.360500 0.800000 0.200000 0.500000
0.085472 -0.334670 0.066791 0.500000 0.000000 0.500000
0.041411 -0.027981 0.344789 0.800000 0.200000 0.500000
-0.114294 0.666530 -0.434450 0.500000 0.500000 0.000000
-0.107009 0.706432 -0.446624 0.500000 0.500000 0.000000
0.458169 -0.072206 0.383164 1.000000 0.000000 0.000000
0.128243 -0.320015 0.034462 0.500000 0.000000 0.500000
0.031456 -0.049094 -0.116778 0.800000 0.200000 0.500000
0.204879 -0.046789 -0.358968 0.500000 0.500000 0.000000
0.245271 -0.051963 -0.354516 0.500000 0.500000 0.000000
-0.150987 -0.012822 0.190070 0.800000 0.200000 0.500000
-0.085220 0.061364 -0.266667 0.500000 0.500000 0.000000
-0.158966 -0.231714 0.813500 0.600000 0.000000 0.300000
0.278780 -0.181711 0.100722 0.800000 0.200000 0.500000
-0.033387 -0.239605 0.858694 0.600000 0.000000 0.300000
0.365052 -0.350122 0.065447 0.000000 1.000000 0.000000
-0.260138 -0.165952 0.414817 0.800000 0.200000 0.500000
0.288387 -0.325195 0.060884 0.000000 1.000000 0.000000
-0.030517 -0.257447 -0.386829 0.500000 0.500000 0.000000
-0.328816 -0.175481 0.334406 0.800000 0.200000 0.500000
-0.454725 -0.279622 0.090407 0.000000 0.000000 1.000000
0.046910 -0.071937 0.600005 0.600000 0.000000 0.300000
-0.234383 -0.084581 0.678796 0.600000 0.000000 0.300000
-0.384216 0.587458 -0.479335 0.500000 0.500000 0.000000
0.388886 -0.243478 -0.265282 0.800000 0.200000 0.500000
0.152629 -0.316400 -0.399160 0.500000 0.500000 0.000000
0.122201 -0.174294 0.490165 0.600000 0.000000 0.300000
0.154098 -0.036323 -0.023953 0.800000 0.200000 0.500000
0.223266 -0.187878 0.029937 0.800000 0.200000 0.500000
0.319541 -0.173836 0.061956 0.500000 0.000000 0.500000
0.385948 0.296192 -0.193607 1.000000 0.000000 0.000000
-0.408801 -0.323795 0.040971 0.000000 0.000000 1.000000
0.501218 0.265674 -0.066631 1.000000 0.000000 0.000000
0.263438 -0.026681 0.216235 0.800000 0.200000 0.500000
-0.020170 -0.010839 0.096465 0.800000 0.200000 0.500000
-0.377963 0.145310 0.376384 0.000000 0.000000 1.000000
0.384695 -0.092400 0.286063 0.800000 0.200000 0.500000
-0.004297 -0.009522 0.249330 0.800000 0.200000 0.500000
0.404031 0.196448 -0.374479 1.000000 0.000000 0.000000
-0.234671 0.163465 -0.265108 0.500000 0.500000 0.000000
-0.145185 0.292500 -0.405880 0.500000 0.500000 0.000000
-0.379205 0.101534 -0.294224 0.500000 0.500000 0.000000
0.389108 -0.343874 -0.005887 0.300000 0.000000 0.600000
-0.145038 -0.182029 0.046818 0.800000 0.200000 0.500000
-0.288799 -0.339280 0.025095 0.000000 1.000000 0.000000
0.284099 0.668738 -0.518210 0.500000 0.500000 0.000000
0.323947 -0.045054 0.069960 0.800000 0.200000 0.500000
-0.003144 -0.363913 0.040845 0.500000 0.000000 0.500000
-0.278740 0.068098 -0.245646 0.500000 0.500000 0.000000
-0.200890 -0.070809 0.459620 0.600000 0.000000 0.300000
-0.348741 -0.066180 0.481081 0.600000 0.000000 0.300000
0.181537 -0.212988 -0.091549 0.800000 0.200000 0.500000
0.451517 0.199638 -0.386146 1.000000 0.000000 0.000000
-0.212238 -0.185262 0.046061 0.800000 0.200000 0.500000
-0.274939 -0.004026 -0.346941 0.500000 0.500000 0.000000
0.145228 -0.014615 0.120454 0.800000 0.200000 0.500000
0.134377 -0.223147 0.173661 0.600000 0.300000 0.000000
-0.273176 0.268373 -0.382784 0.500000 0.500000 0.000000
-0.084594 0.516220 -0.493377 0.500000 0.500000 0.000000
0.366154 -0.108386 -0.249107 0.500000 0.500000 0.000000
-0.373830 0.198356 -0.312312 0.000000 0.000000 1.000000
-0.012504 -0.259363 0.274474 0.300000 0.600000 0.000000
0.400059 0.312049 0.071697 1.000000 0.000000 0.000000
0.154805 0.124163 -0.268464 0.500000 0.500000 0.000000
0.434134 0.287295 0.161156 1.000000 0.000000 0.000000
0.117374 -0.232051 0.815426 0.600000 0.000000 0.300000
0.244249 -0.244821 -0.193283 0.800000 0.200000 0.500000
-0.232383 -0.175976 0.381563 0.800000 0.200000 0.500000
0.324096 -0.172960 0.402135 0.800000 0.200000 0.500000
-0.041569 0.075434 -0.369786 0.500000 0.500000 0.000000
0.399056 -0.159296 -0.278743 0.500000 0.500000 0.000000
0.232102 0.548334 -0.492117 0.500000 0.500000 0.000000
0.330751 -0.073540 -0.246789 0.500000 0.500000 0.000000
0.105986 -0.093211 0.716886 0.600000 0.000000 0.300000
-0.309701 0.162531 -0.352057 0.500000 0.500000 0.000000
0.167378 -0.227272 0.788101 0.600000 0.000000 0.300000
0.136764 -0.177427 0.075396 0.800000 0.200000 0.500000
-0.372271 -0.169571 0.173977 0.800000 0.200000 0.500000
0.175299 -0.027819 0.040638 0.800000 0.200000 0.500000
-0.373470 0.255923 -0.038407 0.000000 0.000000 1.000000
0.099872 -0.180269 0.048327 0.800000 0.200000 0.500000
0.374283 0.601996 -0.486705 0.500000 0.500000 0.000000
-0.095016 -0.279306 -0.390112 0.500000 0.500000 0.000000
0.358481 0.347496 -0.299318 0.500000 0.500000 0.000000
0.383996 -0.089087 0.552382 0.600000 0.000000 0.300000
0.469963 -0.219992 0.166309 1.000000 0.000000 0.000000
0.266756 -0.190855 0.580849 0.600000 0.000000 0.300000
-0.487554 0.150293 0.314271 0.000000 0.000000 1.000000
-0.013545 -0.090498 -0.287458 0.800000 0.200000 0.500000
-0.167107 0.405477 -0.448908 0.500000 0.500000 0.000000
0.501268 0.260549 0.009911 1.000000 0.000000 0.000000
0.351206 -0.182005 -0.365395 0.500000 0.500000 0.000000
0.024894 -0.340560 0.086222 0.300000 0.600000 0.000000
-0.113035 0.002879 -0.264164 0.500000 0.500000 0.000000
-0.228942 0.713246 -0.531791 0.500000 0.500000 0.000000
-0.329395 -0.489149 0.489733 1.000000 0.000000 0.000000
0.374072 -0.180826 -0.036918 0.800000 0.200000 0.500000
0.085427 -0.176427 0.904553 0.600000 0.000000 0.300000
-0.231996 -0.074637 -0.189961 0.800000 0.200000 0.500000
0.129794 -0.106258 0.432833 0.600000 0.000000 0.300000
0.002504 -0.231441 0.262280 0.300000 0.600000 0.000000
0.016543 0.121743 -0.373761 0.500000 0.500000 0.000000
0.268047 -0.174582 -0.312413 0.800000 0.200000 0.500000
0.079692 0.184878 -0.381224 0.500000 0.500000 0.000000
0.023933 -0.317516 0.200657 0.300000 0.600000 0.000000
-0.400624 -0.516570 -0.429886 0.000000 0.000000 1.000000
0.378732 -0.084206 0.460643 0.600000 0.000000 0.300000
0.179400 -0.069864 0.578589 0.600000 0.000000 0.300000
0.170881 -0.188435 0.567426 0.600000 0.000000 0.300000
-0.045055 -0.234181 -0.183486 0.800000 0.200000 0.500000
-0.083801 -0.235489 -0.383652 0.500000 0.500000 0.000000
0.489134 -0.061855 0.367531 1.000000 0.000000 0.000000
-0.216765 -0.136593 -0.314895 0.800000 0.200000 0.500000
0.221724 0.038876 -0.254496 0.500000 0.500000 0.000000
-0.031244 -0.087006 0.689996 0.600000 0.000000 0.300000
-0.423504 0.321368 -0.211354 0.000000 0.000000 1.000000
-0.393303 0.216227 0.308919 0.000000 0.000000 1.000000
-0.360383 -0.453971 -0.375625 0.600000 0.000000 0.300000
-0.349292 -0.214980 0.758775 0.600000 0.000000 0.300000
-0.371591 0.656532 -0.500953 0.500000 0.500000 0.000000
0.210870 -0.178430 0.512583 0.600000 0.000000 0.300000
-0.488735 0.305896 -0.085675 0.000000 0.000000 1.000000
-0.487973 0.167381 0.285070 0.000000 0.000000 1.000000
0.138076 -0.315843 0.063513 0.500000 0.000000 0.500000
0.068509 0.349747 -0.332537 0.500000 0.500000 0.000000
-0.314594 -0.185657 0.093631 0.800000 0.200000 0.500000
-0.347021 -0.266492 -0.234444 0.800000 0.200000 0.500000
-0.446328 -0.268242 0.071891 0.000000 0.000000 1.000000
0.429276 -0.137757 0.259754 1.000000 0.000000 0.000000
-0.124595 0.549956 -0.501408 0.500000 0.500000 0.000000
-0.416924 -0.123485 0.271033 0.000000 0.000000 1.000000
0.426580 0.320446 0.014252 1.000000 0.000000 0.000000
-0.203469 0.253482 -0.289214 0.500000 0.500000 0.000000
0.433302 -0.226457 0.156230 1.000000 0.000000 0.000000
0.375203 -0.321762 0.056092 0.000000 1.000000 0.000000
-0.111157 -0.128887 0.823618 0.600000 0.000000 0.300000
-0.365436 -0.418598 -0.333422 0.600000 0.000000 0.300000
-0.373569 0.294744 0.008617 0.000000 0.000000 1.000000
-0.266025 -0.068518 0.564149 0.600000 0.000000 0.300000
0.060216 -0.183093 -0.345949 0.800000 0.200000 0.500000
0.025473 -0.126952 0.819011 0.600000 0.000000 0.300000
0.174806 -0.204084 -0.058095 0.800000 0.200000 0.500000
0.282395 0.339283 -0.309871 0.500000 0.500000 0.000000
-0.351828 -0.331111 -0.410728 0.500000 0.500000 0.000000
-0.438295 0.660210 -0.413734 0.500000 0.500000 0.000000
0.435797 0.080707 0.403381 1.000000 0.000000 0.000000
0.228124 0.727400 -0.447822 0.500000 0.500000 0.000000
-0.147271 -0.185775 -0.337394 0.800000 0.200000 0.500000
-0.488811 0.294778 -0.013819 0.000000 0.000000 1.000000
0.003870 0.013038 -0.267150 0.500000 0.500000 0.000000
-0.092095 0.493481 -0.387055 0.500000 0.500000 0.000000
-0.223448 -0.024782 0.113641 0.800000 0.200000 0.500000
-0.177737 -0.235475 -0.301986 0.500000 0.500000 0.000000
0.085162 -0.201919 0.643219 0.600000 0.000000 0.300000
0.174216 0.675108 -0.433255 0.500000 0.500000 0.000000
0.120905 -0.020017 -0.365291 0.500000 0.500000 0.000000
0.314487 -0.179189 0.160147 0.800000 0.200000 0.500000
-0.055138 0.618197 -0.523316 0.500000 0.500000 0.000000
-0.378129 0.036411 0.355000 0.000000 0.000000 1.000000
0.104434 -0.300052 -0.394027 0.500000 0.500000 0.000000
-0.255368 -0.224102 0.769998 0.600000 0.000000 0.300000
-0.043749 0.672945 -0.537332 0.500000 0.500000 0.000000
0.405140 -0.192501 -0.316377 0.500000 0.500000 0.000000
-0.165095 -0.339519 -0.367278 0.500000 0.500000 0.000000
-0.264982 0.221757 -0.272603 0.500000 0.500000 0.000000
0.366301 -0.203790 0.703705 0.600000 0.000000 0.300000
0.013242 0.165526 -0.279593 0.500000 0.500000 0.000000
0.166912 -0.190136 0.004583 0.800000 0.200000 0.500000
-0.174814 0.290239 -0.304319 0.500000 0.500000 0.000000
-0.075140 -0.168267 0.296624 0.800000 0.200000 0.500000
0.314588 0.174373 -0.354276 0.500000 0.500000 0.000000
-0.286883 -0.342236 -0.350699 0.500000 0.500000 0.000000
-0.127952 -0.019976 0.287550 0.800000 0.200000 0.500000
-0.297886 -0.042783 0.053044 0.800000 0.200000 0.500000
0.040472 -0.221964 0.757791 0.600000 0.000000 0.300000
0.002986 -0.319744 0.047154 0.000000 1.000000 0.000000
-0.368756 -0.174159 0.531656 0.600000 0.000000 0.300000
-0.126138 -0.250761 0.162862 0.600000 0.300000 0.000000
0.391017 -0.495713 -0.438658 0.600000 0.300000 0.000000
-0.121630 0.108048 -0.368921 0.500000 0.500000 0.000000
0.313030 -0.290669 -0.398583 0.500000 0.500000 0.000000
0.085851 -0.152020 0.874638 0.600000 0.000000 0.300000
-0.133723 -0.094445 -0.367299 0.500000 0.500000 0.000000
-0.042445 -0.119187 -0.278854 0.500000 0.500000 0.000000
0.273367 -0.199552 0.629758 0.600000 0.000000 0.300000
-0.284798 -0.263273 -0.242651 0.800000 0.200000 0.500000
0.187604 -0.169868 0.206435 0.800000 0.200000 0.500000
0.472654 -0.233168 0.198664 1.000000 0.000000 0.000000
0.346716 -0.193143 -0.292544 0.800000 0.200000 0.500000
-0.382447 0.325794 -0.083796 0.000000 0.000000 1.000000
0.066382 -0.344230 -0.343863 0.500000 0.500000 0.000000
-0.117691 0.460167 -0.472836 0.500000 0.500000 0.000000
0.115445 0.211004 -0.285593 0.500000 0.500000 0.000000
-0.379729 0.380814 -0.406145 0.500000 0.500000 0.000000
0.272425 -0.184613 0.074795 0.800000 0.200000 0.500000
-0.271470 0.747349 -0.497172 0.500000 0.500000 0.000000
-0.131556 -0.135076 0.426341 0.600000 0.000000 0.300000
0.150104 0.557106 -0.502350 0.500000 0.500000 0.000000
0.494342 0.016104 0.369200 1.000000 0.000000 0.000000
-0.332945 0.584743 -0.389516 0.500000 0.500000 0.000000
-0.065996 -0.089210 0.444288 0.800000 0.200000 0.500000
0.375749 0.576482 -0.380297 0.500000 0.500000 0.000000
-0.014891 -0.027834 -0.009811 0.800000 0.200000 0.500000
-0.320087 -0.098392 0.736230 0.600000 0.000000 0.300000
-0.069861 -0.076719 -0.232993 0.800000 0.200000 0.500000
-0.389311 0.196754 -0.375597 0.000000 0.000000 1.000000
-0.076792 -0.228749 0.796548 0.600000 0.000000 0.300000
-0.055392 -0.168779 0.413862 0.800000 0.200000 0.500000
-0.373444 0.238814 0.154270 0.000000 0.000000 1.000000
-0.421436 0.257825 0.237868 0.000000 0.000000 1.000000
-0.442880 -0.325935 0.026950 0.000000 0.000000 1.000000
0.073869 -0.224391 0.171799 0.600000 0.300000 0.000000
0.384703 -0.453448 0.447433 0.300000 0.000000 0.600000
0.224620 -0.067071 0.540944 0.600000 0.000000 0.300000
0.055808 0.546070 -0.404368 0.500000 0.500000 0.000000
-0.367511 -0.091799 -0.032799 0.800000 0.200000 0.500000
0.378313 -0.113606 0.688546 0.600000 0.000000 0.300000
-0.370925 -0.133062 0.038785 0.800000 0.200000 0.500000
-0.020628 -0.226085 0.781313 0.600000 0.000000 0.300000
0.367156 -0.199067 0.672695 0.600000 0.000000 0.300000
-0.378433 -0.122703 0.639199 0.600000 0.000000 0.300000
0.495371 0.034989 0.392712 1.000000 0.000000 0.000000
-0.079369 0.265695 -0.301393 0.500000 0.500000 0.000000
0.321343 -0.158891 0.047198 0.500000 0.000000 0.500000
-0.427263 -0.198654 0.195990 0.000000 0.000000 1.000000
0.199203 -0.021839 -0.258679 0.500000 0.500000 0.000000
0.480468 0.216263 -0.435760 1.000000 0.000000 0.000000
0.479161 0.324240 -0.166547 1.000000 0.000000 0.000000
0.046013 -0.168654 0.154717 0.800000 0.200000 0.500000
-0.144012 -0.301851 0.058205 0.500000 0.500000 0.000000
0.386337 0.182243 0.310206 1.000000 0.000000 0.000000
-0.443338 0.681566 -0.420772 0.500000 0.500000 0.000000
-0.141311 -0.044238 -0.071701 0.800000 0.200000 0.500000
-0.280820 -0.076336 0.631578 0.600000 0.000000 0.300000
0.233050 -0.184014 0.543059 0.600000 0.000000 0.300000
-0.307911 -0.239971 0.161785 0.600000 0.300000 0.000000
-0.201039 -0.171608 0.327794 0.800000 0.200000 0.500000
0.295393 0.254995 -0.277531 0.500000 0.500000 0.000000
-0.241951 0.319739 -0.405935 0.500000 0.500000 0.000000
0.401350 0.653102 -0.396412 0.500000 0.500000 0.000000
-0.390083 -0.160236 0.294770 0.000000 0.000000 1.000000
-0.453600 0.230201 0.116991 0.000000 0.000000 1.000000
0.199096 -0.020029 0.127974 0.800000 0.200000 0.500000
0.368988 -0.263878 0.179575 0.600000 0.300000 0.000000
-0.361159 0.684647 -0.510093 0.500000 0.500000 0.000000
-0.440439 0.234311 0.068366 0.000000 0.000000 1.000000
-0.424053 -0.497906 -0.422684 0.000000 0.000000 1.000000
-0.101823 0.051309 -0.366901 0.500000 0.500000 0.000000
-0.156398 0.300018 -0.309210 0.500000 0.500000 0.000000
0.380543 -0.133195 0.103429 0.800000 0.200000 0.500000
0.304790 -0.337396 -0.385380 0.500000 0.500000 0.000000
0.225633 0.482154 -0.472250 0.500000 0.500000 0.000000
0.192786 0.692769 -0.534283 0.500000 0.500000 0.000000
-0.204399 -0.197197 -0.377371 0.500000 0.500000 0.000000
-0.275169 0.703480 -0.527128 0.500000 0.500000 0.000000
0.100126 -0.243355 -0.384740 0.500000 0.500000 0.000000
0.051725 0.293102 -0.410117 0.500000 0.500000 0.000000
-0.489007 0.275442 0.135881 0.000000 0.000000 1.000000
0.070205 -0.065815 0.504906 0.600000 0.000000 0.300000
0.082646 0.645935 -0.530056 0.500000 0.500000 0.000000
0.028528 0.249184 -0.396582 0.500000 0.500000 0.000000
-0.099402 0.629335 -0.426062 0.500000 0.500000 0.000000
-0.239335 -0.030695 0.282169 0.800000 0.200000 0.500000
0.387413 -0.365272 0.239753 0.300000 0.000000 0.600000
0.160513 -0.017029 0.252667 0.800000 0.200000 0.500000
0.184533 -0.173435 0.355057 0.800000 0.200000 0.500000
0.501311 0.246263 -0.021252 1.000000 0.000000 0.000000
0.194737 -0.138453 -0.320428 0.800000 0.200000 0.500000
-0.193804 0.449708 -0.364632 0.500000 0.500000 0.000000
-0.131381 -0.148776 0.867930 0.600000 0.000000 0.300000
0.152994 0.715948 -0.449393 0.500000 0.500000 0.000000
-0.018915 -0.169956 0.899245 0.600000 0.000000 0.300000
-0.480641 -0.006601 0.370466 0.000000 0.000000 1.000000
0.373288 -0.186936 -0.279902 0.800000 0.200000 0.500000
0.501341 0.271915 -0.445199 1.000000 0.000000 0.000000
0.136067 0.332524 -0.421473 0.500000 0.500000 0.000000
0.331158 -0.186230 0.555274 0.600000 0.000000 0.300000
-0.060199 -0.220597 -0.136026 0.800000 0.200000 0.500000
-0.379712 -0.474742 0.488298 0.300000 0.000000 0.600000
-0.273704 -0.243429 0.204972 0.600000 0.300000 0.000000
0.379399 -0.077306 0.122922 0.800000 0.200000 0.500000
0.343423 0.535363 -0.374171 0.500000 0.500000 0.000000
0.234579 -0.033720 0.047530 0.800000 0.200000 0.500000
-0.338399 0.428642 -0.336975 0.500000 0.500000 0.000000
-0.185430 -0.286983 -0.317798 0.500000 0.500000 0.000000
-0.319732 -0.118338 0.430112 0.600000 0.000000 0.300000
-0.003646 -0.174784 -0.346655 0.800000 0.200000 0.500000
0.355628 -0.102940 0.733985 0.600000 0.000000 0.300000
-0.073409 -0.241734 -0.352712 0.800000 0.200000 0.500000
-0.488588 0.208647 -0.351637 0.000000 0.000000 1.000000
-0.331973 -0.178978 0.884247 0.600000 0.000000 0.300000
0.304694 0.687605 -0.421036 0.500000 0.500000 0.000000
0.390963 0.313283 -0.298506 1.000000 0.000000 0.000000
0.375369 -0.446329 0.475508 0.300000 0.000000 0.600000
0.305245 -0.238969 0.877762 0.600000 0.000000 0.300000
0.446082 0.272021 0.204079 1.000000 0.000000 0.000000
0.144106 -0.177214 0.505965 0.600000 0.000000 0.300000
0.390653 0.093918 0.310491 1.000000 0.000000 0.000000
-0.018657 -0.173835 -0.247828 0.000000 0.500000 0.500000
0.097647 -0.075136 0.622968 0.600000 0.000000 0.300000
0.401790 0.316209 0.048002 1.000000 0.000000 0.000000
-0.215691 -0.067554 0.551244 0.600000 0.000000 0.300000
-0.381077 -0.091232 0.511495 0.600000 0.000000 0.300000
0.237664 -0.057742 -0.101703 0.800000 0.200000 0.500000
0.427477 0.235370 0.014230 1.000000 0.000000 0.000000
0.104159 0.412858 -0.357039 0.500000 0.500000 0.000000
-0.401180 -0.282761 0.144358 0.000000 0.000000 1.000000
0.043188 0.445823 -0.371315 0.500000 0.500000 0.000000
-0.439146 -0.333115 -0.119040 0.000000 0.000000 1.000000
-0.384677 0.690161 -0.408200 0.500000 0.500000 0.000000
-0.375588 -0.122349 0.347229 0.800000 0.200000 0.500000
-0.450667 -0.311365 -0.151284 0.000000 0.000000 1.000000
0.346545 -0.500251 0.479477 0.600000 0.000000 0.300000
0.191469 -0.337333 0.025728 0.000000 1.000000 0.000000
0.369737 0.207321 -0.249193 0.500000 0.500000 0.000000
-0.158174 -0.057993 -0.364043 0.500000 0.500000 0.000000
0.439474 -0.326262 -0.237860 1.000000 0.000000 0.000000
0.043713 0.054913 -0.368834 0.500000 0.500000 0.000000
-0.032166 0.514702 -0.493813 0.500000 0.500000 0.000000
-0.361470 -0.355892 -0.118051 0.600000 0.000000 0.300000
-0.382651 -0.105193 0.493373 0.600000 0.000000 0.300000
0.271683 -0.213716 -0.317198 0.800000 0.200000 0.500000
-0.457925 -0.118421 0.274648 0.000000 0.000000 1.000000
-0.002923 -0.067526 0.550647 0.600000 0.000000 0.300000
0.118938 0.457640 -0.373397 0.500000 0.500000 0.000000
-0.062551 0.002112 -0.367409 0.500000 0.500000 0.000000
