ply
format ascii 1.0
element vertex 614
property float x
property float y
property float z
property float nx
property float ny
property float nz
property uchar red
property uchar green
property uchar blue
property float opacity
end_header
0.457649 0.197126 -0.376960 0.000000 0.973746 0.227637 255 255 255 1.000000
0.092130 -0.210352 -0.093932 0.023569 0.968965 -0.246074 255 255 255 1.000000
0.106848 0.071186 -0.266410 -0.051202 0.063080 0.996694 239 232 225 1.000000
-0.125269 -0.230741 0.201101 0.000000 0.537551 0.843231 0 0 0 1.000000
0.217798 -0.065005 -0.149741 0.076759 0.977430 -0.196822 239 232 225 1.000000
-0.136393 -0.250167 -0.230848 0.038124 -0.955626 0.292104 239 232 225 1.000000
-0.372862 -0.077685 0.106840 -0.952354 0.291813 -0.088701 239 232 225 1.000000
0.006743 -0.249314 -0.306683 -0.002733 0.248814 -0.968547 255 255 255 1.000000
-0.140719 -0.170563 0.156332 -0.032054 0.997777 -0.058428 255 255 255 1.000000
-0.239935 0.149657 -0.361990 0.140433 0.140122 0.980125 255 255 255 1.000000
0.176584 -0.093728 -0.285278 -0.071310 -0.899995 0.430027 255 255 255 1.000000
0.229341 -0.343799 -0.357574 -0.006926 -0.998231 -0.059056 239 232 225 1.000000
-0.457763 -0.255417 0.192593 -0.993139 -0.116938 -0.000292 77 77 77 1.000000
-0.489002 0.293068 0.136703 1.000000 0.000266 0.000955 255 255 255 1.000000
0.395167 0.319718 -0.235361 -0.000001 -0.996882 0.078907 255 255 255 1.000000
-0.058735 -0.176548 0.068802 0.015433 -0.991512 0.129097 239 232 225 1.000000
-0.056632 0.591340 -0.516037 0.024560 0.266148 0.963619 255 255 255 1.000000
0.058278 0.237273 -0.392842 0.022108 -0.250187 -0.967945 239 232 225 1.000000
-0.377597 0.411109 -0.419654 -0.475763 -0.361548 -0.801831 239 232 225 1.000000
-0.017009 -0.281030 -0.150978 0.864049 0.433684 0.255613 255 255 255 1.000000
-0.007208 -0.221819 0.188705 0.000000 -0.966354 -0.257217 255 255 255 1.000000
0.167505 -0.065818 0.495853 0.000000 -0.998031 0.062730 255 255 255 1.000000
-0.253426 -0.219017 0.902794 -0.046141 -0.407880 0.911869 239 232 225 1.000000
0.290251 -0.173788 0.240615 -0.032897 -0.999191 0.023113 239 232 225 1.000000
0.488121 0.226192 -0.455367 0.000000 -0.871196 -0.490935 77 77 77 1.000000
0.318435 -0.231437 0.811916 0.142505 -0.979755 -0.140614 239 232 225 1.000000
0.079686 -0.097862 0.734399 0.000000 0.963920 0.266194 239 232 225 1.000000
-0.206316 -0.276406 -0.300890 0.016193 -0.998115 0.059199 239 232 225 1.000000
0.388344 -0.331512 0.116336 0.774747 0.631271 0.035552 0 0 0 1.000000
-0.225415 0.283451 -0.296077 -0.115284 -0.314921 -0.942090 255 255 255 1.000000
-0.008694 -0.066888 0.537017 0.000000 0.998823 0.048506 239 232 225 1.000000
0.233780 -0.065601 -0.259647 -0.112831 -0.152848 0.981788 239 232 225 1.000000
-0.036890 0.507115 -0.392579 -0.015957 -0.306726 -0.951664 255 255 255 1.000000
-0.262088 -0.026919 0.175421 0.154790 -0.987855 0.013516 255 255 255 1.000000
-0.421386 -0.159725 0.239855 0.000000 -0.698666 0.715448 255 255 255 1.000000
-0.468910 0.299700 -0.388668 0.000000 0.982740 -0.184993 77 77 77 1.000000
0.107817 0.169339 -0.278029 -0.047629 0.169566 0.984367 239 232 225 1.000000
0.388138 -0.247499 -0.253473 -0.927430 0.367005 -0.071975 255 255 255 1.000000
0.397771 0.359009 -0.329022 -0.995870 0.082861 -0.037097 255 255 255 1.000000
0.246565 -0.161450 0.444156 0.000000 -0.820040 -0.572306 239 232 225 1.000000
-0.153413 -0.338120 -0.336941 0.026525 0.707039 -0.706676 255 255 255 1.000000
0.077886 -0.182747 0.026817 0.019422 0.985395 -0.169175 255 255 255 1.000000
0.284157 -0.087645 -0.235009 -0.097744 -0.941009 0.323956 255 255 255 1.000000
-0.488845 0.252195 -0.395846 -0.999992 -0.002976 0.002639 77 77 77 1.000000
0.501309 0.229402 -0.119120 -0.999994 -0.003283 0.000693 255 255 255 1.000000
0.124213 -0.082498 -0.248560 0.042698 0.947171 -0.317875 239 232 225 1.000000
-0.188843 -0.076840 0.635198 0.000000 0.988100 0.153815 239 232 225 1.000000
0.414416 0.314835 -0.283555 -0.000001 -0.994177 0.107760 255 255 255 1.000000
0.320527 -0.170458 0.039765 -0.938060 0.320975 0.130457 255 255 255 1.000000
-0.336955 -0.046829 0.081047 -0.381528 0.918964 -0.099710 239 232 225 1.000000
-0.486843 0.319198 0.024887 0.000000 -0.993677 -0.112274 255 255 255 1.000000
0.165560 0.678823 -0.434672 0.077741 -0.315246 -0.945821 255 255 255 1.000000
-0.378748 0.022284 0.390017 -0.999022 0.044220 -0.000042 255 255 255 1.000000
-0.193338 0.268597 -0.393214 -0.097898 -0.297998 -0.949533 239 232 225 1.000000
-0.241931 -0.204538 -0.291577 -0.043202 0.291266 -0.955666 255 255 255 1.000000
-0.362184 -0.190126 0.014604 -0.731241 -0.673693 0.106882 239 232 225 1.000000
-0.374121 0.174826 0.274288 0.999899 -0.014199 0.000740 77 77 77 1.000000
-0.448493 -0.327560 -0.077669 -0.991181 -0.132513 0.000057 77 77 77 1.000000
-0.262682 -0.190559 0.059249 0.516865 0.642673 0.565528 0 0 0 1.000000
-0.152878 -0.224778 0.773854 0.000000 -0.985026 -0.172403 239 232 225 1.000000
-0.101737 -0.089702 -0.279235 -0.044891 0.914964 -0.401031 239 232 225 1.000000
0.386758 -0.468295 0.475908 0.624341 -0.663602 -0.412105 0 0 0 1.000000
-0.373055 -0.365442 -0.217565 -0.184571 0.929813 -0.318405 0 0 0 1.000000
0.270270 -0.289142 -0.320866 -0.025454 0.388672 -0.921025 255 255 255 1.000000
-0.398280 -0.335187 -0.355184 -0.230970 -0.780149 0.581396 239 232 225 1.000000
-0.402982 -0.300401 0.011809 -0.994432 0.105380 -0.000324 255 255 255 1.000000
0.004376 -0.291178 0.245927 -0.023440 0.793949 -0.607533 255 255 255 1.000000
-0.461156 0.291348 0.148903 0.000000 -0.952766 -0.303705 255 255 255 1.000000
0.259178 -0.090501 -0.260691 0.115445 0.200659 -0.972835 255 255 255 1.000000
0.416077 -0.307741 -0.238035 -0.994452 -0.105186 0.000748 77 77 77 1.000000
-0.337119 -0.226838 0.198237 0.000000 0.688066 0.725648 0 0 0 1.000000
0.370303 -0.449469 0.452427 0.913726 0.353966 0.199531 255 255 255 1.000000
-0.038962 0.461446 -0.475873 0.015863 0.338299 0.940905 255 255 255 1.000000
-0.150159 -0.091252 0.708395 0.000000 -0.972428 -0.233203 255 255 255 1.000000
-0.309944 -0.113105 -0.353336 -0.127945 0.186729 -0.974044 239 232 225 1.000000
-0.480674 0.225245 -0.152266 0.000000 0.992849 -0.119376 255 255 255 1.000000
-0.409239 0.314219 -0.289630 0.000000 0.993730 -0.111804 77 77 77 1.000000
0.387292 0.239808 -0.337755 0.963540 -0.118398 -0.239944 239 232 225 1.000000
0.306758 -0.153233 0.877151 0.128337 0.843141 0.522153 239 232 225 1.000000
0.276774 0.476477 -0.464236 -0.130781 0.326217 0.936204 255 255 255 1.000000
-0.376226 0.087572 0.348951 -0.999471 0.032524 -0.000072 255 255 255 1.000000
-0.233061 -0.054300 0.407976 -0.070743 0.902628 0.424568 239 232 225 1.000000
-0.375533 -0.113245 0.106275 0.997532 -0.008085 0.069742 255 255 255 1.000000
0.420527 -0.174447 0.224558 0.000000 -0.732618 0.680640 255 255 255 1.000000
0.445450 0.303831 0.107017 0.000000 0.966744 0.255746 77 77 77 1.000000
0.298960 0.689259 -0.422271 -0.136865 0.324919 0.935786 239 232 225 1.000000
0.222705 -0.270470 -0.280333 0.021464 0.993570 -0.111170 255 255 255 1.000000
-0.303678 0.301558 -0.291115 0.166637 0.337166 0.926580 239 232 225 1.000000
0.282721 0.596396 -0.400986 0.131031 -0.262754 -0.955924 255 255 255 1.000000
-0.355292 -0.190996 0.803764 0.966946 0.173232 -0.187098 255 255 255 1.000000
0.059394 -0.130962 -0.281044 0.011393 0.176068 -0.984312 255 255 255 1.000000
-0.374035 -0.194736 -0.112875 0.970158 0.210924 -0.119604 255 255 255 1.000000
0.099411 -0.210192 -0.380416 0.012596 0.123903 -0.992214 239 232 225 1.000000
-0.339584 -0.130460 0.430228 -0.291696 -0.327116 0.898837 239 232 225 1.000000
-0.225917 -0.084124 0.676288 0.000000 -0.980582 -0.196111 255 255 255 1.000000
-0.279798 -0.058224 -0.250625 0.159939 -0.153370 0.975140 239 232 225 1.000000
0.428432 0.221618 -0.179167 0.000000 0.988860 -0.148850 255 255 255 1.000000
0.391340 0.016240 0.352359 -0.998928 -0.046300 0.000042 77 77 77 1.000000
0.437935 -0.100051 0.287148 0.000000 -0.527340 0.849654 255 255 255 1.000000
-0.001790 -0.084943 0.680787 0.000000 -0.979649 -0.200718 255 255 255 1.000000
-0.401571 -0.287261 0.169261 0.000000 -0.908839 0.417147 77 77 77 1.000000
-0.479804 0.190536 0.219469 0.000000 0.856202 0.516642 255 255 255 1.000000
0.187998 -0.170956 0.316385 -0.022234 -0.998660 -0.046732 239 232 225 1.000000
-0.235907 -0.175568 0.392278 -0.006565 0.984625 -0.174558 255 255 255 1.000000
-0.354540 -0.071447 -0.057673 -0.635201 0.766731 -0.092966 239 232 225 1.000000
0.096438 0.029974 -0.265643 0.043874 -0.012397 -0.998960 255 255 255 1.000000
-0.373616 0.297295 -0.150681 0.999998 0.002139 -0.000465 77 77 77 1.000000
-0.075293 -0.208064 -0.296732 0.012344 -0.228348 0.973501 239 232 225 1.000000
-0.077124 -0.166407 0.415429 -0.000452 -0.763229 0.646128 239 232 225 1.000000
0.375635 -0.074246 0.529376 0.619196 0.783970 0.044567 239 232 225 1.000000
0.357770 -0.516570 -0.474148 0.000000 1.000000 0.000000 255 255 255 1.000000
-0.329672 -0.180671 0.524775 -0.128239 -0.976022 -0.175888 239 232 225 1.000000
0.379040 -0.156929 0.086640 0.980567 -0.192331 -0.038694 239 232 225 1.000000
0.224370 -0.209018 -0.327828 -0.203130 -0.096999 0.974335 255 255 255 1.000000
0.349165 -0.187372 0.561563 0.170414 -0.970858 -0.168505 239 232 225 1.000000
0.120200 0.265952 -0.299743 -0.051794 0.294140 0.954358 239 232 225 1.000000
0.333625 -0.251112 -0.303054 0.363171 -0.000944 -0.931722 239 232 225 1.000000
0.182126 0.727541 -0.453784 -0.086572 0.716177 0.692528 239 232 225 1.000000
-0.371160 -0.161330 0.046004 0.982393 0.186112 0.016322 255 255 255 1.000000
0.096036 -0.162206 0.890819 -0.000024 0.749862 0.661594 239 232 225 1.000000
-0.481112 0.201481 -0.273260 0.000000 0.955464 -0.295107 255 255 255 1.000000
0.133055 0.021543 -0.263038 0.068695 0.000189 -0.997638 255 255 255 1.000000
-0.224339 -0.214646 0.715960 0.000000 0.985059 0.172219 255 255 255 1.000000
-0.297273 0.361955 -0.414686 0.155126 0.373874 0.914415 255 255 255 1.000000
-0.380039 0.145112 -0.295828 0.999255 0.024985 0.029422 255 255 255 1.000000
-0.107425 0.289139 -0.308158 -0.046018 -0.319797 -0.946368 255 255 255 1.000000
-0.307402 -0.030195 -0.342133 -0.192285 0.081691 -0.977933 239 232 225 1.000000
0.255238 0.292470 -0.296478 0.129995 -0.324529 -0.936900 255 255 255 1.000000
-0.011754 0.385201 -0.347698 -0.005459 -0.372556 -0.927994 255 255 255 1.000000
0.243234 -0.050227 -0.054936 -0.108736 -0.980862 0.161511 255 255 255 1.000000
0.023572 -0.250037 -0.238868 -0.005894 -0.956035 0.293194 239 232 225 1.000000
-0.390585 -0.115644 -0.286557 -0.994539 0.103498 0.013393 239 232 225 1.000000
-0.424656 0.286154 -0.452010 0.000000 0.962997 -0.269513 77 77 77 1.000000
-0.009876 -0.324974 -0.113314 -0.506640 -0.746035 -0.432143 0 0 0 1.000000
0.189095 -0.288877 0.066682 -0.200768 0.292585 -0.934926 255 255 255 1.000000
-0.003204 0.688136 -0.443087 -0.003039 -0.350762 -0.936460 255 255 255 1.000000
0.402411 0.407230 -0.339909 0.986058 -0.050116 0.158674 239 232 225 1.000000
-0.358434 -0.199899 0.670616 -0.564979 -0.819112 -0.099271 239 232 225 1.000000
-0.252297 -0.193467 0.013097 -0.065186 0.981178 -0.181770 255 255 255 1.000000
-0.370495 -0.108679 -0.013974 -0.995581 0.093807 -0.004249 239 232 225 1.000000
0.153004 0.515867 -0.489721 -0.067287 0.299232 0.951805 255 255 255 1.000000
0.433299 -0.326710 -0.230871 0.000000 0.996218 0.086884 255 255 255 1.000000
-0.294477 -0.217947 -0.378347 0.022577 -0.247363 0.968660 255 255 255 1.000000
0.385369 -0.201756 -0.177923 -0.982505 0.132087 -0.131292 255 255 255 1.000000
-0.088770 -0.221265 0.180452 0.000000 -0.993562 0.113290 255 255 255 1.000000
0.293315 -0.069808 0.577989 -0.026620 -0.995291 -0.093210 255 255 255 1.000000
-0.001393 -0.261760 -0.139161 -0.198288 0.853961 0.481074 0 0 0 1.000000
0.187272 -0.220526 0.749582 0.000000 0.985029 0.172389 255 255 255 1.000000
-0.242440 0.589556 -0.502241 0.114016 0.265038 0.957473 255 255 255 1.000000
0.054067 -0.123965 0.811901 0.000001 0.929121 0.369775 239 232 225 1.000000
-0.399042 0.177690 0.239870 0.000000 0.833339 0.552762 255 255 255 1.000000
-0.064487 -0.168975 0.151249 0.014947 -0.998222 0.057702 239 232 225 1.000000
0.388164 -0.125706 0.467674 0.976439 -0.052016 -0.209431 239 232 225 1.000000
0.375757 -0.153246 -0.009195 0.995356 -0.092494 0.026673 239 232 225 1.000000
-0.328668 -0.158195 0.420231 -0.141320 -0.615125 0.775661 239 232 225 1.000000
-0.378087 -0.340592 -0.107412 0.659374 -0.741666 0.123117 255 255 255 1.000000
0.219632 -0.194062 -0.001943 -0.055805 -0.979605 0.193030 239 232 225 1.000000
-0.364715 -0.169470 0.279420 0.584748 0.810078 -0.042945 255 255 255 1.000000
-0.403558 0.708883 -0.409205 0.000153 -0.300353 -0.953828 255 255 255 1.000000
-0.239183 -0.084289 0.441859 0.000000 0.609195 -0.793021 239 232 225 1.000000
-0.488870 0.297829 0.065180 -0.999997 0.002426 -0.000866 77 77 77 1.000000
0.049219 -0.162942 0.891618 0.000014 -0.737188 -0.675688 255 255 255 1.000000
-0.184616 -0.325955 -0.332905 -0.028261 -0.601078 0.798690 239 232 225 1.000000
-0.398162 -0.252158 0.182033 0.995517 -0.094578 0.000050 77 77 77 1.000000
0.338768 -0.210972 -0.041422 -0.127605 0.967672 -0.217549 255 255 255 1.000000
-0.107134 -0.093893 0.719843 0.000000 -0.969096 -0.246685 255 255 255 1.000000
0.102627 -0.042042 0.394308 -0.031616 -0.945014 -0.325497 255 255 255 1.000000
-0.279981 0.264478 -0.281873 -0.155488 -0.294571 -0.942895 255 255 255 1.000000
0.023101 -0.349454 -0.049424 0.930406 -0.322620 -0.173956 0 0 0 1.000000
-0.126311 -0.154708 0.880198 -0.000018 -0.840259 -0.542185 255 255 255 1.000000
-0.461681 0.028783 0.409032 0.000000 -0.001040 -0.999999 255 255 255 1.000000
0.387511 0.220246 -0.314418 0.996082 -0.062465 -0.062596 239 232 225 1.000000
-0.113374 -0.009906 0.196146 -0.071802 0.997027 0.027952 239 232 225 1.000000
0.134470 0.608367 -0.517634 -0.059494 0.257069 0.964560 255 255 255 1.000000
0.331290 -0.145203 -0.358140 -0.114036 -0.221808 0.968399 255 255 255 1.000000
0.478803 0.165690 0.256723 0.000000 0.781388 0.624046 255 255 255 1.000000
-0.221766 0.036697 -0.355193 0.136049 0.019491 0.990510 255 255 255 1.000000
0.385927 0.292570 -0.102249 -0.999996 0.002735 -0.000359 77 77 77 1.000000
0.250178 0.699168 -0.529611 0.105552 -0.085162 -0.990760 239 232 225 1.000000
0.217755 -0.171029 0.206654 -0.043336 -0.998551 0.031889 239 232 225 1.000000
0.320486 -0.125206 -0.284959 -0.282156 -0.456919 0.843572 255 255 255 1.000000
-0.195526 -0.062067 -0.142020 0.070990 -0.977714 0.197575 255 255 255 1.000000
0.083491 -0.244197 -0.216070 -0.022181 -0.957629 0.287149 239 232 225 1.000000
0.139163 -0.020303 0.287950 0.069346 0.985697 0.153597 239 232 225 1.000000
0.133498 0.203720 -0.382036 -0.061251 0.200999 0.977675 255 255 255 1.000000
0.380129 -0.126882 0.097508 -0.996977 0.048377 0.060799 255 255 255 1.000000
0.000644 0.660856 -0.535225 0.000768 0.198115 0.980178 255 255 255 1.000000
-0.047207 -0.363996 0.046784 -0.158179 -0.987095 0.024955 0 0 0 1.000000
-0.344447 -0.207288 0.845209 -0.932554 -0.249189 0.261242 239 232 225 1.000000
-0.353258 0.583157 -0.484505 -0.193526 -0.275129 -0.941728 239 232 225 1.000000
0.137059 -0.309551 0.047545 -0.391699 0.919019 0.044447 0 0 0 1.000000
0.154496 0.471079 -0.376414 0.067311 -0.330063 -0.941556 255 255 255 1.000000
-0.426793 0.218218 -0.200748 -0.000001 -0.985327 0.170676 77 77 77 1.000000
-0.447792 0.228864 -0.119380 0.000000 0.995430 -0.095492 255 255 255 1.000000
-0.373061 -0.106095 -0.134176 0.937696 -0.347276 -0.011192 255 255 255 1.000000
-0.189793 -0.195542 -0.290937 0.039144 -0.257506 0.965483 239 232 225 1.000000
0.475328 0.325737 -0.116666 -0.000001 -0.999875 0.015800 255 255 255 1.000000
0.272083 -0.233044 0.821105 0.031444 -0.985762 -0.165182 239 232 225 1.000000
-0.192193 -0.095907 -0.287694 0.089275 -0.880954 0.464705 255 255 255 1.000000
0.410813 0.634516 -0.389500 0.104252 0.204595 0.973279 239 232 225 1.000000
0.335671 0.537334 -0.474653 -0.161398 0.290916 0.943037 255 255 255 1.000000
-0.093450 -0.234560 -0.181415 -0.025636 0.960505 -0.277079 255 255 255 1.000000
0.375203 -0.319830 0.051046 -1.000000 0.000000 0.000000 255 255 255 1.000000
-0.042805 -0.186971 0.559355 0.000000 0.984004 0.178148 255 255 255 1.000000
0.448733 -0.166479 0.233239 0.000000 0.718746 -0.695272 77 77 77 1.000000
0.376254 -0.354615 0.270727 -0.362124 0.896498 0.255258 0 0 0 1.000000
0.456159 0.227763 -0.130183 0.000000 -0.994571 0.104060 77 77 77 1.000000
0.494366 0.054656 0.321141 0.000000 0.159621 0.987178 255 255 255 1.000000
-0.244456 -0.108945 0.771108 0.000001 -0.948425 -0.317000 255 255 255 1.000000
0.217797 -0.158838 0.887166 0.000046 -0.803844 -0.594840 255 255 255 1.000000
-0.451391 -0.305927 -0.138898 -0.991208 -0.132310 -0.000017 77 77 77 1.000000
-0.297902 -0.079429 -0.349517 0.148466 -0.144985 0.978232 255 255 255 1.000000
-0.057080 -0.072985 -0.219158 -0.017870 0.970879 -0.238901 239 232 225 1.000000
0.450350 0.265784 -0.489688 0.000000 -0.233972 -0.972243 77 77 77 1.000000
0.197636 0.742021 -0.513449 0.027883 -0.955878 0.292436 255 255 255 1.000000
-0.156433 -0.134021 0.431280 0.001697 0.362970 -0.931799 255 255 255 1.000000
-0.207583 -0.312162 -0.327863 -0.026793 -0.463798 0.885536 239 232 225 1.000000
-0.017661 -0.070903 0.589743 0.000000 0.994355 0.106101 239 232 225 1.000000
-0.280337 -0.228600 -0.316168 0.254098 -0.060649 0.965275 255 255 255 1.000000
-0.350852 0.225703 -0.355866 0.421707 0.239647 0.874490 255 255 255 1.000000
-0.059830 0.637920 -0.429592 0.027284 0.246973 0.968638 239 232 225 1.000000
-0.360042 0.687832 -0.412313 -0.164986 -0.309838 -0.936365 255 255 255 1.000000
-0.325089 0.751632 -0.496792 0.043719 0.966542 -0.252755 239 232 225 1.000000
0.105739 -0.130911 -0.330478 0.084904 0.444018 -0.891986 239 232 225 1.000000
0.262896 -0.067646 0.553207 0.000000 0.997799 0.066307 239 232 225 1.000000
0.388800 -0.226125 -0.223015 -0.977481 0.199536 -0.068674 255 255 255 1.000000
-0.325222 0.266370 -0.373606 0.191466 0.297933 0.935188 255 255 255 1.000000
0.364344 -0.101915 0.430465 0.670294 -0.095588 0.735913 239 232 225 1.000000
-0.004827 0.642032 -0.431711 -0.003461 -0.246141 -0.969228 255 255 255 1.000000
0.356019 -0.042869 0.211182 0.410772 0.911738 -0.000750 239 232 225 1.000000
-0.125382 -0.193497 0.595648 0.000000 0.984420 0.175835 255 255 255 1.000000
-0.409576 0.292216 0.146278 0.000000 -0.952389 -0.304884 255 255 255 1.000000
-0.260260 0.636398 -0.512673 0.120872 0.246024 0.961698 255 255 255 1.000000
-0.381895 0.071669 0.405451 0.000000 -0.164952 -0.986302 255 255 255 1.000000
-0.243975 -0.139890 -0.365295 -0.075942 0.158878 -0.984373 239 232 225 1.000000
0.111112 0.470630 -0.378700 0.044675 -0.331023 -0.942564 255 255 255 1.000000
-0.180808 -0.015908 0.177033 0.111366 -0.993753 0.007303 255 255 255 1.000000
0.313358 -0.067732 0.555022 0.073500 0.995064 0.066669 239 232 225 1.000000
0.501210 0.269749 -0.051229 0.999993 0.003738 -0.000507 77 77 77 1.000000
0.188409 -0.174259 0.365258 0.013026 0.999428 -0.031215 255 255 255 1.000000
0.497353 0.321107 0.008624 0.000000 0.995782 0.091755 77 77 77 1.000000
-0.305478 -0.225492 -0.107774 0.031298 0.964030 -0.263946 255 255 255 1.000000
-0.022134 -0.016851 0.056708 -0.013122 0.989522 -0.143782 239 232 225 1.000000
-0.068363 -0.245206 -0.220523 -0.019197 0.957392 -0.288152 255 255 255 1.000000
0.281038 -0.051015 -0.034576 -0.128584 -0.980915 0.145851 255 255 255 1.000000
0.323833 -0.089700 0.701672 0.124452 0.965542 0.228561 239 232 225 1.000000
-0.128213 -0.017760 0.082580 -0.078262 0.989595 -0.120735 239 232 225 1.000000
0.328391 0.408051 -0.429840 0.165337 -0.371136 -0.913740 239 232 225 1.000000
-0.450937 -0.309303 -0.167391 -0.991245 -0.132038 -0.000111 77 77 77 1.000000
-0.309684 -0.324503 0.033273 0.000000 0.824658 -0.565631 0 0 0 1.000000
0.073636 -0.166830 0.214119 0.013989 0.999806 -0.013893 255 255 255 1.000000
0.439370 -0.333277 -0.080241 0.000000 0.999938 -0.011098 255 255 255 1.000000
-0.326932 -0.063482 -0.073541 0.310073 -0.942235 0.126683 255 255 255 1.000000
-0.220453 -0.171145 0.298618 0.027998 -0.999263 -0.026276 239 232 225 1.000000
-0.320427 0.736486 -0.519521 -0.077435 0.493942 -0.866040 239 232 225 1.000000
0.316373 0.074770 -0.240122 0.216519 -0.074606 -0.973424 255 255 255 1.000000
-0.419327 -0.046373 0.394278 0.000000 0.353476 -0.935444 255 255 255 1.000000
0.042265 -0.337938 0.067671 0.000000 -0.139927 -0.990162 255 255 255 1.000000
-0.328974 -0.068465 -0.105018 0.306397 -0.942545 0.133157 255 255 255 1.000000
0.473017 0.322578 -0.192482 -0.000001 -0.997898 0.064804 255 255 255 1.000000
-0.282618 -0.249419 -0.198805 -0.063007 0.955516 -0.288131 255 255 255 1.000000
-0.145113 -0.126878 -0.324176 0.124755 -0.478075 0.869414 255 255 255 1.000000
0.401554 -0.169600 -0.333309 0.975087 0.170322 -0.142114 239 232 225 1.000000
0.390637 -0.167844 -0.220562 -0.998800 -0.046141 0.016410 255 255 255 1.000000
0.385822 0.271731 0.025012 -0.999997 0.002603 -0.000402 77 77 77 1.000000
0.309293 -0.175179 0.341702 -0.059214 0.998243 -0.002337 255 255 255 1.000000
-0.002157 -0.329924 -0.330790 0.000042 0.603599 -0.797288 255 255 255 1.000000
-0.062287 0.335985 -0.327037 -0.024684 -0.359503 -0.932817 255 255 255 1.000000
0.198176 -0.218203 -0.297682 0.017853 0.275885 -0.961025 255 255 255 1.000000
0.165295 -0.083632 0.442343 0.000000 0.624276 -0.781204 239 232 225 1.000000
0.086626 -0.173734 0.370338 -0.006613 -0.999528 0.029984 239 232 225 1.000000
-0.065260 -0.052358 0.426249 0.020954 -0.803407 -0.595062 255 255 255 1.000000
-0.395982 0.289265 -0.439279 0.000000 -0.971983 0.235049 255 255 255 1.000000
-0.377121 -0.105462 0.636287 -0.951431 0.290115 0.103015 239 232 225 1.000000
-0.194431 -0.035352 0.339625 0.085457 -0.976447 -0.198113 255 255 255 1.000000
0.287894 -0.221385 -0.099018 -0.043997 -0.966666 0.252232 239 232 225 1.000000
0.131667 0.422523 -0.359432 0.054741 -0.364539 -0.929578 255 255 255 1.000000
-0.370587 -0.150071 -0.002191 -0.995764 -0.090816 0.014340 239 232 225 1.000000
-0.069247 -0.226278 -0.155326 0.019024 -0.962815 0.269489 239 232 225 1.000000
-0.112124 -0.038217 -0.049279 -0.054080 0.981702 -0.182582 239 232 225 1.000000
0.231879 -0.219147 0.902766 -0.000079 -0.405507 0.914092 239 232 225 1.000000
0.383645 -0.117975 -0.186474 -0.947452 -0.319899 0.000420 255 255 255 1.000000
0.024823 -0.219222 -0.132136 0.005890 0.965085 -0.261871 255 255 255 1.000000
0.155955 -0.361471 0.045324 0.000000 0.999870 0.016146 255 255 255 1.000000
0.024077 -0.328859 0.180661 0.991396 0.100926 -0.083351 0 0 0 1.000000
-0.160948 -0.176240 0.500665 0.000000 0.983356 0.181689 255 255 255 1.000000
-0.188674 -0.067187 0.543407 0.000000 -0.998457 -0.055535 255 255 255 1.000000
0.353089 0.056706 -0.229560 0.251421 -0.055364 -0.966293 255 255 255 1.000000
-0.489006 0.243329 0.026682 0.999995 -0.003262 0.000362 255 255 255 1.000000
-0.373518 0.278866 0.021193 -0.999996 -0.002638 0.000413 255 255 255 1.000000
-0.112195 -0.216391 -0.345493 0.107197 -0.074954 0.991408 255 255 255 1.000000
-0.346971 0.175034 -0.246756 0.139207 0.189470 0.971968 239 232 225 1.000000
-0.324513 0.715213 -0.425510 -0.150121 -0.425459 -0.892440 255 255 255 1.000000
0.062239 -0.071164 -0.211295 -0.020484 -0.971361 0.236723 255 255 255 1.000000
-0.335918 -0.311207 -0.409327 0.083976 0.216451 -0.972675 239 232 225 1.000000
0.199096 0.285704 -0.300483 0.097250 -0.316445 -0.943613 255 255 255 1.000000
0.046814 0.005526 -0.266585 0.019621 0.017617 -0.999652 255 255 255 1.000000
-0.194481 0.442896 -0.460702 0.090588 0.350895 0.932023 255 255 255 1.000000
-0.206679 0.299743 -0.402738 0.104182 0.331481 0.937692 255 255 255 1.000000
0.364981 0.666754 -0.505915 0.166055 -0.220010 -0.961260 239 232 225 1.000000
-0.420042 0.231941 -0.082657 0.000000 -0.997508 0.070553 77 77 77 1.000000
-0.409816 -0.120034 0.273496 0.000000 -0.582634 0.812734 255 255 255 1.000000
0.279751 -0.211867 0.904313 -0.122574 0.276696 -0.953108 255 255 255 1.000000
-0.034136 0.291140 -0.409625 0.014620 0.321828 0.946685 255 255 255 1.000000
-0.349582 -0.067245 0.531884 -0.207132 0.976879 0.052958 239 232 225 1.000000
-0.245798 0.201918 -0.271320 -0.136496 -0.211356 -0.967831 255 255 255 1.000000
-0.343625 -0.074694 0.619790 0.177355 -0.972448 -0.151297 255 255 255 1.000000
0.218066 0.074966 -0.256562 -0.129606 0.070322 0.989069 239 232 225 1.000000
0.384823 -0.080378 0.205226 -0.980425 -0.196505 0.012390 255 255 255 1.000000
0.109192 0.540666 -0.401090 0.045162 -0.287898 -0.956596 255 255 255 1.000000
0.361850 0.005880 -0.226881 0.256364 0.041877 -0.965673 255 255 255 1.000000
0.365393 -0.169321 0.380307 0.604712 -0.779116 0.165232 239 232 225 1.000000
-0.215470 -0.211930 -0.329136 -0.199736 0.092177 -0.975504 239 232 225 1.000000
-0.286284 0.185468 -0.360307 -0.174543 -0.187459 -0.966641 239 232 225 1.000000
0.500474 0.206944 0.321122 0.000000 0.783114 0.621878 77 77 77 1.000000
0.270991 -0.041738 0.339600 -0.098084 -0.982434 -0.158753 255 255 255 1.000000
0.500105 0.158235 0.292573 0.999760 -0.021906 0.000787 77 77 77 1.000000
-0.376341 0.281920 -0.465624 0.000000 -0.948088 0.318009 255 255 255 1.000000
-0.099723 -0.141395 -0.281911 -0.031297 0.188401 -0.981593 255 255 255 1.000000
-0.176597 -0.057898 -0.128472 -0.067615 0.978104 -0.196824 239 232 225 1.000000
-0.008162 -0.213125 0.325503 -0.361440 -0.504810 0.783918 0 0 0 1.000000
-0.177454 -0.069861 0.462386 0.000000 0.926738 -0.375709 239 232 225 1.000000
0.095353 -0.096330 0.435071 0.000000 0.374993 -0.927028 239 232 225 1.000000
0.448644 0.762942 -0.469215 0.368955 0.923221 -0.107406 239 232 225 1.000000
0.222494 -0.238830 -0.302690 0.010252 0.302204 -0.953188 255 255 255 1.000000
-0.126663 -0.012148 0.234363 0.076885 -0.992980 -0.089884 255 255 255 1.000000
-0.257314 -0.054599 0.404871 0.072381 -0.921079 -0.382588 255 255 255 1.000000
-0.307110 0.596800 -0.495426 0.146109 0.264167 0.953346 255 255 255 1.000000
0.027565 0.415854 -0.360020 -0.009411 0.366353 0.930428 239 232 225 1.000000
0.078770 -0.166974 0.243271 0.013711 0.999889 0.005745 255 255 255 1.000000
-0.021368 -0.211557 0.698286 0.000000 0.985067 0.172173 255 255 255 1.000000
0.251628 -0.267541 -0.264640 -0.026942 -0.990308 0.136252 239 232 225 1.000000
0.006801 -0.103783 0.754842 0.000000 0.955560 0.294797 239 232 225 1.000000
-0.340880 0.456540 -0.347212 0.143160 0.342720 0.928465 239 232 225 1.000000
-0.144754 -0.297572 0.048347 -0.415569 -0.902892 -0.109952 255 255 255 1.000000
0.029284 -0.192808 -0.025509 -0.006923 -0.977750 0.209658 239 232 225 1.000000
-0.479927 0.013347 0.408551 0.000000 0.067934 -0.997690 255 255 255 1.000000
-0.353695 -0.245121 0.161740 0.000000 0.060280 0.998182 255 255 255 1.000000
0.134316 -0.240331 -0.346908 -0.123056 -0.013474 0.992308 255 255 255 1.000000
-0.115474 -0.175083 0.393477 0.003193 -0.988872 0.148733 239 232 225 1.000000
0.388461 -0.454711 -0.363601 -0.783830 0.537008 -0.311821 255 255 255 1.000000
0.461157 -0.324995 -0.051595 0.991204 -0.132343 0.000109 77 77 77 1.000000
-0.076381 -0.173611 0.486499 0.000000 -0.975885 -0.218284 239 232 225 1.000000
0.385847 0.224026 -0.196283 -0.999999 0.001423 -0.000964 77 77 77 1.000000
0.368513 -0.170221 0.273830 -0.543701 0.837967 -0.046907 255 255 255 1.000000
-0.200230 -0.021109 0.122092 0.120557 -0.989739 0.076697 255 255 255 1.000000
-0.341800 -0.072736 0.453999 -0.121836 0.851659 -0.509739 239 232 225 1.000000
0.029733 -0.169432 0.138692 0.006599 0.997761 -0.066552 255 255 255 1.000000
0.126952 -0.067137 0.542338 0.000000 -0.998521 -0.054360 255 255 255 1.000000
-0.214558 0.163442 -0.267528 0.119826 0.168301 0.978426 239 232 225 1.000000
0.153415 -0.256554 -0.308720 -0.002698 0.286484 -0.958081 255 255 255 1.000000
0.086564 -0.226525 0.901199 -0.000029 -0.509443 0.860504 239 232 225 1.000000
0.471683 0.136832 0.286207 0.000000 -0.610416 -0.792081 77 77 77 1.000000
0.049941 -0.172121 0.356135 -0.005263 -0.999921 -0.011394 239 232 225 1.000000
-0.154403 -0.327980 0.064436 0.000000 -0.539746 -0.841828 255 255 255 1.000000
-0.104952 0.646674 -0.430202 0.048087 0.242830 0.968876 239 232 225 1.000000
0.336315 -0.193839 0.043938 -0.113886 0.983570 -0.140072 255 255 255 1.000000
0.264272 -0.172968 0.320409 0.030267 0.998938 0.034727 255 255 255 1.000000
0.356676 0.560909 -0.379595 -0.136821 0.278636 0.950601 239 232 225 1.000000
0.078046 -0.167386 0.277992 -0.011675 -0.999478 -0.030107 239 232 225 1.000000
0.129659 -0.037284 0.372948 -0.044663 -0.967639 -0.248354 255 255 255 1.000000
-0.272665 -0.221764 0.756652 -0.023405 -0.985464 -0.168264 239 232 225 1.000000
0.123643 -0.167861 0.223364 -0.023636 -0.999662 0.010827 239 232 225 1.000000
0.425159 -0.319759 -0.386973 0.999994 0.003316 -0.000838 239 232 225 1.000000
0.338796 0.304423 -0.385515 0.231439 -0.340108 -0.911462 239 232 225 1.000000
0.023181 -0.183385 -0.291604 0.000938 -0.209801 0.977744 239 232 225 1.000000
-0.425858 -0.299124 -0.268662 0.000001 -0.282863 0.959160 255 255 255 1.000000
0.201496 0.147959 -0.267290 -0.110791 0.152877 0.982015 239 232 225 1.000000
0.231052 -0.066569 0.530203 0.000000 0.999159 0.041006 239 232 225 1.000000
-0.016276 -0.248923 -0.235107 0.005001 -0.956381 0.292080 239 232 225 1.000000
-0.402111 -0.292300 -0.197069 -0.994383 0.105844 0.000117 255 255 255 1.000000
-0.295746 -0.126549 -0.291595 -0.254015 0.469107 -0.845822 239 232 225 1.000000
0.409629 0.643603 -0.490972 0.406440 -0.280931 -0.869416 239 232 225 1.000000
0.043386 -0.008883 0.122565 -0.025434 -0.996095 0.084549 255 255 255 1.000000
-0.149031 0.449091 -0.466920 -0.066893 -0.346398 -0.935700 239 232 225 1.000000
0.004237 -0.163071 -0.287379 0.001743 -0.195342 0.980734 239 232 225 1.000000
0.452327 0.216438 0.308628 0.000000 -0.804636 -0.593768 255 255 255 1.000000
0.225966 0.307384 -0.403939 -0.109996 0.340275 0.933870 255 255 255 1.000000
-0.196700 -0.236021 -0.301917 -0.018174 0.286947 -0.957774 255 255 255 1.000000
-0.380325 -0.111073 0.186564 0.999530 0.010706 0.028738 255 255 255 1.000000
-0.463315 0.315210 -0.279856 0.000000 0.993715 -0.111939 77 77 77 1.000000
-0.384451 0.463908 -0.340657 0.163987 -0.309547 -0.936637 255 255 255 1.000000
-0.119598 -0.135447 0.839231 -0.000000 -0.915845 -0.401532 255 255 255 1.000000
0.100915 -0.015931 0.081625 0.059981 0.990337 -0.125039 239 232 225 1.000000
-0.371001 -0.105520 -0.245347 0.695358 -0.644454 0.318051 255 255 255 1.000000
0.498380 0.187915 -0.311097 0.000000 0.974829 -0.222952 255 255 255 1.000000
0.245682 0.512378 -0.380975 0.114029 -0.301432 -0.946645 255 255 255 1.000000
-0.281397 -0.233545 0.823977 -0.072573 -0.985828 -0.151249 239 232 225 1.000000
-0.285252 0.734058 -0.443075 -0.129525 -0.707751 -0.694487 255 255 255 1.000000
0.348178 -0.319744 0.041968 0.000000 -0.949724 0.313088 255 255 255 1.000000
-0.379076 -0.107151 0.154330 0.998441 -0.019600 0.052258 255 255 255 1.000000
-0.338635 -0.177104 0.371632 0.162187 0.984331 -0.069200 255 255 255 1.000000
0.152089 0.372145 -0.436466 0.065500 -0.373979 -0.925121 239 232 225 1.000000
-0.209610 0.528148 -0.389246 0.098330 0.291746 0.951428 239 232 225 1.000000
0.375310 -0.356491 -0.094974 0.444629 0.883154 -0.149477 255 255 255 1.000000
-0.363484 0.126763 -0.333482 -0.569226 -0.124893 -0.812640 239 232 225 1.000000
-0.424772 -0.511562 0.525192 0.990339 0.000000 -0.138669 255 255 255 1.000000
-0.193435 -0.185354 0.906793 -0.000045 -0.213274 -0.976992 255 255 255 1.000000
0.343118 -0.152304 0.853285 -0.680183 -0.574193 -0.455690 255 255 255 1.000000
0.127686 -0.078701 0.646496 0.000000 0.986211 0.165494 239 232 225 1.000000
0.377343 -0.104905 0.056418 0.996294 0.068938 -0.051436 239 232 225 1.000000
0.308261 -0.122541 0.808510 0.112356 0.919431 0.376860 239 232 225 1.000000
0.133693 0.537535 -0.497443 -0.057693 0.288589 0.955713 255 255 255 1.000000
0.247146 -0.023226 -0.352915 0.143258 0.038177 -0.988949 239 232 225 1.000000
0.370786 -0.071425 0.476700 -0.487773 -0.859201 0.154440 255 255 255 1.000000
-0.141026 -0.179347 0.064469 -0.036494 0.990171 -0.135017 255 255 255 1.000000
0.024326 0.460634 -0.377190 0.008145 -0.339000 -0.940751 255 255 255 1.000000
0.483755 0.318836 0.027962 -0.000001 -0.992983 -0.118260 255 255 255 1.000000
-0.425123 0.323394 -0.179751 0.000000 0.998499 -0.054766 77 77 77 1.000000
-0.443634 0.204424 -0.403650 0.000000 -0.955159 -0.296093 77 77 77 1.000000
0.054725 -0.079361 0.650123 0.000000 -0.985576 -0.169231 255 255 255 1.000000
0.045295 -0.162059 -0.343732 -0.039725 -0.208343 0.977249 255 255 255 1.000000
-0.229461 0.734341 -0.453633 0.103026 0.780135 0.617069 239 232 225 1.000000
-0.057133 -0.056017 -0.146294 -0.021837 0.975865 -0.217281 239 232 225 1.000000
0.345359 -0.076299 0.631313 0.167671 0.974369 0.149972 239 232 225 1.000000
0.229950 -0.024554 0.252310 -0.119583 -0.988809 -0.089202 255 255 255 1.000000
0.378347 -0.121701 -0.080980 -0.995336 -0.086578 -0.042543 255 255 255 1.000000
0.316363 -0.207785 0.676692 -0.103552 0.981086 0.163544 255 255 255 1.000000
-0.360225 -0.464338 0.486163 0.999442 0.029953 0.014793 0 0 0 1.000000
0.092420 -0.075499 -0.225927 -0.029663 -0.967280 0.251970 255 255 255 1.000000
-0.294927 -0.074134 0.615777 -0.049241 0.989252 0.137677 239 232 225 1.000000
-0.378407 -0.085573 0.476776 0.880180 -0.453069 0.141461 255 255 255 1.000000
0.343903 -0.142845 0.428252 -0.174053 0.274593 0.945677 255 255 255 1.000000
0.367986 -0.054161 0.126064 0.685114 0.723368 -0.085772 239 232 225 1.000000
-0.068786 -0.230973 0.809264 0.000000 -0.985063 -0.172194 239 232 225 1.000000
-0.045391 -0.170876 0.343939 0.003657 -0.999010 -0.044335 239 232 225 1.000000
-0.146426 -0.128241 -0.277413 0.054238 -0.189795 0.980324 239 232 225 1.000000
0.429483 0.110766 0.303255 0.000000 0.459393 0.888233 255 255 255 1.000000
-0.007637 0.026775 -0.368758 -0.004615 -0.019128 -0.999806 239 232 225 1.000000
0.328633 -0.195345 0.606003 -0.124439 0.978040 0.167193 255 255 255 1.000000
-0.223581 -0.060712 0.435220 -0.054417 0.794375 0.604985 239 232 225 1.000000
0.095775 -0.008929 0.217256 0.054546 0.996540 0.062719 239 232 225 1.000000
-0.488537 0.214132 -0.305910 0.999993 0.002684 0.002530 255 255 255 1.000000
0.224316 -0.138213 0.845815 0.000002 -0.912492 -0.409095 255 255 255 1.000000
0.267794 0.002880 -0.247844 0.163760 0.045241 -0.985462 255 255 255 1.000000
-0.219644 0.318519 -0.309322 0.108697 0.351884 0.929711 239 232 225 1.000000
0.373908 -0.416977 0.383162 -0.576617 -0.739313 -0.347749 0 0 0 1.000000
0.131830 -0.208726 -0.083367 -0.034004 -0.969765 0.241660 239 232 225 1.000000
-0.488710 0.315606 -0.155419 -0.999997 0.002563 -0.000551 77 77 77 1.000000
0.019240 -0.187463 0.907317 -0.000001 -0.152361 -0.988325 255 255 255 1.000000
0.007163 0.192938 -0.284917 -0.002100 0.196104 0.980581 239 232 225 1.000000
0.073475 -0.224235 -0.148394 -0.018838 -0.963348 0.267591 239 232 225 1.000000
-0.085394 -0.221931 0.757602 0.000000 -0.985028 -0.172394 239 232 225 1.000000
-0.109055 -0.121857 -0.371189 -0.029756 0.087268 -0.995740 239 232 225 1.000000
-0.240866 0.017409 -0.352233 0.149443 -0.000679 0.988770 255 255 255 1.000000
0.202721 0.361522 -0.427775 0.093258 -0.370371 -0.924191 239 232 225 1.000000
-0.159061 -0.087760 -0.264061 -0.064729 0.926161 -0.371532 239 232 225 1.000000
-0.250551 -0.089776 -0.253569 0.098521 -0.922346 0.373593 255 255 255 1.000000
-0.373609 0.286899 -0.196305 -0.999999 -0.001282 0.000823 255 255 255 1.000000
0.009756 -0.189505 0.573321 0.000000 -0.984163 -0.177266 239 232 225 1.000000
0.346614 0.724280 -0.427952 -0.158773 0.538678 0.827416 239 232 225 1.000000
-0.381126 -0.156990 0.561090 0.968597 0.248415 0.010494 255 255 255 1.000000
-0.373464 0.227835 0.143049 -0.999999 0.001323 -0.000363 255 255 255 1.000000
0.267070 -0.189492 -0.314756 0.238471 0.145331 -0.960214 239 232 225 1.000000
0.214307 -0.172968 0.345086 -0.019022 -0.999638 -0.019021 239 232 225 1.000000
-0.250053 0.194590 -0.368313 0.141274 0.194850 0.970606 255 255 255 1.000000
0.091773 -0.231935 0.164476 0.000000 -0.486317 0.873782 255 255 255 1.000000
-0.008250 -0.200774 0.636705 0.000000 0.984814 0.173611 255 255 255 1.000000
-0.354418 -0.153541 -0.356975 -0.278284 0.263394 -0.923678 239 232 225 1.000000
0.387297 0.130594 0.299242 -0.999773 -0.021303 0.000076 77 77 77 1.000000
0.479240 0.092605 0.311051 0.000000 0.340181 0.940360 255 255 255 1.000000
-0.033208 -0.106030 0.762599 0.000000 -0.952167 -0.305579 255 255 255 1.000000
-0.112864 -0.201219 0.639240 0.000000 0.984834 0.173502 255 255 255 1.000000
0.394379 0.212929 0.313471 0.000000 0.784735 0.619832 77 77 77 1.000000
-0.169767 0.265438 -0.395084 0.083617 0.292968 0.952459 255 255 255 1.000000
-0.279886 0.228254 -0.271906 -0.160115 -0.244576 -0.956319 255 255 255 1.000000
0.414502 -0.269320 -0.384479 0.875117 0.312283 -0.369661 239 232 225 1.000000
-0.211208 0.330877 -0.413833 0.103899 0.358445 0.927751 255 255 255 1.000000
-0.213422 -0.240393 0.161701 0.000000 -0.138156 0.990411 255 255 255 1.000000
-0.269867 -0.070856 0.589242 0.000000 0.994413 0.105557 239 232 225 1.000000
-0.275067 -0.043426 0.019340 0.141176 -0.981393 0.130144 255 255 255 1.000000
-0.340858 -0.490042 -0.474404 0.627686 0.000000 -0.778467 77 77 77 1.000000
-0.073025 -0.012787 0.260041 -0.042381 0.990863 0.128040 239 232 225 1.000000
-0.032337 -0.238981 0.876896 0.000034 -0.978558 0.205971 239 232 225 1.000000
0.300386 -0.098390 0.736224 -0.068958 -0.959612 -0.272744 255 255 255 1.000000
-0.363566 -0.489149 -0.480660 0.000000 1.000000 0.000000 77 77 77 1.000000
0.081459 -0.135431 0.430849 -0.000531 0.383009 -0.923744 255 255 255 1.000000
-0.248885 -0.067232 0.544364 0.000000 -0.998398 -0.056587 255 255 255 1.000000
0.023297 -0.348465 0.114550 0.957687 -0.286738 0.024819 0 0 0 1.000000
-0.332258 -0.211501 -0.043879 -0.127585 -0.963375 0.235860 239 232 225 1.000000
-0.039336 0.456672 -0.375352 -0.016445 -0.341621 -0.939694 255 255 255 1.000000
0.501085 0.300529 -0.257240 -0.999999 0.000527 0.001622 255 255 255 1.000000
0.438902 0.077770 0.404186 0.000000 -0.211341 -0.977412 255 255 255 1.000000
0.424753 0.235392 0.019660 0.000000 0.999998 0.001865 255 255 255 1.000000
-0.343529 0.446334 -0.441374 -0.222531 -0.352527 -0.908958 239 232 225 1.000000
-0.385926 -0.177659 -0.225044 0.999910 -0.003798 0.012906 255 255 255 1.000000
-0.126564 -0.322751 -0.329592 0.016964 0.547660 -0.836529 255 255 255 1.000000
0.199867 0.048436 -0.359026 0.116523 -0.037189 -0.992491 239 232 225 1.000000
-0.328330 -0.019540 -0.337428 0.243388 -0.069532 0.967434 255 255 255 1.000000
0.023096 -0.263881 -0.166848 0.931759 -0.291300 -0.216722 0 0 0 1.000000
-0.083611 0.371041 -0.439452 -0.032718 -0.373563 -0.927028 239 232 225 1.000000
-0.438318 -0.262198 0.086766 0.000000 -0.933217 0.359315 255 255 255 1.000000
-0.206261 -0.086787 -0.250859 -0.078512 0.934747 -0.346533 239 232 225 1.000000
0.463672 -0.306426 -0.265102 -0.991301 0.131561 -0.003725 255 255 255 1.000000
0.408472 0.300572 0.118920 0.000000 -0.960426 -0.278536 255 255 255 1.000000
0.095256 -0.170047 0.142497 0.021735 0.997655 -0.064895 255 255 255 1.000000
-0.151781 -0.044127 0.392464 0.055493 -0.945349 -0.321304 255 255 255 1.000000
0.249253 -0.328998 -0.338003 -0.041304 0.645473 -0.762665 255 255 255 1.000000
-0.176986 -0.248860 -0.219612 -0.048846 0.955849 -0.289772 255 255 255 1.000000
-0.130849 -0.316236 0.031333 -0.299084 -0.701360 0.647027 255 255 255 1.000000
0.173985 -0.081775 -0.236801 -0.057878 -0.954082 0.293901 255 255 255 1.000000
-0.020039 0.284065 -0.308631 0.008608 0.314411 0.949248 239 232 225 1.000000
-0.484291 0.059921 0.341200 -0.998911 -0.046660 0.000108 77 77 77 1.000000
0.295552 0.647524 -0.511284 -0.133761 0.243583 0.960612 255 255 255 1.000000
-0.166175 -0.191762 0.585931 0.000000 0.984308 0.176458 255 255 255 1.000000
-0.197753 0.125961 -0.263987 -0.112338 -0.130657 -0.985043 255 255 255 1.000000
-0.207871 -0.023116 0.255454 -0.114332 0.988120 0.102694 239 232 225 1.000000
0.016231 -0.278945 -0.328813 0.002475 -0.999223 0.039348 239 232 225 1.000000
0.059155 -0.206223 0.667747 0.000000 0.985004 0.172530 255 255 255 1.000000
0.078438 0.195633 -0.383185 0.031028 -0.189183 -0.981452 239 232 225 1.000000
0.387837 -0.215171 -0.272328 0.849286 0.029119 -0.527129 239 232 225 1.000000
0.385808 0.249130 -0.101912 0.999996 -0.002790 0.000488 255 255 255 1.000000
-0.179410 -0.053480 0.417286 0.057406 -0.862593 -0.502630 255 255 255 1.000000
-0.326130 0.545291 -0.477690 -0.159565 -0.287360 -0.944438 239 232 225 1.000000
0.149678 -0.120754 0.803950 0.000002 0.932883 0.360180 239 232 225 1.000000
-0.304888 -0.288134 -0.321049 -0.022554 -0.414734 0.909663 239 232 225 1.000000
0.338321 -0.176398 -0.276791 -0.069257 -0.337364 0.938823 239 232 225 1.000000
0.396599 -0.078940 0.340911 0.997984 0.063463 -0.000015 255 255 255 1.000000
0.425547 0.718236 -0.408281 -0.013632 -0.354237 -0.935057 255 255 255 1.000000
-0.349720 -0.270417 -0.295515 0.373054 0.060474 0.925837 255 255 255 1.000000
0.340108 -0.104147 0.755744 0.184656 0.934559 0.304141 239 232 225 1.000000
-0.389992 -0.159122 0.298880 -0.997011 0.077265 0.000142 255 255 255 1.000000
0.367620 -0.194328 -0.014360 -0.754805 0.641260 -0.138040 255 255 255 1.000000
0.185101 -0.115018 -0.366650 0.071155 0.102731 -0.992161 239 232 225 1.000000
-0.434286 -0.251586 0.227234 0.000000 -0.802010 0.597311 77 77 77 1.000000
-0.361688 -0.196244 -0.370297 0.232298 -0.302771 0.924320 255 255 255 1.000000
0.003073 -0.183367 0.539493 0.000000 -0.983776 -0.179403 239 232 225 1.000000
-0.488882 0.279080 -0.376665 0.999992 0.003088 -0.002487 255 255 255 1.000000
0.191168 0.625152 -0.419116 -0.087928 0.249787 0.964300 239 232 225 1.000000
-0.031558 -0.171506 0.475192 0.000000 0.966105 0.258151 255 255 255 1.000000
-0.412298 -0.278784 -0.351720 0.989750 -0.116980 -0.081922 255 255 255 1.000000
-0.357520 -0.050498 0.118499 -0.563004 0.821992 -0.085769 239 232 225 1.000000
0.100415 0.235947 -0.391465 0.040496 -0.248152 -0.967874 239 232 225 1.000000
0.200314 0.310214 -0.407863 -0.095022 0.342651 0.934645 255 255 255 1.000000
-0.165449 -0.237397 -0.182038 0.044940 -0.959521 0.278030 239 232 225 1.000000
-0.380055 -0.433406 -0.327954 -0.830041 -0.488849 0.268436 0 0 0 1.000000
0.032973 -0.027054 -0.368243 -0.014428 -0.014833 0.999786 255 255 255 1.000000
0.190864 0.441037 -0.460989 0.085406 -0.351804 -0.932169 239 232 225 1.000000
-0.381340 -0.112970 0.581296 -0.990953 0.125144 0.048493 239 232 225 1.000000
-0.089983 -0.109921 -0.276508 -0.031567 0.161800 -0.986319 255 255 255 1.000000
0.350075 -0.218076 0.768335 0.522997 -0.850695 -0.052841 239 232 225 1.000000
0.490329 0.227931 0.292703 0.000000 -0.842661 -0.538444 255 255 255 1.000000
0.271036 -0.132452 0.832101 -0.026036 -0.917540 -0.396790 255 255 255 1.000000
-0.120709 0.346579 -0.427676 0.052883 0.363880 0.929943 255 255 255 1.000000
0.163735 -0.030865 0.014061 0.087674 0.983936 -0.155507 239 232 225 1.000000
-0.369202 -0.328591 -0.039879 0.178522 0.979608 -0.092186 0 0 0 1.000000
-0.230024 -0.085774 -0.359056 0.103686 -0.111080 0.988388 255 255 255 1.000000
0.107900 -0.266404 -0.388019 -0.001984 0.166301 -0.986073 239 232 225 1.000000
-0.107491 0.484338 -0.383261 0.045814 0.321200 0.945903 239 232 225 1.000000
-0.076859 -0.167015 0.252660 0.012477 -0.999855 -0.011594 239 232 225 1.000000
-0.006468 -0.322372 0.149071 0.396192 -0.871770 0.288182 255 255 255 1.000000
-0.472190 0.217417 -0.438747 0.000000 0.916851 0.399230 255 255 255 1.000000
0.278962 0.730581 -0.443020 0.126994 -0.680703 -0.721468 255 255 255 1.000000
0.198090 -0.359509 0.037122 0.000000 -0.917191 -0.398448 0 0 0 1.000000
0.331611 -0.080250 0.655005 0.136370 0.974974 0.175581 239 232 225 1.000000
0.128008 -0.073239 0.609347 0.000000 -0.991914 -0.126914 255 255 255 1.000000
0.385775 0.233573 0.136352 -1.000000 -0.000838 0.000198 77 77 77 1.000000
-0.074547 -0.173390 0.368214 0.004235 -0.999721 0.023231 239 232 225 1.000000
-0.362977 0.740126 -0.433365 0.160613 0.703081 0.692735 239 232 225 1.000000
-0.078829 -0.328349 -0.330914 -0.011509 -0.594255 0.804194 239 232 225 1.000000
-0.059488 -0.210081 0.904693 -0.000010 0.266872 -0.963732 255 255 255 1.000000
-0.150607 0.149304 -0.272128 0.078081 0.150131 0.985578 239 232 225 1.000000
0.306086 -0.261009 0.194451 0.000000 0.827615 -0.561297 255 255 255 1.000000
0.409791 -0.227636 -0.326064 0.992015 0.098174 0.079170 239 232 225 1.000000
0.214741 0.106621 -0.259967 0.124276 -0.109956 -0.986136 255 255 255 1.000000
-0.315335 -0.167695 0.050222 0.970591 0.227068 -0.079956 255 255 255 1.000000
-0.336386 -0.174381 -0.275502 0.053615 -0.336173 0.940273 239 232 225 1.000000
-0.029735 -0.255355 0.165794 0.000000 0.585019 0.811020 255 255 255 1.000000
0.281088 0.151773 -0.356542 -0.168865 0.145236 0.974880 255 255 255 1.000000
0.319936 -0.215807 -0.066738 -0.064609 0.969240 -0.237485 255 255 255 1.000000
-0.017177 -0.217459 -0.125397 -0.005157 0.965873 -0.258965 255 255 255 1.000000
0.099404 -0.194706 0.602422 0.000000 -0.984497 -0.175400 239 232 225 1.000000
0.006232 -0.260260 0.195572 0.000000 0.817895 -0.575367 255 255 255 1.000000
-0.163181 -0.253147 -0.386563 0.007288 0.182562 -0.983167 239 232 225 1.000000
-0.409538 -0.044092 0.313917 0.000000 0.310340 -0.950626 77 77 77 1.000000
-0.189061 0.472577 -0.472419 0.087925 0.328714 0.940328 255 255 255 1.000000
-0.373650 0.310203 -0.106511 0.999996 0.002682 -0.000295 77 77 77 1.000000
-0.101132 -0.080944 -0.245641 0.038547 -0.950076 0.309630 255 255 255 1.000000
0.059340 -0.011436 -0.367641 -0.026472 -0.005490 0.999635 255 255 255 1.000000
0.279974 -0.225721 0.779234 -0.035081 0.985429 0.166432 255 255 255 1.000000
-0.234149 0.492359 -0.375291 0.110468 0.314875 0.942683 239 232 225 1.000000
-0.098596 -0.181674 0.039232 -0.026014 0.987103 -0.157960 255 255 255 1.000000
-0.366047 -0.351955 -0.067308 0.465804 -0.878024 0.110007 0 0 0 1.000000
-0.082152 -0.165057 0.893920 0.000023 0.699144 0.714980 239 232 225 1.000000
0.396273 -0.119803 -0.300605 0.994375 0.105772 -0.005469 239 232 225 1.000000
0.216488 0.576839 -0.403375 -0.099575 0.270812 0.957468 239 232 225 1.000000
-0.361230 -0.342451 0.117756 0.923226 -0.381747 -0.043844 0 0 0 1.000000
-0.380192 -0.338983 -0.084236 0.840150 -0.537319 0.073726 255 255 255 1.000000
0.399020 -0.147923 -0.284786 0.989395 0.058636 0.132886 239 232 225 1.000000
-0.447354 -0.152337 0.329409 0.000000 0.637834 -0.770174 255 255 255 1.000000
0.090445 0.617413 -0.423824 -0.037307 0.254579 0.966332 239 232 225 1.000000
0.292115 0.047927 -0.344705 0.193561 -0.037897 -0.980356 239 232 225 1.000000
0.121488 -0.248979 0.203867 0.000000 -0.274781 0.961507 0 0 0 1.000000
0.464294 -0.034338 0.317222 0.000000 -0.283164 0.959072 255 255 255 1.000000
0.372364 -0.076167 -0.238517 0.091999 -0.213537 0.972594 239 232 225 1.000000
-0.367220 -0.075182 0.386779 0.856962 -0.462605 -0.227185 255 255 255 1.000000
-0.165101 -0.269158 -0.338961 -0.142801 -0.092222 -0.985446 239 232 225 1.000000
0.391241 0.233974 -0.047426 0.000000 0.998814 -0.048693 255 255 255 1.000000
0.055047 0.264524 -0.400295 -0.020592 0.291588 0.956322 255 255 255 1.000000
-0.441429 0.293959 -0.418454 0.000000 -0.977232 0.212172 255 255 255 1.000000
-0.050078 -0.176486 -0.377134 0.005195 -0.103905 0.994574 255 255 255 1.000000
-0.239897 -0.014619 -0.252369 -0.143593 0.063073 -0.987625 255 255 255 1.000000
-0.195911 -0.178557 0.513273 0.000000 0.983492 0.180953 255 255 255 1.000000
-0.240180 0.372252 -0.328629 -0.116102 -0.375425 -0.919552 255 255 255 1.000000
-0.439594 0.665943 -0.462969 0.955505 0.241823 0.168916 255 255 255 1.000000
-0.045096 -0.024504 0.012153 -0.024487 0.985653 -0.167000 239 232 225 1.000000
-0.220642 0.102971 -0.358927 -0.132762 -0.088642 -0.987176 239 232 225 1.000000
0.052646 -0.216293 0.725385 0.000000 0.985049 0.172277 255 255 255 1.000000
-0.107246 -0.194916 -0.028508 -0.028676 0.976784 -0.212301 255 255 255 1.000000
-0.290577 -0.192676 -0.284705 -0.064425 0.316402 -0.946435 255 255 255 1.000000
0.425630 -0.261319 0.172387 0.000000 -0.895509 -0.445044 0 0 0 1.000000
-0.269330 -0.042410 -0.349388 0.156070 -0.079329 0.984555 255 255 255 1.000000
-0.011266 -0.177722 0.057559 -0.003458 0.990214 -0.139518 255 255 255 1.000000
-0.488752 0.298087 -0.130221 0.999995 -0.003048 0.000427 255 255 255 1.000000
