ply
format ascii 1.0
element vertex 1265
property float x
property float y
property float z
property uchar red
property uchar green
property uchar blue
end_header
-0.081723 -0.215178 0.417570 76 0 153
-0.217784 0.479869 -0.284392 76 0 153
0.349845 -0.462263 0.451998 76 153 0
0.323087 -0.093772 0.475389 153 0 76
0.199962 -0.356628 -0.166668 153 0 76
-0.013567 -0.019685 -0.186435 153 0 76
-0.359788 -0.422252 0.410263 0 127 127
-0.223550 -0.019685 0.146591 153 0 76
0.165123 0.726219 -0.236931 153 76 0
-0.258627 0.125633 -0.209820 153 76 0
0.028432 -0.019685 0.086592 153 0 76
0.221798 -0.731648 -0.219156 153 0 76
0.319421 -0.215178 0.080494 76 0 153
0.205370 -0.215178 0.159315 76 0 153
0.100434 0.392913 -0.284392 76 0 153
-0.337162 -0.020279 0.234199 153 0 76
-0.087246 0.600295 -0.230098 76 0 153
-0.350715 -0.121166 -0.102597 153 0 76
-0.020217 0.691102 -0.232337 76 0 153
-0.372694 -0.215178 0.280704 76 0 153
-0.096104 -0.019685 0.267064 153 0 76
0.160714 -0.027756 0.486209 153 0 76
0.292144 0.535824 -0.187345 153 76 0
0.132116 -0.019685 0.455432 153 0 76
0.005405 0.368209 -0.283742 76 0 153
-0.097802 -0.019685 0.145455 153 0 76
0.166318 0.563029 -0.216347 76 0 153
0.207020 0.563738 -0.275831 76 0 153
0.066160 -0.019685 0.393629 153 0 76
-0.314833 -0.066720 -0.159767 153 0 76
0.180469 0.076329 -0.262135 153 76 0
-0.144636 0.355781 -0.284392 76 0 153
-0.037393 0.422449 -0.231898 76 0 153
-0.081970 0.201941 -0.282553 76 0 153
0.245672 -0.019685 0.383810 153 0 76
-0.323586 -0.019685 0.358165 153 0 76
0.335176 -0.418602 0.413788 76 153 0
-0.174716 0.509157 -0.284392 76 0 153
0.003144 0.758201 -0.231749 153 76 0
0.073023 -0.019685 0.016712 153 0 76
-0.202171 -0.215178 0.008291 76 0 153
-0.147370 -0.019685 0.102956 153 0 76
-0.261354 0.267095 -0.224005 76 0 153
-0.076086 0.388957 -0.284392 76 0 153
-0.195598 -0.019685 -0.063081 153 0 76
0.100341 0.111686 -0.266183 76 0 153
-0.388504 -0.133416 0.060150 153 0 76
0.309540 0.472898 -0.198063 153 76 0
0.334017 -0.589760 0.467346 76 153 0
0.072295 0.635339 -0.188967 76 0 153
-0.188524 0.667176 -0.219485 76 0 153
0.272909 0.244803 -0.244953 153 76 0
0.060298 -0.215178 -0.028518 76 0 153
0.087416 0.106148 -0.212383 76 0 153
-0.011889 -0.114762 0.542681 153 0 76
-0.204132 0.224964 -0.216756 76 0 153
0.231947 -0.598380 -0.195143 153 0 76
-0.043488 0.421926 -0.188967 76 0 153
-0.248666 -0.215178 0.432822 76 0 153
-0.068481 -0.177388 -0.309604 76 0 153
0.129448 0.131491 -0.200138 76 0 153
-0.117347 -0.215178 -0.286198 76 0 153
0.334072 -0.038216 0.256172 153 0 76
0.189553 -0.019685 0.314083 153 0 76
0.228042 -0.794257 -0.184008 153 0 76
0.023404 -0.019685 0.264349 153 0 76
0.018738 -0.215178 -0.061539 76 0 153
-0.248635 -0.215178 0.200537 76 0 153
-0.388158 -0.079054 0.369014 153 0 76
-0.233350 -0.215178 -0.142986 76 0 153
-0.128099 -0.019685 -0.156822 153 0 76
-0.005436 0.129765 -0.188967 76 0 153
-0.342016 -0.688161 0.420251 0 127 127
0.013758 0.395802 -0.284392 76 0 153
0.321434 -0.162889 0.409544 76 153 0
-0.125366 0.477198 -0.284392 76 0 153
-0.195139 0.050234 -0.262135 76 0 153
0.188199 0.423729 -0.264438 76 0 153
-0.144977 -0.215178 -0.200099 76 0 153
0.117156 0.159733 -0.223508 76 0 153
0.337386 -0.748103 0.424060 76 153 0
-0.258202 0.647467 -0.206344 153 76 0
-0.067398 -0.215178 0.104322 76 0 153
0.168090 0.469199 -0.268077 76 0 153
-0.084091 0.105396 -0.188967 76 0 153
0.143330 -0.215178 0.450953 76 0 153
0.225519 -0.656235 -0.186047 153 0 76
0.310431 -0.505262 0.473733 76 153 0
-0.316218 -0.195192 0.430573 0 127 127
0.010607 -0.215178 0.225462 76 0 153
0.075712 -0.215178 -0.265681 76 0 153
0.354745 -0.166699 0.477153 76 0 153
0.339396 -0.149734 -0.012467 76 0 153
-0.130239 0.369248 -0.188967 76 0 153
-0.238009 0.519709 -0.210627 76 0 153
0.163332 -0.215178 0.395455 76 0 153
-0.347997 -0.042164 0.460742 153 0 76
-0.194443 -0.215178 -0.092841 76 0 153
0.056711 -0.215178 0.264655 76 0 153
-0.095788 -0.103609 -0.306132 153 0 76
-0.114803 -0.069078 -0.300731 153 0 76
-0.112944 0.609880 -0.284392 76 0 153
0.176754 -0.769894 -0.210627 153 0 76
0.181112 -0.336274 -0.174121 153 0 76
-0.003853 -0.030823 0.515911 153 0 76
0.228759 0.427197 -0.255903 76 0 153
-0.063571 0.299297 -0.284392 76 0 153
-0.124419 -0.215178 -0.086299 76 0 153
-0.346755 -0.828951 0.461856 0 127 127
0.041011 0.388432 -0.188967 76 0 153
-0.029282 0.364699 -0.284156 76 0 153
-0.214362 0.480339 -0.214905 76 0 153
0.050364 0.095079 -0.284380 76 0 153
-0.064717 -0.019685 0.018496 153 0 76
-0.297524 -0.314761 -0.163791 76 0 153
-0.243846 0.569378 -0.225172 76 0 153
-0.254116 0.604311 -0.207301 76 0 153
0.186625 0.417318 -0.188967 76 0 153
-0.351120 -0.310251 0.415397 0 127 127
0.059010 -0.215178 0.520364 76 0 153
-0.319253 -0.187280 0.477153 0 127 127
0.130338 -0.215178 -0.107296 76 0 153
-0.218214 -0.215178 0.109879 76 0 153
0.037988 0.511779 -0.284392 76 0 153
-0.050756 0.088584 -0.203823 76 0 153
-0.268281 -0.255905 -0.195475 76 0 153
-0.251227 0.178631 -0.260028 153 76 0
0.189141 -0.104951 -0.227435 153 0 76
-0.083284 0.515278 -0.230402 76 0 153
0.150523 0.345415 -0.271255 76 0 153
-0.354272 -0.153310 -0.092901 76 0 153
-0.373023 -0.041117 0.379934 153 0 76
-0.139471 0.244761 -0.277841 76 0 153
-0.150083 0.266291 -0.224427 76 0 153
-0.236304 0.317798 -0.188967 76 0 153
-0.324238 0.498093 -0.189651 153 76 0
0.035853 -0.180571 -0.309111 76 0 153
-0.098105 -0.215178 -0.294613 76 0 153
0.233700 -0.759341 -0.192865 153 0 76
0.114177 -0.019685 0.374461 153 0 76
-0.212838 0.179688 -0.264210 76 0 153
-0.333233 -0.301327 0.458472 0 127 127
-0.106137 0.120985 -0.280696 76 0 153
-0.301735 -0.019685 0.261072 153 0 76
-0.314325 -0.021886 0.432927 153 0 76
-0.258240 -0.061083 0.493368 153 0 76
0.351998 -0.085916 0.269229 153 0 76
0.324462 -0.317630 0.475841 76 153 0
-0.373535 -0.754930 0.421002 0 127 127
-0.306946 -0.202864 -0.165373 76 0 153
-0.250118 -0.019685 0.417123 153 0 76
-0.167717 -0.019685 -0.155834 153 0 76
-0.239203 -0.019685 0.314158 153 0 76
0.093898 0.340276 -0.188967 76 0 153
-0.054180 -0.019685 -0.007354 153 0 76
-0.390268 -0.184817 0.418464 0 127 127
-0.319335 0.359262 -0.191068 76 0 153
0.181829 0.135868 -0.265591 153 76 0
0.289878 0.503520 -0.187999 153 76 0
-0.182772 0.185466 -0.188967 76 0 153
0.245162 0.160934 -0.220844 153 76 0
-0.280029 -0.312200 -0.202352 76 0 153
-0.289253 -0.691071 -0.159614 76 0 153
0.330050 -0.269645 0.409965 76 153 0
0.014585 0.614442 -0.188967 76 0 153
-0.321603 -0.225723 0.409544 0 127 127
0.261931 -0.215178 0.336976 76 0 153
0.128019 0.401562 -0.284392 76 0 153
0.017834 0.396359 -0.231373 76 0 153
-0.266844 -0.636192 -0.148253 76 0 153
-0.041808 0.273436 -0.283835 76 0 153
0.246218 0.408731 -0.239538 76 0 153
0.245317 0.376859 -0.279507 76 0 153
-0.297359 -0.365469 -0.196729 76 0 153
-0.241001 0.525296 -0.188967 76 0 153
0.346175 -0.616768 0.444556 76 153 0
0.193689 0.400190 -0.284392 76 0 153
-0.287016 -0.700375 -0.193529 76 0 153
0.145904 -0.019685 0.102423 153 0 76
0.141962 -0.215178 0.143008 76 0 153
-0.284991 -0.826586 -0.189183 76 0 153
0.154476 0.593078 -0.284392 76 0 153
-0.344812 -0.242030 0.409544 0 127 127
-0.285268 0.422442 -0.239813 76 0 153
0.303919 -0.215029 -0.124880 76 0 153
-0.370972 -0.289663 0.425429 0 127 127
-0.265108 -0.019685 0.217938 153 0 76
0.106804 -0.045274 0.518639 153 0 76
0.169909 0.684838 -0.267747 153 76 0
-0.278624 0.530351 -0.253609 76 0 153
0.141767 0.064314 -0.220344 153 76 0
0.182714 -0.215178 0.421528 76 0 153
0.036942 0.435545 -0.284392 76 0 153
0.305028 0.492706 -0.223385 153 76 0
-0.300876 -0.400303 -0.188480 76 0 153
0.005921 -0.194625 0.541808 76 0 153
0.155265 0.416107 -0.284392 76 0 153
-0.209651 -0.215178 0.322601 76 0 153
-0.241006 0.096115 -0.247738 76 0 153
0.177841 -0.223130 -0.227979 153 0 76
-0.168063 0.371448 -0.188967 76 0 153
-0.319226 -0.363495 0.432892 0 127 127
0.120354 0.200060 -0.223097 76 0 153
-0.144493 0.502249 -0.188967 76 0 153
-0.180394 0.333585 -0.188967 76 0 153
0.229003 -0.184981 -0.225117 76 0 153
0.238385 -0.215178 0.245948 76 0 153
-0.041662 0.632006 -0.231789 76 0 153
0.138470 0.043355 -0.231598 153 76 0
-0.365247 -0.730306 0.464747 0 127 127
0.090423 0.520277 -0.188967 76 0 153
-0.380361 -0.155092 0.409544 0 127 127
0.029954 -0.019685 -0.086365 153 0 76
0.248804 0.295597 -0.199157 153 76 0
-0.333707 0.261391 -0.224668 153 76 0
-0.172353 -0.202142 0.524203 76 0 153
-0.055782 0.131227 -0.283478 76 0 153
0.168708 0.341673 -0.284392 76 0 153
0.228114 0.543368 -0.256054 153 76 0
-0.386255 -0.161859 0.022675 76 0 153
0.217194 -0.151765 -0.236925 153 0 76
-0.206240 -0.042422 -0.245552 153 0 76
-0.216808 -0.215178 -0.218213 76 0 153
-0.266105 -0.215178 0.436273 76 0 153
0.112112 0.203181 -0.276207 76 0 153
0.171453 0.567567 -0.267468 76 0 153
-0.045476 -0.215178 0.089071 76 0 153
-0.262420 -0.020845 0.443621 153 0 76
0.144531 0.322271 -0.188967 76 0 153
0.101355 -0.215178 0.392489 76 0 153
0.196436 -0.398634 -0.235679 153 0 76
-0.251036 -0.802999 -0.148947 76 0 153
0.027760 -0.114632 0.540739 153 0 76
-0.274722 -0.792686 -0.203920 76 0 153
0.286059 -0.444769 0.435632 76 153 0
-0.150404 0.445684 -0.188967 76 0 153
-0.259695 0.386167 -0.258044 76 0 153
-0.229089 -0.215178 0.163944 76 0 153
-0.351729 -0.274049 0.475396 0 127 127
0.209702 -0.175187 -0.244418 153 0 76
-0.034270 0.245482 -0.231978 76 0 153
-0.157879 -0.215178 0.038851 76 0 153
0.182985 -0.191211 0.511593 76 0 153
-0.028707 0.551527 -0.232120 76 0 153
-0.167721 0.701642 -0.222159 153 76 0
0.117436 -0.019685 0.036172 153 0 76
-0.277020 -0.215178 0.410269 76 0 153
-0.036619 0.116791 -0.231918 76 0 153
-0.278801 -0.030366 -0.165030 153 0 76
-0.156914 -0.019685 0.265539 153 0 76
-0.352918 -0.807597 0.475537 0 127 127
-0.220675 0.680905 -0.265813 153 76 0
0.310908 -0.215178 0.253559 76 0 153
-0.265182 -0.659499 -0.149181 76 0 153
-0.033110 -0.019685 0.408871 153 0 76
-0.217831 -0.215178 -0.025246 76 0 153
0.199756 0.452649 -0.210297 76 0 153
-0.131277 0.500130 -0.284392 76 0 153
-0.081365 0.313099 -0.188967 76 0 153
0.198309 -0.215178 0.215279 76 0 153
0.175632 0.210319 -0.266712 76 0 153
0.163664 -0.130357 -0.267901 76 0 153
-0.267510 0.282811 -0.202187 153 76 0
-0.040943 0.477651 -0.284392 76 0 153
0.185023 -0.019685 0.090828 153 0 76
0.183554 -0.019685 0.427553 153 0 76
0.249667 -0.215178 0.311056 76 0 153
-0.124179 -0.019685 0.307203 153 0 76
-0.034712 0.384086 -0.284017 76 0 153
-0.316218 -0.177491 0.463246 0 127 127
0.110172 -0.025860 0.495230 153 0 76
0.231790 0.142274 -0.240734 153 76 0
0.351998 -0.122753 0.067829 153 0 76
0.175691 -0.477373 -0.216658 153 0 76
-0.155416 0.755245 -0.238492 153 76 0
0.153232 0.462862 -0.188967 76 0 153
0.095328 -0.077885 -0.295454 153 0 76
0.210936 -0.611460 -0.174732 153 0 76
0.006549 -0.024072 0.503625 153 0 76
0.351998 -0.093550 0.249829 153 0 76
-0.246628 -0.215178 -0.009859 76 0 153
0.152753 0.540001 -0.270851 76 0 153
-0.210174 0.593384 -0.284392 76 0 153
-0.335971 -0.626105 0.464767 0 127 127
0.109015 0.565142 -0.188967 76 0 153
-0.191425 0.277834 -0.271105 76 0 153
0.066396 0.183759 -0.280670 76 0 153
0.016825 0.683683 -0.188967 76 0 153
-0.096914 -0.019685 -0.088880 153 0 76
0.098023 -0.019685 0.248039 153 0 76
-0.005352 -0.082918 0.542246 153 0 76
-0.079420 -0.215178 0.215925 76 0 153
0.200931 0.062828 -0.229018 153 0 76
0.351998 -0.124569 0.380766 153 0 76
0.252411 0.250804 -0.198311 153 76 0
-0.359957 -0.570938 0.414809 0 127 127
-0.352942 -0.215178 0.468794 0 127 127
0.082329 0.742094 -0.279446 153 76 0
-0.100247 -0.019685 -0.025495 153 0 76
0.328708 -0.215178 0.328739 76 0 153
0.082983 -0.147615 -0.298692 76 0 153
-0.218272 0.611111 -0.202256 76 0 153
0.203142 -0.215178 0.355016 76 0 153
0.113733 -0.215178 0.260388 76 0 153
0.108394 -0.158392 0.530720 76 0 153
-0.388504 -0.098008 0.406893 153 0 76
0.182312 -0.019685 0.006355 153 0 76
0.224011 -0.019685 0.375539 153 0 76
0.031115 0.215552 -0.231034 76 0 153
0.043992 0.163614 -0.284392 76 0 153
0.287183 0.356127 -0.240828 153 76 0
-0.297519 -0.343176 -0.153148 76 0 153
0.021125 0.347590 -0.188967 76 0 153
0.218844 0.611358 -0.258226 153 76 0
-0.272820 0.416737 -0.202919 76 0 153
-0.186389 0.250495 -0.188967 76 0 153
0.013858 0.474941 -0.231475 76 0 153
-0.120723 0.610814 -0.227525 76 0 153
-0.251551 -0.279405 -0.197602 76 0 153
-0.260072 -0.019685 0.191043 153 0 76
-0.157841 0.657894 -0.223430 76 0 153
-0.217238 0.228595 -0.284392 76 0 153
-0.153639 0.173164 -0.188967 76 0 153
0.021392 -0.019685 0.403012 153 0 76
-0.373628 -0.584629 0.422741 0 127 127
-0.373676 -0.097046 -0.046568 153 0 76
0.108043 -0.215178 0.026502 76 0 153
0.169055 0.489012 -0.188967 76 0 153
-0.149113 0.468135 -0.284392 76 0 153
-0.055710 0.703687 -0.231430 153 76 0
-0.214075 0.288208 -0.284392 76 0 153
0.112781 0.062312 -0.276121 153 76 0
-0.228999 -0.215178 0.291757 76 0 153
0.118677 0.663095 -0.223312 76 0 153
-0.282667 0.393150 -0.284392 76 0 153
0.193198 0.406288 -0.211483 76 0 153
-0.253167 -0.529379 -0.201470 76 0 153
-0.057010 0.661419 -0.283447 76 0 153
0.206962 -0.200021 -0.247158 153 0 76
0.071749 0.119017 -0.188967 76 0 153
-0.323071 -0.150014 0.435886 0 127 127
0.034540 -0.019685 -0.118707 153 0 76
0.162532 -0.218440 -0.212670 76 0 153
-0.317101 0.218992 -0.202938 153 76 0
0.186344 0.471467 -0.188967 76 0 153
-0.207728 0.582267 -0.216105 76 0 153
0.006181 -0.215178 -0.135436 76 0 153
-0.353340 -0.215178 0.225505 76 0 153
0.128093 -0.019685 -0.154696 153 0 76
-0.268378 0.467535 -0.203959 76 0 153
0.122086 0.422801 -0.222874 76 0 153
-0.357822 -0.629420 0.416307 0 127 127
-0.082871 0.118533 -0.284392 76 0 153
0.184392 -0.055066 -0.244431 153 0 76
0.199646 -0.215178 0.423492 76 0 153
-0.269490 -0.215178 0.354834 76 0 153
0.306244 -0.215178 0.462715 76 0 153
-0.381805 -0.055029 0.431484 153 0 76
-0.027900 -0.019685 0.333916 153 0 76
-0.241006 0.023602 -0.241307 76 0 153
0.312112 -0.285181 0.468805 76 153 0
-0.097998 -0.168846 -0.305851 76 0 153
-0.272452 0.564747 -0.203005 153 76 0
-0.286356 -0.254557 -0.210546 76 0 153
-0.236052 -0.131694 -0.227435 76 0 153
-0.175407 -0.215178 -0.173725 76 0 153
-0.051456 -0.215178 0.496513 76 0 153
-0.290060 0.284722 -0.198880 153 76 0
0.199459 0.314222 -0.262401 76 0 153
-0.239668 0.328363 -0.262377 76 0 153
0.068434 0.534693 -0.284392 76 0 153
-0.080598 0.339798 -0.188967 76 0 153
-0.065600 0.473418 -0.284392 76 0 153
-0.014219 -0.019685 0.222313 153 0 76
0.059173 -0.019685 0.461941 153 0 76
0.018476 0.150882 -0.283407 76 0 153
0.153067 0.016835 -0.227435 153 0 76
0.302580 -0.320980 0.410237 76 153 0
0.150823 0.713438 -0.271201 153 76 0
0.001172 0.686674 -0.284392 76 0 153
0.271291 -0.183603 -0.172174 76 0 153
-0.305626 -0.215178 -0.026539 76 0 153
-0.155957 0.733763 -0.223672 153 76 0
-0.024684 -0.037175 -0.296013 153 0 76
-0.354795 -0.700193 0.468634 0 127 127
-0.241006 -0.150365 -0.229124 76 0 153
-0.222234 -0.019685 -0.086447 153 0 76
-0.352214 -0.215178 0.146966 76 0 153
0.017138 0.407986 -0.188967 76 0 153
0.142156 0.496920 -0.272344 76 0 153
-0.155585 0.468392 -0.188967 76 0 153
0.038091 0.379923 -0.282846 76 0 153
-0.319221 0.532119 -0.191100 153 76 0
0.021694 0.284556 -0.283325 76 0 153
0.032481 0.428392 -0.230999 76 0 153
0.083325 -0.170868 -0.300686 76 0 153
-0.087162 0.094454 -0.236143 153 76 0
0.113727 -0.129807 0.529728 153 0 76
0.202146 0.129484 -0.261915 153 76 0
0.194159 -0.215178 0.016069 76 0 153
0.065495 -0.019685 -0.229948 153 0 76
0.298708 -0.215178 0.157989 76 0 153
-0.099910 0.283340 -0.188967 76 0 153
-0.373412 -0.129714 -0.048022 76 0 153
-0.132889 0.240046 -0.226589 76 0 153
-0.147129 -0.215178 -0.163906 76 0 153
-0.264070 0.253853 -0.204969 76 0 153
0.121014 -0.019685 0.130543 153 0 76
0.219568 -0.407125 -0.171459 153 0 76
-0.141503 -0.019685 0.298652 153 0 76
-0.172328 0.597601 -0.273618 76 0 153
0.017707 0.645866 -0.284392 76 0 153
0.170201 -0.215178 -0.167881 76 0 153
0.070057 0.520822 -0.228339 76 0 153
-0.106709 -0.019685 0.236830 153 0 76
0.226112 -0.616448 -0.184848 153 0 76
0.143679 0.559453 -0.272149 76 0 153
0.140892 0.636480 -0.272507 76 0 153
-0.251232 -0.019685 0.124022 153 0 76
0.059851 0.097191 -0.191438 76 0 153
-0.005686 0.017879 -0.283602 153 76 0
0.200311 0.018612 -0.262135 153 0 76
-0.270842 -0.215178 -0.177799 76 0 153
-0.308744 0.330509 -0.246178 153 76 0
0.087111 0.189811 -0.188967 76 0 153
0.197174 -0.215178 -0.013498 76 0 153
-0.368077 -0.035805 0.136712 153 0 76
0.174356 -0.019685 -0.167410 153 0 76
-0.381053 -0.215178 0.444148 76 0 153
-0.050963 0.329211 -0.188967 76 0 153
-0.226312 -0.103462 -0.262135 76 0 153
0.261436 -0.077754 -0.183554 153 0 76
0.245110 0.402820 -0.188967 153 76 0
0.310955 -0.022975 0.366181 153 0 76
0.351998 -0.163656 0.325656 76 0 153
0.197160 -0.787457 -0.226411 153 0 76
-0.381643 -0.054667 0.282454 153 0 76
-0.131521 0.286448 -0.188967 76 0 153
0.280972 0.405650 -0.190573 153 76 0
-0.116345 -0.019685 0.006518 153 0 76
-0.131325 -0.110099 0.532728 153 0 76
0.351998 -0.161476 0.127349 76 0 153
-0.110523 -0.184472 0.535805 76 0 153
-0.292134 -0.033070 -0.154539 153 0 76
0.190901 -0.215178 -0.138529 76 0 153
-0.140532 -0.048276 0.520892 153 0 76
-0.116734 -0.025561 0.499623 153 0 76
-0.039893 -0.215178 0.263583 76 0 153
-0.041134 0.672579 -0.231802 76 0 153
-0.160256 0.312741 -0.284392 76 0 153
-0.048080 0.208306 -0.283675 76 0 153
-0.064130 0.090060 -0.191741 76 0 153
-0.313758 -0.122719 -0.164885 153 0 76
-0.149454 0.346670 -0.188967 76 0 153
-0.289968 -0.428150 -0.201614 76 0 153
0.085428 -0.215178 0.217743 76 0 153
-0.344209 0.354323 -0.183880 153 76 0
-0.069592 0.582291 -0.283125 76 0 153
-0.048560 0.303856 -0.231612 76 0 153
0.069912 0.120503 -0.284392 76 0 153
-0.317783 -0.320489 0.450272 0 127 127
0.338336 -0.043399 0.288727 153 0 76
0.285332 -0.019685 0.278404 153 0 76
0.351998 -0.140618 0.322043 153 0 76
0.125033 -0.215178 0.157472 76 0 153
-0.332567 -0.255905 0.456672 0 127 127
-0.237057 -0.413268 -0.164219 76 0 153
-0.278802 0.462586 -0.188967 76 0 153
-0.017693 0.679671 -0.188967 76 0 153
0.144204 0.584682 -0.220031 76 0 153
-0.180952 0.031460 -0.227435 76 0 153
0.344688 -0.223425 0.409544 76 153 0
0.054311 -0.215178 0.294732 76 0 153
0.223881 0.273739 -0.265045 76 0 153
-0.334048 -0.337179 0.474277 0 127 127
0.279395 0.358652 -0.191028 153 76 0
0.155643 0.325009 -0.270329 76 0 153
-0.388504 -0.118594 0.262127 153 0 76
0.235312 -0.315648 -0.197431 153 0 76
-0.098677 -0.215178 0.384510 76 0 153
-0.347891 -0.215178 0.197817 76 0 153
0.000101 0.087918 -0.238869 76 0 153
0.337608 -0.066020 -0.029477 153 0 76
-0.232136 0.557469 -0.188967 76 0 153
-0.189424 -0.020531 -0.213555 153 0 76
-0.353675 0.372622 -0.233196 153 76 0
0.327437 -0.215178 0.235202 76 0 153
0.154718 -0.030423 -0.241121 153 0 76
-0.157025 -0.215178 0.115554 76 0 153
-0.085927 0.609759 -0.188967 76 0 153
-0.390268 -0.182491 0.437011 0 127 127
-0.156610 0.140713 -0.188967 76 0 153
0.073557 -0.215178 0.297607 76 0 153
-0.328811 0.424821 -0.188329 153 76 0
0.204416 0.496942 -0.209454 76 0 153
0.227872 -0.585122 -0.185589 153 0 76
0.069681 0.476739 -0.228367 76 0 153
0.314024 -0.195131 0.477153 76 153 0
-0.015979 -0.067185 -0.313417 153 0 76
0.185432 0.196419 -0.202623 76 0 153
0.198767 0.342044 -0.284392 76 0 153
-0.348340 -0.607487 0.471014 0 127 127
-0.193792 -0.115290 -0.227435 76 0 153
0.109087 0.040080 -0.275206 153 76 0
-0.075816 0.223366 -0.284392 76 0 153
0.306463 0.310953 -0.194657 153 76 0
-0.169119 -0.215178 0.151367 76 0 153
0.110797 0.633987 -0.284392 76 0 153
0.150523 0.197185 -0.219205 76 0 153
0.174012 -0.215178 0.238719 76 0 153
0.093182 0.434717 -0.226561 76 0 153
0.066535 0.178156 -0.228609 76 0 153
0.183937 -0.255905 -0.185502 153 0 76
-0.238987 0.247266 -0.262500 76 0 153
-0.082060 -0.215178 0.463912 76 0 153
-0.127646 -0.019685 0.135916 153 0 76
0.175398 -0.518192 -0.212733 153 0 76
-0.357117 -0.337953 0.479349 0 127 127
0.347201 -0.059269 0.290432 153 0 76
-0.215744 -0.019685 0.116199 153 0 76
-0.026538 -0.215178 0.452799 76 0 153
0.350056 -0.068403 0.051558 153 0 76
-0.217885 0.642347 -0.214268 153 76 0
-0.252415 -0.591101 -0.198546 76 0 153
0.111880 -0.213485 -0.289302 76 0 153
0.134574 -0.019685 0.437521 153 0 76
0.216911 0.294062 -0.258679 76 0 153
-0.215785 0.269225 -0.188967 76 0 153
0.076121 -0.094140 -0.303559 153 0 76
0.184870 0.057209 -0.262135 153 0 76
0.314504 0.426081 -0.224278 153 76 0
0.139114 0.085017 -0.262135 153 0 76
0.026705 0.269316 -0.231146 76 0 153
0.333974 -0.072616 0.474208 153 0 76
0.071428 -0.019685 0.161024 153 0 76
-0.272672 0.498341 -0.269840 76 0 153
-0.107984 -0.019685 0.354388 153 0 76
0.055181 0.506232 -0.188967 76 0 153
-0.278456 0.306817 -0.253649 153 76 0
-0.106945 -0.215178 0.091004 76 0 153
0.302066 -0.043078 -0.095696 153 0 76
0.161001 -0.215178 0.453822 76 0 153
0.219535 0.126868 -0.241828 153 76 0
0.327798 -0.255905 0.460439 76 153 0
0.083077 0.664236 -0.227338 153 76 0
0.217704 0.573183 -0.258493 76 0 153
0.022108 0.707942 -0.271550 76 0 153
0.302472 -0.255905 0.459991 76 153 0
0.086237 -0.050256 0.524740 153 0 76
-0.197127 0.580736 -0.284392 76 0 153
-0.283614 -0.148441 0.484512 76 0 153
-0.048212 -0.019685 -0.041377 153 0 76
-0.030976 0.058433 -0.284112 153 76 0
-0.300816 -0.026301 -0.127767 153 0 76
-0.117350 -0.215178 -0.149605 76 0 153
-0.003667 -0.215178 0.280277 76 0 153
0.030078 0.179397 -0.231060 76 0 153
-0.114854 0.506311 -0.227976 76 0 153
-0.032722 0.093905 -0.188967 76 0 153
-0.277981 -0.021312 -0.134989 153 0 76
-0.286708 0.403192 -0.224841 76 0 153
-0.247890 0.685222 -0.257486 153 76 0
0.164561 0.449316 -0.284392 76 0 153
0.227702 -0.166678 -0.173118 153 0 76
-0.178545 0.035131 -0.246073 76 0 153
-0.340590 -0.578383 0.417257 0 127 127
-0.386762 -0.088811 0.025465 153 0 76
0.175179 -0.019685 -0.055172 153 0 76
-0.354803 -0.459545 0.475955 0 127 127
0.224230 0.393450 -0.284392 76 0 153
0.218327 -0.849088 -0.194651 153 0 76
0.176637 -0.022528 -0.206032 153 0 76
-0.255110 -0.020041 -0.150802 153 0 76
-0.037197 0.709901 -0.197769 76 0 153
0.065657 0.714160 -0.280727 153 76 0
0.341752 -0.691671 0.433243 76 153 0
-0.327316 0.305375 -0.188762 153 76 0
0.294928 -0.737043 0.450046 76 153 0
-0.238085 -0.495372 -0.170426 76 0 153
-0.346306 0.487424 -0.203503 153 76 0
-0.139563 -0.019685 0.391096 153 0 76
0.220281 -0.543479 -0.227571 153 0 76
0.180446 -0.823346 -0.197082 153 0 76
0.161399 -0.070610 -0.267648 153 0 76
0.351998 -0.207508 0.051037 76 0 153
0.347504 -0.569705 0.441358 76 153 0
0.018306 0.742971 -0.283412 153 76 0
0.187654 -0.234730 -0.237792 153 0 76
-0.383091 -0.057897 0.219897 153 0 76
0.315527 -0.298699 0.418769 76 153 0
0.172259 0.120127 -0.267322 153 76 0
-0.133956 0.215953 -0.278550 76 0 153
-0.016147 0.545921 -0.188967 76 0 153
0.336029 -0.215178 0.078554 76 0 153
-0.160069 0.184382 -0.223143 76 0 153
-0.201941 0.230584 -0.188967 76 0 153
-0.074092 -0.215178 -0.224951 76 0 153
-0.029243 0.522187 -0.232107 76 0 153
0.138470 -0.014642 -0.230262 153 0 76
0.224563 0.298471 -0.284392 76 0 153
0.175050 0.688354 -0.214767 153 76 0
-0.239341 -0.393638 -0.157535 76 0 153
0.042133 0.566902 -0.284392 76 0 153
0.200931 -0.118170 -0.259765 153 0 76
0.019932 -0.215178 0.147730 76 0 153
0.200931 -0.205737 -0.231458 153 0 76
-0.279539 -0.187635 -0.206722 76 0 153
-0.342767 -0.143716 -0.119806 153 0 76
0.234531 -0.215178 0.153411 76 0 153
0.178707 0.160072 -0.266156 76 0 153
0.344610 -0.188618 -0.005617 76 0 153
-0.250905 0.341636 -0.284392 76 0 153
-0.052226 -0.127723 -0.311670 76 0 153
-0.318399 -0.230402 -0.176825 76 0 153
-0.368935 -0.289633 0.462835 0 127 127
-0.376309 -0.045256 0.097009 153 0 76
0.337800 -0.195537 0.409544 76 153 0
-0.107326 -0.019685 -0.170437 153 0 76
0.155935 -0.215178 -0.150077 76 0 153
-0.306596 -0.175128 0.479230 76 0 153
-0.206007 0.509761 -0.188967 76 0 153
0.281280 -0.224651 0.448091 76 153 0
-0.047202 0.018685 -0.258231 153 76 0
0.165971 0.089858 -0.227435 153 0 76
-0.012317 -0.215178 0.103508 76 0 153
0.078845 -0.215178 -0.029613 76 0 153
-0.257127 0.533932 -0.188967 76 0 153
-0.388504 -0.154296 0.229288 76 0 153
0.236079 -0.199466 -0.181495 153 0 76
0.226431 0.413177 -0.188967 76 0 153
0.293848 -0.438724 0.465945 76 153 0
0.183421 -0.215178 0.103511 76 0 153
-0.227488 0.367922 -0.212530 76 0 153
0.205969 0.343322 -0.188967 76 0 153
0.090350 -0.019685 0.016130 153 0 76
0.091728 0.690082 -0.223294 153 76 0
-0.116355 -0.215178 0.438464 76 0 153
-0.302457 0.190826 -0.242788 153 76 0
-0.264650 0.133203 -0.245544 153 76 0
0.212438 0.679411 -0.232144 153 76 0
0.082848 -0.215178 0.341969 76 0 153
0.191485 -0.087686 -0.247518 153 0 76
-0.387810 -0.153451 0.320019 153 0 76
0.221415 0.491798 -0.257624 153 76 0
0.151309 0.213811 -0.219063 76 0 153
0.031321 0.315162 -0.284392 76 0 153
-0.115589 -0.133489 -0.302378 153 0 76
-0.291677 -0.360152 -0.147886 76 0 153
-0.190786 0.502761 -0.284392 76 0 153
0.225675 -0.227227 -0.228445 153 0 76
0.214636 -0.298958 -0.179532 153 0 76
-0.217398 0.426802 -0.214356 76 0 153
0.223953 -0.783896 -0.211272 153 0 76
0.327739 -0.199219 -0.073299 76 0 153
0.189973 -0.215178 0.476337 76 0 153
-0.384137 -0.497393 0.449169 0 127 127
0.330124 -0.799411 0.472535 76 153 0
0.186853 0.457468 -0.284392 76 0 153
-0.378823 -0.305776 0.436982 0 127 127
-0.071669 0.362741 -0.188967 76 0 153
-0.187920 -0.019685 -0.089328 153 0 76
0.336626 -0.599329 0.421716 76 153 0
0.279647 -0.020532 -0.057733 153 0 76
-0.135127 0.381254 -0.226350 76 0 153
0.308903 -0.215178 0.285995 76 0 153
0.351998 -0.191617 0.162513 76 0 153
0.351998 -0.212429 0.333330 76 0 153
-0.036791 0.298046 -0.188967 76 0 153
0.187188 -0.307657 -0.181275 153 0 76
0.355330 -0.238490 0.443930 76 153 0
-0.315411 0.443781 -0.192201 153 76 0
-0.094859 0.701709 -0.205930 76 0 153
0.138470 -0.175285 -0.233246 153 0 76
0.145096 0.145670 -0.268303 76 0 153
0.202722 0.216419 -0.209760 153 76 0
-0.039836 -0.019685 -0.120467 153 0 76
-0.233499 -0.203769 -0.227435 76 0 153
0.125076 0.619897 -0.188967 76 0 153
-0.282572 0.385837 -0.200634 76 0 153
-0.177985 -0.215178 -0.116548 76 0 153
0.233454 -0.215178 -0.106519 76 0 153
0.351593 -0.078051 0.434570 153 0 76
-0.139730 0.089390 -0.225758 153 76 0
0.223599 -0.421651 -0.229658 153 0 76
0.169623 0.269838 -0.188967 76 0 153
-0.304685 -0.035646 0.458442 153 0 76
-0.015556 0.466488 -0.232227 76 0 153
-0.179945 -0.215178 -0.154065 76 0 153
-0.210306 0.553922 -0.284392 76 0 153
0.296116 -0.251101 0.477153 76 153 0
-0.268476 -0.215178 -0.202523 76 0 153
0.344797 -0.053908 0.436585 153 0 76
0.009707 -0.133082 -0.312435 153 0 76
-0.233939 -0.019685 0.043463 153 0 76
0.199477 0.588749 -0.262398 76 0 153
-0.306810 -0.215178 0.430582 0 127 127
0.078984 -0.215178 0.418554 76 0 153
-0.242388 -0.791040 -0.166614 76 0 153
0.106611 0.464279 -0.284392 76 0 153
0.031030 0.097675 -0.284392 76 0 153
0.159975 -0.215178 -0.132429 76 0 153
-0.076838 -0.215178 0.073503 76 0 153
-0.153359 0.387879 -0.284392 76 0 153
-0.057948 -0.215178 -0.063607 76 0 153
-0.109922 0.697192 -0.282240 76 0 153
0.128635 -0.215178 -0.188128 76 0 153
0.044288 -0.215178 -0.095418 76 0 153
-0.272184 0.500481 -0.233992 76 0 153
0.163771 0.629247 -0.203874 76 0 153
-0.233199 0.448814 -0.263547 76 0 153
0.175662 -0.164381 -0.225801 153 0 76
0.035422 -0.019685 0.052888 153 0 76
0.338348 -0.043414 0.315647 153 0 76
-0.143848 -0.019685 -0.057474 153 0 76
0.257335 -0.215178 -0.128625 76 0 153
0.351998 -0.142975 0.090686 153 0 76
0.141962 -0.215178 0.172593 76 0 153
-0.043936 0.706449 -0.284392 76 0 153
0.073208 0.532267 -0.188967 76 0 153
-0.233654 -0.340746 -0.168351 76 0 153
-0.135041 -0.215178 -0.255725 76 0 153
0.192249 -0.019685 0.392738 153 0 76
-0.176865 0.355313 -0.273034 76 0 153
0.327851 -0.215178 -0.049326 76 0 153
-0.108535 0.385532 -0.188967 76 0 153
0.323248 -0.353923 0.478723 76 153 0
0.224031 -0.215178 0.190924 76 0 153
0.196779 0.348776 -0.210835 76 0 153
-0.156150 0.350554 -0.223647 76 0 153
-0.353080 0.407002 -0.181317 153 76 0
0.182637 0.293715 -0.213394 76 0 153
0.084024 -0.215178 -0.126480 76 0 153
0.124123 0.045624 -0.257323 153 76 0
0.174928 -0.548290 -0.196176 153 0 76
-0.136713 0.607712 -0.284392 76 0 153
-0.134756 0.392614 -0.284392 76 0 153
-0.388504 -0.155895 0.435698 76 0 153
-0.331192 -0.215178 0.167384 76 0 153
0.334253 -0.618300 0.466080 76 153 0
-0.358042 -0.055168 -0.070901 153 0 76
0.008752 0.677762 -0.231606 76 0 153
-0.100744 0.594404 -0.188967 76 0 153
-0.219062 -0.086933 -0.227435 76 0 153
0.027032 0.319760 -0.231138 76 0 153
-0.082898 -0.019685 0.409673 153 0 76
0.040007 0.022314 -0.271596 153 76 0
0.076192 0.280439 -0.284392 76 0 153
0.303774 -0.764817 0.470174 76 153 0
0.019865 -0.019685 -0.144443 153 0 76
0.286856 -0.804756 0.450642 76 153 0
0.270480 0.592472 -0.241095 153 76 0
-0.004497 0.669141 -0.188967 76 0 153
-0.227925 -0.166350 0.508585 76 0 153
-0.172628 -0.019685 0.010537 153 0 76
-0.249398 -0.089827 -0.231834 76 0 153
0.285051 -0.019685 0.310283 153 0 76
0.193862 -0.848906 -0.214039 153 0 76
-0.001869 -0.019685 0.285729 153 0 76
-0.220046 -0.215178 0.215646 76 0 153
-0.232516 0.368263 -0.284392 76 0 153
-0.388504 -0.095343 0.050310 153 0 76
0.191750 -0.196203 -0.166755 153 0 76
0.106275 0.220949 -0.276957 76 0 153
-0.230196 0.647881 -0.264091 153 76 0
-0.075178 -0.215178 -0.058427 76 0 153
0.005821 -0.019685 0.043124 153 0 76
0.219799 0.263318 -0.246713 76 0 153
-0.196261 -0.215178 -0.149538 76 0 153
-0.388504 -0.108698 0.361801 153 0 76
-0.260824 0.276123 -0.257780 153 76 0
0.098242 0.417092 -0.277990 76 0 153
0.039264 -0.019685 -0.023521 153 0 76
-0.293794 -0.283644 -0.165663 76 0 153
-0.148111 0.339653 -0.284392 76 0 153
-0.283309 0.448633 -0.260784 76 0 153
0.349130 -0.501334 0.437907 76 153 0
-0.078732 0.609631 -0.284392 76 0 153
0.268617 -0.019685 0.351840 153 0 76
-0.115785 -0.215178 -0.040303 76 0 153
0.078083 0.397884 -0.188967 76 0 153
0.344668 -0.053620 0.352944 153 0 76
-0.247700 0.323362 -0.208804 76 0 153
-0.099719 -0.019685 0.415368 153 0 76
0.033224 -0.168492 0.540471 76 0 153
-0.225057 -0.179976 -0.262135 76 0 153
0.263195 -0.215178 0.434745 76 0 153
0.105837 -0.215178 0.167496 76 0 153
-0.313935 0.481891 -0.244678 153 76 0
-0.253167 0.246194 -0.237959 153 76 0
-0.241006 -0.018415 -0.244809 76 0 153
-0.197177 -0.120698 -0.269848 153 0 76
0.008585 0.606684 -0.283660 76 0 153
-0.042600 0.264961 -0.188967 76 0 153
-0.153803 -0.215178 0.272713 76 0 153
-0.141766 -0.020190 0.478005 153 0 76
0.153623 -0.215178 0.327300 76 0 153
0.216205 -0.320011 -0.168534 153 0 76
-0.196272 -0.215178 0.501813 76 0 153
0.139124 0.155997 -0.188967 76 0 153
0.095435 -0.032968 -0.270639 153 0 76
-0.383698 -0.418764 0.428651 0 127 127
-0.272389 0.300763 -0.188967 76 0 153
0.159292 0.366630 -0.188967 76 0 153
-0.326859 -0.670829 0.443351 0 127 127
-0.212126 0.039989 -0.262135 76 0 153
0.139898 -0.019685 -0.008473 153 0 76
-0.180487 -0.019685 0.344961 153 0 76
0.351998 -0.125729 0.264426 153 0 76
0.213015 -0.019685 0.218179 153 0 76
0.207617 -0.836069 -0.219781 153 0 76
-0.224909 -0.247681 -0.167270 76 0 153
-0.104485 -0.215178 0.177233 76 0 153
-0.100036 -0.045975 -0.293738 153 0 76
0.300732 -0.020296 0.240031 153 0 76
0.081572 0.031140 -0.239082 153 76 0
0.044405 0.223945 -0.188967 76 0 153
-0.020021 -0.215178 0.363311 76 0 153
-0.048623 -0.215178 -0.141973 76 0 153
-0.329449 -0.019694 0.269911 153 0 76
0.042705 -0.215178 0.178757 76 0 153
-0.250846 0.279608 -0.208067 76 0 153
-0.349837 -0.023863 0.224371 153 0 76
-0.310708 0.205150 -0.241142 153 76 0
-0.094062 0.735679 -0.229574 153 76 0
-0.079114 0.405699 -0.284392 76 0 153
-0.355171 -0.210675 0.409544 0 127 127
0.013183 -0.215178 -0.192988 76 0 153
-0.283239 -0.110658 -0.202198 153 0 76
0.106188 -0.019685 0.419859 153 0 76
-0.317189 0.256396 -0.191688 153 76 0
-0.320950 -0.214907 -0.156092 76 0 153
0.175682 0.183689 -0.188967 76 0 153
-0.371578 -0.231458 0.409544 0 127 127
-0.170252 0.132086 -0.216367 153 76 0
0.226489 0.523943 -0.256435 76 0 153
0.076842 0.302638 -0.227817 76 0 153
-0.048701 0.601305 -0.283659 76 0 153
-0.245112 -0.025318 -0.191176 153 0 76
0.112206 0.446980 -0.284392 76 0 153
-0.187512 0.311767 -0.271666 76 0 153
-0.214899 -0.215178 0.411418 76 0 153
-0.208246 0.722876 -0.268062 153 76 0
0.180539 0.608167 -0.202371 76 0 153
-0.248020 -0.364625 -0.146990 76 0 153
-0.326457 -0.038056 -0.111972 153 0 76
-0.388504 -0.142533 0.351487 76 0 153
-0.274847 0.191767 -0.254494 153 76 0
-0.176295 0.745255 -0.230574 153 76 0
0.042695 -0.215178 0.232406 76 0 153
-0.259510 0.371664 -0.284392 76 0 153
-0.320183 -0.222576 0.477153 0 127 127
0.194960 -0.511450 -0.172383 153 0 76
0.341758 -0.711140 0.434791 76 153 0
-0.206103 0.107022 -0.268450 153 76 0
0.138288 -0.215178 0.426268 76 0 153
0.203673 0.688745 -0.261638 153 76 0
0.168301 0.368315 -0.268038 76 0 153
0.162370 -0.025647 -0.262135 153 0 76
0.070073 0.620762 -0.228337 76 0 153
-0.065988 0.284113 -0.188967 76 0 153
-0.301119 0.575064 -0.248339 153 76 0
-0.090323 0.086365 -0.281911 76 0 153
-0.057487 0.737079 -0.231384 153 76 0
0.244736 0.292288 -0.252160 76 0 153
-0.129235 -0.176393 -0.296937 76 0 153
0.169449 -0.368696 -0.196292 153 0 76
0.244504 0.515688 -0.252214 153 76 0
0.227573 0.580263 -0.204131 153 76 0
-0.369821 -0.520124 0.469329 0 127 127
-0.270048 -0.215178 0.470687 76 0 153
0.025763 0.707245 -0.246519 153 76 0
0.203298 -0.019685 0.423249 153 0 76
-0.178545 0.092185 -0.260326 76 0 153
-0.276140 -0.609916 -0.202704 76 0 153
0.287349 0.290628 -0.240780 153 76 0
0.237990 0.322964 -0.265115 76 0 153
0.221250 -0.248741 -0.166665 153 0 76
-0.176442 -0.019685 -0.121936 153 0 76
0.192400 -0.810158 -0.172795 153 0 76
0.040439 0.355086 -0.188967 76 0 153
-0.015877 0.350724 -0.284392 76 0 153
0.071345 0.352291 -0.280290 76 0 153
-0.145358 0.745744 -0.277085 153 76 0
0.323434 -0.662132 0.417375 76 153 0
-0.279044 0.470372 -0.233132 76 0 153
0.145446 -0.019685 0.367534 153 0 76
-0.186539 -0.215178 0.342708 76 0 153
0.306536 -0.812567 0.472050 76 153 0
0.292313 -0.215178 0.429823 76 0 153
0.250789 -0.031950 0.459203 153 0 76
0.153531 -0.021590 -0.227435 153 0 76
-0.388504 -0.141527 0.299669 153 0 76
-0.279840 -0.215178 -0.085331 76 0 153
-0.116236 -0.019685 0.370758 153 0 76
-0.113529 0.269520 -0.280128 76 0 153
0.107394 -0.215178 0.444166 76 0 153
0.182411 -0.015571 -0.262135 153 0 76
-0.038589 -0.215178 0.509269 76 0 153
-0.054336 0.621718 -0.231465 76 0 153
0.096925 0.123892 -0.226109 76 0 153
-0.361693 -0.215178 0.249665 76 0 153
-0.065347 -0.110747 -0.310002 153 0 76
-0.095307 -0.019685 0.216721 153 0 76
0.284318 -0.401714 0.438906 76 153 0
0.211608 -0.137008 -0.232774 76 0 153
-0.345121 -0.645436 0.417570 0 127 127
-0.062141 -0.215178 0.002954 76 0 153
0.080572 0.494322 -0.227530 76 0 153
-0.388113 -0.078292 0.057874 153 0 76
-0.253700 -0.180465 -0.228682 76 0 153
-0.100655 -0.215178 0.155819 76 0 153
0.093630 0.599720 -0.284392 76 0 153
0.180077 -0.227428 -0.178429 153 0 76
0.170187 0.483659 -0.284392 76 0 153
0.059422 -0.215178 -0.200989 76 0 153
0.006064 0.107995 -0.284392 76 0 153
0.232527 0.143201 -0.209249 153 76 0
-0.146214 -0.215178 0.312746 76 0 153
-0.071175 0.423406 -0.188967 76 0 153
-0.328423 -0.150014 0.462280 0 127 127
-0.225864 0.197039 -0.249651 76 0 153
-0.340987 -0.281821 0.418901 0 127 127
-0.161225 -0.019685 0.139916 153 0 76
-0.286336 -0.743827 -0.158426 76 0 153
0.231109 0.532116 -0.203302 153 76 0
-0.207393 -0.016150 -0.227435 76 0 153
0.351998 -0.137384 0.345397 153 0 76
-0.169293 -0.215178 0.368806 76 0 153
-0.215221 0.503039 -0.266800 76 0 153
0.051906 0.645615 -0.284392 76 0 153
0.191445 0.539319 -0.263851 76 0 153
0.265063 0.234299 -0.195169 153 76 0
-0.284944 0.511025 -0.200078 76 0 153
-0.390268 -0.213107 0.420239 0 127 127
0.147339 0.373997 -0.284392 76 0 153
0.108389 -0.059666 0.526051 153 0 76
-0.050516 0.354635 -0.284392 76 0 153
0.242407 -0.019685 0.021213 153 0 76
-0.084170 -0.019685 -0.012191 153 0 76
-0.026579 -0.188713 0.542585 76 0 153
0.318352 -0.389815 0.478275 76 153 0
-0.300297 0.302386 -0.196481 153 76 0
-0.015879 0.780119 -0.250543 153 76 0
-0.019598 0.035392 -0.232331 153 76 0
-0.178545 -0.083290 -0.239550 76 0 153
0.232646 0.206055 -0.254992 153 76 0
-0.249054 0.440616 -0.208487 76 0 153
-0.169391 -0.215178 0.484945 76 0 153
0.186247 -0.685591 -0.220627 153 0 76
0.179621 -0.584547 -0.217169 153 0 76
-0.388504 -0.091216 0.252345 153 0 76
-0.221397 -0.195776 -0.170782 76 0 153
0.167114 -0.019685 0.165140 153 0 76
-0.084173 -0.019685 0.108601 153 0 76
-0.060420 -0.020318 0.489700 153 0 76
-0.089378 -0.049160 0.529001 153 0 76
0.307429 -0.233964 0.409544 76 153 0
-0.104360 0.463681 -0.228782 76 0 153
-0.118560 0.468302 -0.188967 76 0 153
0.109528 0.478744 -0.188967 76 0 153
-0.110372 0.200190 -0.188967 76 0 153
-0.388504 -0.133019 0.331100 153 0 76
0.080223 -0.019685 -0.086693 153 0 76
-0.030605 0.500843 -0.232072 76 0 153
-0.175027 0.537407 -0.273271 76 0 153
0.207533 -0.019685 0.235047 153 0 76
-0.242075 -0.215178 -0.197759 76 0 153
0.166226 -0.239192 -0.192280 153 0 76
-0.338830 -0.420534 0.473864 0 127 127
0.176251 0.190359 -0.214550 153 76 0
-0.067591 0.378465 -0.231126 76 0 153
0.241650 -0.023352 0.446277 153 0 76
-0.191509 0.417755 -0.188967 76 0 153
0.256325 0.191888 -0.197394 153 76 0
-0.137089 -0.019685 0.222551 153 0 76
0.076354 -0.019685 0.258852 153 0 76
0.018374 -0.215178 -0.078240 76 0 153
0.257788 0.368350 -0.249102 76 0 153
0.351998 -0.101990 0.059757 153 0 76
-0.352309 0.340926 -0.219362 153 76 0
0.200931 0.018767 -0.243832 153 0 76
-0.284096 -0.150851 -0.142522 76 0 153
-0.383075 -0.538862 0.447655 0 127 127
0.259973 0.522394 -0.196540 153 76 0
-0.214697 0.556466 -0.214844 76 0 153
-0.220995 -0.177247 -0.171184 76 0 153
0.217264 0.454151 -0.188967 76 0 153
-0.246121 0.591622 -0.261209 76 0 153
0.340979 -0.214963 0.475389 76 153 0
-0.261794 -0.781666 -0.195138 76 0 153
0.283038 0.451111 -0.189976 153 76 0
0.127358 -0.215178 0.042394 76 0 153
-0.342246 0.505247 -0.213389 153 76 0
-0.064880 0.370742 -0.283245 76 0 153
0.350352 -0.070042 0.098314 153 0 76
0.172733 0.509482 -0.267237 76 0 153
0.095275 -0.019685 0.181898 153 0 76
-0.077350 -0.215178 0.398919 76 0 153
0.185939 0.534048 -0.188967 76 0 153
-0.193881 0.364195 -0.270661 76 0 153
0.166306 -0.215178 0.215076 76 0 153
0.133504 0.450552 -0.273457 76 0 153
-0.216938 -0.019685 0.239803 153 0 76
-0.275583 0.146948 -0.242175 153 76 0
-0.348642 0.473122 -0.234650 153 76 0
-0.126482 -0.215178 -0.176335 76 0 153
-0.062681 0.099101 -0.284392 76 0 153
-0.377629 -0.775628 0.439381 0 127 127
0.298266 0.274969 -0.229543 153 76 0
0.057901 0.432367 -0.188967 76 0 153
-0.257247 -0.812496 -0.204061 76 0 153
0.300097 -0.380771 0.413319 76 153 0
-0.379000 -0.639803 0.451964 0 127 127
-0.205786 -0.019685 0.453055 153 0 76
-0.068002 -0.081739 0.540370 153 0 76
0.074054 0.357094 -0.188967 76 0 153
-0.345428 -0.521357 0.413445 0 127 127
-0.198976 -0.195858 -0.227435 76 0 153
-0.140972 0.532561 -0.277648 76 0 153
-0.279958 -0.215178 0.332906 76 0 153
0.191179 -0.824819 -0.220530 153 0 76
-0.363851 -0.041075 -0.013854 153 0 76
-0.060410 0.694579 -0.188967 76 0 153
-0.088932 -0.019685 0.288595 153 0 76
-0.077122 0.705092 -0.267310 153 76 0
0.203958 -0.447856 -0.235172 153 0 76
-0.001519 -0.215178 0.430745 76 0 153
0.092866 -0.169252 0.533017 76 0 153
0.313004 0.446142 -0.194845 153 76 0
0.159221 -0.215178 -0.115636 76 0 153
-0.118108 0.103099 -0.243121 153 76 0
-0.119189 -0.019699 0.474832 153 0 76
-0.256803 0.542154 -0.273441 76 0 153
0.335115 -0.765712 0.468422 76 153 0
0.107779 0.162642 -0.188967 76 0 153
0.002514 -0.138642 0.541975 153 0 76
0.283896 -0.215178 0.267836 76 0 153
-0.093719 0.126225 -0.188967 76 0 153
-0.317970 0.362469 -0.243512 153 76 0
-0.169456 0.470039 -0.284392 76 0 153
0.231346 0.503833 -0.191406 153 76 0
-0.183440 -0.162661 -0.262135 76 0 153
0.202371 -0.160713 0.504678 76 0 153
0.235438 -0.020350 -0.135428 153 0 76
-0.228533 -0.215178 0.458337 76 0 153
-0.388504 -0.178290 0.251126 76 0 153
-0.050634 0.280994 -0.231559 76 0 153
-0.328203 -0.020145 -0.001132 153 0 76
-0.122312 -0.036618 -0.278615 153 0 76
-0.302680 -0.395156 -0.166242 76 0 153
0.214888 -0.019975 0.441587 153 0 76
-0.116601 -0.215178 0.407944 76 0 153
0.195475 -0.298218 -0.225103 153 0 76
0.228037 -0.574985 -0.218787 153 0 76
0.085017 -0.019685 -0.160915 153 0 76
0.261558 0.492824 -0.196168 153 76 0
-0.387738 -0.386424 0.447459 0 127 127
-0.118109 -0.215178 -0.109356 76 0 153
-0.070588 0.447032 -0.188967 76 0 153
-0.030252 -0.019685 0.276876 153 0 76
-0.338103 0.460419 -0.185645 153 76 0
-0.356871 -0.809568 0.411857 0 127 127
-0.122142 0.675680 -0.188967 76 0 153
0.130012 0.526119 -0.284392 76 0 153
0.069178 0.395679 -0.284392 76 0 153
-0.188582 0.604788 -0.271528 76 0 153
-0.343514 -0.073270 0.474326 153 0 76
-0.169158 0.131193 -0.255459 153 76 0
-0.091062 0.406611 -0.229804 76 0 153
0.047391 0.601094 -0.188967 76 0 153
-0.126261 0.139767 -0.227099 76 0 153
-0.008925 -0.019685 0.270000 153 0 76
-0.326053 -0.414042 0.463608 0 127 127
-0.189244 -0.215178 0.222203 76 0 153
0.312769 -0.074673 -0.103787 153 0 76
-0.271382 0.347262 -0.255306 153 76 0
-0.238863 0.385098 -0.188967 76 0 153
-0.095044 0.095957 -0.269363 76 0 153
-0.058165 -0.019685 0.382126 153 0 76
-0.272582 -0.215178 0.242471 76 0 153
-0.066769 0.076951 -0.231147 153 76 0
-0.244920 0.424129 -0.188967 76 0 153
-0.262460 0.499559 -0.284392 76 0 153
0.142996 -0.019685 -0.166524 153 0 76
0.036776 0.092487 -0.209045 76 0 153
0.169225 0.438999 -0.215821 76 0 153
0.046544 0.325103 -0.230146 76 0 153
-0.279511 -0.476134 -0.145007 76 0 153
-0.259771 -0.215178 0.060637 76 0 153
-0.178343 -0.019685 0.037249 153 0 76
0.093824 0.035121 -0.267180 153 76 0
0.338918 -0.322218 0.412939 76 153 0
0.090198 0.690579 -0.274576 76 0 153
0.091768 0.621005 -0.278720 76 0 153
0.162719 0.303570 -0.269048 76 0 153
-0.374128 -0.650207 0.426574 0 127 127
0.106815 -0.194619 -0.291321 76 0 153
-0.344720 -0.021952 0.054509 153 0 76
-0.203834 0.168369 -0.254337 76 0 153
0.109662 0.086834 -0.276522 153 76 0
0.138696 0.547002 -0.220739 76 0 153
-0.333419 -0.554979 0.465513 0 127 127
0.107542 -0.215178 -0.209343 76 0 153
-0.378452 -0.601497 0.456309 0 127 127
-0.193898 0.294699 -0.270658 76 0 153
0.272450 -0.215178 -0.069379 76 0 153
0.216585 -0.215178 0.481401 76 0 153
-0.343381 0.297091 -0.198595 153 76 0
0.025822 0.707234 -0.194862 76 0 153
-0.015529 0.229064 -0.188967 76 0 153
0.351998 -0.132424 0.107090 153 0 76
-0.342705 -0.215178 0.331607 76 0 153
0.041661 0.093419 -0.224478 76 0 153
0.108717 0.511676 -0.224593 76 0 153
0.138470 -0.118047 -0.237302 153 0 76
0.154941 0.627708 -0.218405 76 0 153
0.203900 -0.465726 -0.234620 153 0 76
0.180247 -0.714712 -0.208948 153 0 76
0.098289 -0.019685 0.343233 153 0 76
-0.110900 -0.019685 0.102004 153 0 76
0.227637 0.365638 -0.204115 76 0 153
-0.181202 -0.019685 0.420726 153 0 76
-0.106063 0.182715 -0.188967 76 0 153
0.141395 -0.215178 0.059803 76 0 153
0.223996 -0.130029 -0.223698 153 0 76
0.281647 0.457940 -0.242428 153 76 0
0.355330 -0.255278 0.429942 76 153 0
0.230483 -0.150014 -0.205276 153 0 76
-0.203776 0.368617 -0.216820 76 0 153
0.151695 0.707766 -0.218993 153 76 0
-0.266058 -0.795837 -0.145088 76 0 153
0.232443 0.236741 -0.202990 153 76 0
-0.113275 -0.019685 -0.085971 153 0 76
0.339597 -0.045187 0.035253 153 0 76
0.242890 0.453159 -0.193130 76 0 153
-0.388128 -0.078541 0.163387 153 0 76
-0.231467 -0.215178 0.494943 76 0 153
0.351998 -0.202169 0.374645 76 0 153
-0.030868 0.590819 -0.284392 76 0 153
0.344375 -0.504201 0.460599 76 153 0
0.309771 0.457517 -0.234302 153 76 0
0.281280 -0.253639 0.429089 76 153 0
0.319058 -0.215178 -0.035766 76 0 153
0.159231 -0.019685 0.295774 153 0 76
0.240666 -0.215178 -0.141991 76 0 153
0.073272 -0.055200 -0.297566 153 0 76
-0.243722 0.197370 -0.261643 76 0 153
0.237368 -0.030488 -0.171318 153 0 76
0.133596 0.225106 -0.221395 76 0 153
0.088827 0.746969 -0.226896 153 76 0
0.218610 0.511456 -0.284392 76 0 153
0.240661 -0.215178 -0.073518 76 0 153
0.088228 0.276191 -0.226942 76 0 153
0.006561 -0.019685 -0.028568 153 0 76
-0.267242 0.472245 -0.256276 76 0 153
-0.293251 -0.019685 0.345850 153 0 76
0.162831 0.516668 -0.284392 76 0 153
0.186161 -0.019855 -0.180898 153 0 76
0.228291 0.284999 -0.193666 76 0 153
-0.286436 -0.297677 -0.193128 76 0 153
-0.298934 -0.195944 -0.197967 76 0 153
-0.167253 0.384442 -0.274270 76 0 153
-0.155571 0.295046 -0.223721 76 0 153
-0.283292 0.635885 -0.200465 153 76 0
0.047817 -0.019685 0.084404 153 0 76
-0.364054 -0.590212 0.469815 0 127 127
0.315888 -0.215178 0.353466 76 0 153
-0.058918 -0.019685 0.463835 153 0 76
-0.388504 -0.195340 0.038460 76 0 153
-0.084907 0.282089 -0.284392 76 0 153
-0.204029 -0.215178 -0.262387 76 0 153
-0.024485 -0.019685 0.424658 153 0 76
-0.285800 0.538764 -0.199878 76 0 153
-0.238735 0.416154 -0.210495 76 0 153
0.297855 -0.180203 -0.138008 76 0 153
0.351998 -0.130579 0.043902 153 0 76
-0.048975 0.354023 -0.188967 76 0 153
0.290983 -0.129038 -0.148097 153 0 76
0.060279 -0.039820 -0.289357 153 0 76
-0.311728 -0.151146 -0.185174 76 0 153
-0.388855 -0.363661 0.444235 0 127 127
-0.388504 -0.141473 0.377763 153 0 76
-0.279489 0.329214 -0.242645 153 76 0
-0.167323 0.505793 -0.222211 76 0 153
0.162509 -0.215178 0.502318 76 0 153
0.351998 -0.180864 0.081159 76 0 153
-0.030397 0.198616 -0.188967 76 0 153
-0.355112 -0.751993 0.414241 0 127 127
-0.119263 -0.019685 0.065258 153 0 76
-0.201401 0.519174 -0.284392 76 0 153
0.224504 -0.661659 -0.219097 153 0 76
0.251343 -0.019795 -0.101065 153 0 76
0.136694 0.572015 -0.284392 76 0 153
0.119376 -0.071226 0.526841 153 0 76
0.171761 0.393803 -0.267412 76 0 153
0.283940 -0.019685 0.209706 153 0 76
-0.145767 -0.207375 0.530592 76 0 153
-0.134709 0.689013 -0.216430 76 0 153
-0.003880 0.386807 -0.188967 76 0 153
-0.127275 -0.159089 -0.297718 76 0 153
0.283439 -0.349895 0.433870 76 153 0
-0.129716 -0.019685 -0.122835 153 0 76
-0.225658 -0.163368 -0.262135 76 0 153
-0.292788 -0.531547 -0.156316 76 0 153
0.235495 -0.019685 0.187996 153 0 76
0.274271 -0.019685 0.008506 153 0 76
0.245534 -0.079903 0.487947 153 0 76
0.229358 0.196005 -0.203713 153 76 0
0.298336 -0.020086 0.397776 153 0 76
-0.004086 0.487875 -0.188967 76 0 153
0.012880 -0.215178 -0.267932 76 0 153
-0.166477 -0.215178 0.081881 76 0 153
0.205099 -0.215178 0.290623 76 0 153
0.305576 -0.075778 -0.119837 153 0 76
-0.127776 0.181239 -0.279033 76 0 153
0.054490 -0.033567 0.515699 153 0 76
-0.241383 -0.215178 0.374194 76 0 153
-0.004357 -0.019685 0.397196 153 0 76
0.044147 0.288629 -0.188967 76 0 153
0.208944 -0.215178 -0.066747 76 0 153
0.312100 0.382388 -0.233629 153 76 0
0.175657 -0.215178 -0.248016 153 0 76
0.108941 -0.019685 -0.067423 153 0 76
-0.015953 -0.019685 -0.004818 153 0 76
-0.071140 0.258070 -0.284392 76 0 153
0.187816 -0.215178 0.388117 76 0 153
0.210547 -0.636948 -0.228633 153 0 76
0.206695 -0.106889 -0.236374 153 0 76
0.196382 -0.395361 -0.168318 153 0 76
-0.273768 -0.250505 -0.223134 76 0 153
-0.051402 -0.055168 -0.305086 153 0 76
-0.258939 -0.167168 -0.133240 76 0 153
0.114934 0.648107 -0.275844 76 0 153
0.341984 -0.661029 0.431385 76 153 0
0.085637 0.219569 -0.188967 76 0 153
0.051273 0.035820 -0.229782 153 76 0
0.292513 -0.822096 0.442949 76 153 0
-0.289462 -0.137396 -0.194591 153 0 76
-0.204843 0.329159 -0.268678 76 0 153
-0.016327 -0.022383 -0.272772 153 0 76
0.244079 0.437335 -0.223714 153 76 0
-0.327351 -0.048823 -0.129268 153 0 76
0.351998 -0.134419 0.470150 153 0 76
-0.310839 0.346011 -0.193522 153 76 0
-0.202404 -0.019685 0.410907 153 0 76
0.086750 -0.019685 0.046478 153 0 76
-0.271410 -0.215178 -0.149755 76 0 153
0.249564 -0.215178 0.463105 76 0 153
-0.089029 -0.215178 0.432530 76 0 153
-0.079551 0.766188 -0.230689 153 76 0
0.134575 0.135818 -0.231078 76 0 153
-0.193945 0.209070 -0.270649 76 0 153
0.336214 -0.145981 -0.049065 76 0 153
0.230170 -0.459075 -0.221751 153 0 76
0.350985 -0.433196 0.436253 76 153 0
-0.388504 -0.161516 0.384762 76 0 153
-0.135537 0.330392 -0.226297 76 0 153
0.188852 0.595276 -0.240692 153 76 0
-0.081717 -0.215178 -0.248081 76 0 153
0.236725 0.480222 -0.242431 153 76 0
0.141752 0.283607 -0.188967 76 0 153
0.217697 -0.019685 0.321369 153 0 76
-0.378026 -0.606887 0.429784 0 127 127
-0.163095 -0.215178 -0.251045 76 0 153
0.083424 -0.019685 -0.054437 153 0 76
