-0.034197 -0.370337 0.353941 0.500000 0.000000 0.500000
-0.221131 -0.523813 -0.150170 0.500000 0.000000 0.500000
-0.850808 0.316342 -0.040756 1.000000 0.000000 0.000000
-0.673808 0.037853 -0.267807 0.500000 0.500000 0.000000
0.466422 0.495007 -0.267807 0.500000 0.500000 0.000000
-0.312743 0.065570 -0.267807 0.500000 0.500000 0.000000
-0.446143 0.094350 0.034331 0.500000 0.500000 0.000000
0.831607 0.324105 0.241187 0.000000 0.000000 1.000000
-0.293809 0.061073 0.334657 0.600000 0.000000 0.300000
0.376219 -0.523813 -0.197531 0.500000 0.000000 0.500000
0.665103 -0.369056 0.037197 0.500000 0.000000 0.500000
-0.686827 -0.187533 -0.240463 0.600000 0.000000 0.300000
-0.508546 0.677906 -0.260805 0.500000 0.500000 0.000000
-0.358858 0.333332 -0.267807 0.500000 0.500000 0.000000
0.377641 -0.263702 -0.267807 0.600000 0.000000 0.300000
0.079714 0.061434 0.242621 0.600000 0.000000 0.300000
0.241785 -0.523813 0.018514 0.500000 0.000000 0.500000
-0.254547 -0.220236 0.354942 0.600000 0.000000 0.300000
-0.234662 0.726609 -0.024059 0.500000 0.500000 0.000000
0.199573 -0.438161 -0.267807 0.500000 0.000000 0.500000
0.043944 0.726644 -0.267287 0.500000 0.500000 0.000000
-0.232181 -0.325280 -0.267807 0.500000 0.000000 0.500000
0.475626 0.142996 0.205578 0.000000 0.000000 1.000000
-0.359774 0.328774 0.030589 0.500000 0.500000 0.000000
-0.684684 -0.333060 -0.262916 0.500000 0.000000 0.500000
0.718826 0.345637 0.137308 0.000000 0.000000 1.000000
0.557397 -0.674061 0.035325 0.300000 0.000000 0.600000
-0.719372 -0.009825 0.069381 0.600000 0.000000 0.300000
0.403133 -0.523813 0.079621 0.500000 0.000000 0.500000
-0.192448 0.156694 -0.267807 0.500000 0.500000 0.000000
-0.410803 0.579492 0.030872 0.500000 0.500000 0.000000
-0.220105 -0.523813 0.052450 0.500000 0.000000 0.500000
0.254312 0.420878 -0.267807 0.500000 0.500000 0.000000
0.754842 0.187530 -0.267807 0.000000 0.000000 1.000000
0.782846 0.356174 0.001930 0.000000 0.000000 1.000000
0.136648 0.197790 -0.267807 0.500000 0.500000 0.000000
0.190542 0.721109 0.028626 0.500000 0.500000 0.000000
-0.037034 -0.468654 -0.267807 0.500000 0.000000 0.500000
0.174142 -0.131176 0.354942 0.600000 0.000000 0.300000
0.469509 0.646158 -0.267805 0.500000 0.500000 0.000000
0.572752 0.479611 0.030665 0.500000 0.500000 0.000000
0.211035 -0.335932 0.354236 0.500000 0.000000 0.500000
-0.555225 -0.404404 -0.267807 0.500000 0.000000 0.500000
-0.474381 0.199247 -0.267807 0.500000 0.500000 0.000000
0.319854 0.215446 -0.267807 0.500000 0.500000 0.000000
-0.218369 -0.084471 -0.267807 0.600000 0.000000 0.300000
-0.500697 -0.525256 -0.145859 0.500000 0.000000 0.500000
-0.269670 0.127496 0.030789 0.500000 0.500000 0.000000
-0.678127 -0.481761 0.118900 0.500000 0.000000 0.500000
-0.410405 -0.523813 -0.038938 0.500000 0.000000 0.500000
-0.041399 -0.523813 0.212091 0.500000 0.000000 0.500000
0.256194 0.722918 -0.174176 0.500000 0.500000 0.000000
-0.021402 0.077302 0.042861 0.600000 0.000000 0.300000
0.619834 0.281722 0.354941 0.000000 0.000000 1.000000
-0.628843 -0.667239 0.145099 0.600000 0.300000 0.000000
-0.563328 -0.667866 0.039663 0.600000 0.300000 0.000000
-0.432095 0.432057 -0.267807 0.500000 0.500000 0.000000
-0.128322 0.278652 0.030872 0.500000 0.500000 0.000000
-0.897038 0.085071 0.037093 1.000000 0.000000 0.000000
0.716923 0.037183 0.003062 0.600000 0.000000 0.300000
-0.428227 -0.407102 0.353948 0.500000 0.000000 0.500000
-0.037727 -0.198998 -0.267807 0.600000 0.000000 0.300000
0.364969 0.138554 0.030872 0.500000 0.500000 0.000000
-0.503744 -0.594727 0.352317 0.600000 0.300000 0.000000
0.408329 0.522722 0.030872 0.500000 0.500000 0.000000
0.785843 0.331517 0.353527 0.000000 0.000000 1.000000
-0.921703 0.244259 0.062987 1.000000 0.000000 0.000000
-0.641866 -0.584062 -0.267807 0.600000 0.300000 0.000000
0.513247 -0.535481 0.235906 0.300000 0.000000 0.600000
-0.033600 0.353143 0.030705 0.500000 0.500000 0.000000
0.102181 -0.523813 -0.111766 0.500000 0.000000 0.500000
0.260244 -0.288220 -0.267807 0.600000 0.000000 0.300000
-0.683210 -0.578741 0.337698 0.600000 0.300000 0.000000
-0.913926 0.259320 -0.143194 1.000000 0.000000 0.000000
0.160725 0.062405 0.155565 0.600000 0.000000 0.300000
0.663653 -0.516096 0.058172 0.500000 0.000000 0.500000
0.384581 0.703076 -0.131791 0.500000 0.500000 0.000000
0.202636 0.350090 0.030872 0.500000 0.500000 0.000000
0.343539 0.062405 0.167474 0.600000 0.000000 0.300000
-0.060298 0.111338 -0.267807 0.500000 0.500000 0.000000
0.660096 -0.124619 -0.002331 0.600000 0.000000 0.300000
0.347291 -0.327057 0.354691 0.500000 0.000000 0.500000
0.523128 0.237420 0.155238 0.000000 0.000000 1.000000
0.438839 -0.077788 -0.267807 0.600000 0.000000 0.300000
0.368450 0.328385 0.030872 0.500000 0.500000 0.000000
-0.555546 0.211499 0.068190 1.000000 0.000000 0.000000
-0.287088 -0.523813 -0.054235 0.500000 0.000000 0.500000
-0.144823 -0.034581 0.354942 0.600000 0.000000 0.300000
-0.568029 0.542024 -0.073840 0.500000 0.500000 0.000000
-0.471410 0.443327 0.030676 0.500000 0.500000 0.000000
0.078850 0.494206 0.030872 0.500000 0.500000 0.000000
-0.831596 0.032229 -0.147492 1.000000 0.000000 0.000000
-0.692268 0.311691 0.224112 1.000000 0.000000 0.000000
0.465382 -0.523812 -0.124216 0.500000 0.000000 0.500000
-0.566291 -0.667866 -0.151517 0.600000 0.300000 0.000000
-0.441602 -0.523813 0.148429 0.500000 0.000000 0.500000
-0.184421 0.723656 -0.264913 0.500000 0.500000 0.000000
0.165837 -0.523813 0.108732 0.500000 0.000000 0.500000
-0.263709 0.391574 0.030538 0.500000 0.500000 0.000000
0.576270 -0.674504 0.154604 0.300000 0.000000 0.600000
0.795048 0.127511 0.354942 0.000000 0.000000 1.000000
-0.050285 -0.257804 0.354608 0.600000 0.000000 0.300000
-0.116214 0.341582 -0.267807 0.500000 0.500000 0.000000
0.734838 0.037637 -0.151696 0.000000 0.000000 1.000000
-0.112302 -0.523813 -0.200286 0.500000 0.000000 0.500000
0.888010 0.207968 -0.120195 0.000000 0.000000 1.000000
0.657513 -0.163782 0.126418 0.600000 0.000000 0.300000
0.404241 -0.210194 0.354942 0.600000 0.000000 0.300000
0.069308 -0.405419 -0.267807 0.500000 0.000000 0.500000
-0.120807 0.557154 -0.267807 0.500000 0.500000 0.000000
-0.001975 -0.523813 -0.033870 0.500000 0.000000 0.500000
0.409379 -0.419966 0.354496 0.500000 0.000000 0.500000
0.314058 0.056204 0.349080 0.600000 0.000000 0.300000
0.542579 0.228233 -0.267807 0.500000 0.500000 0.000000
0.603313 0.495849 -0.142687 0.500000 0.500000 0.000000
-0.466694 -0.054488 -0.267807 0.600000 0.000000 0.300000
-0.237438 -0.519187 -0.260799 0.500000 0.000000 0.500000
0.585391 -0.408224 -0.267807 0.500000 0.000000 0.500000
0.372190 0.703048 0.021781 0.500000 0.500000 0.000000
0.598804 0.305425 0.245900 0.000000 0.000000 1.000000
-0.416957 0.062405 0.190430 0.600000 0.000000 0.300000
0.518988 -0.400858 0.354410 0.500000 0.000000 0.500000
-0.010916 0.664967 0.030516 0.500000 0.500000 0.000000
0.585976 0.177645 0.354942 0.000000 0.000000 1.000000
-0.628801 -0.667243 -0.061987 0.600000 0.300000 0.000000
-0.017358 -0.038787 0.354942 0.600000 0.000000 0.300000
0.735936 0.384210 -0.124855 0.500000 0.500000 0.000000
0.671652 -0.059214 0.257821 0.600000 0.000000 0.300000
0.203006 0.129555 0.030870 0.500000 0.500000 0.000000
0.568235 -0.607758 0.354942 0.300000 0.000000 0.600000
0.272521 -0.523813 0.257306 0.500000 0.000000 0.500000
0.621534 -0.184343 -0.267775 0.600000 0.000000 0.300000
-0.146804 0.509729 0.030872 0.500000 0.500000 0.000000
0.014389 -0.009533 -0.267807 0.600000 0.000000 0.300000
0.177340 0.720148 -0.264571 0.500000 0.500000 0.000000
0.067874 -0.511632 0.352569 0.500000 0.000000 0.500000
-0.338229 -0.147022 0.354942 0.600000 0.000000 0.300000
0.466719 -0.001532 0.354942 0.600000 0.000000 0.300000
0.439926 -0.443898 -0.267807 0.500000 0.000000 0.500000
0.057615 -0.245446 -0.267807 0.600000 0.000000 0.300000
0.846320 0.092396 -0.228678 0.000000 0.000000 1.000000
0.609116 -0.461530 0.354942 0.500000 0.000000 0.500000
-0.670060 -0.547432 -0.034667 0.600000 0.300000 0.000000
-0.700116 -0.065217 -0.240845 0.600000 0.000000 0.300000
0.280412 -0.508088 -0.266716 0.500000 0.000000 0.500000
-0.686871 -0.383249 -0.152100 0.500000 0.000000 0.500000
0.029647 0.058783 0.341887 0.600000 0.000000 0.300000
0.193705 0.729499 -0.081248 0.500000 0.500000 0.000000
0.601944 -0.567632 -0.267807 0.300000 0.000000 0.600000
-0.113459 0.735978 -0.182800 0.500000 0.500000 0.000000
-0.718429 0.318340 0.112067 1.000000 0.000000 0.000000
0.614921 -0.674504 -0.165321 0.300000 0.000000 0.600000
0.518139 0.312739 0.030872 0.500000 0.500000 0.000000
-0.581405 0.384869 -0.267807 0.500000 0.500000 0.000000
-0.543183 -0.666819 0.254348 0.600000 0.300000 0.000000
-0.683702 0.412966 -0.207659 0.500000 0.500000 0.000000
-0.226959 0.062224 0.109957 0.600000 0.000000 0.300000
0.866593 0.281534 -0.214774 0.000000 0.000000 1.000000
-0.512555 0.119202 0.287888 1.000000 0.000000 0.000000
-0.353687 -0.027630 0.354942 0.600000 0.000000 0.300000
0.666931 -0.547955 0.158604 0.300000 0.000000 0.600000
0.887964 0.193387 0.261246 0.000000 0.000000 1.000000
-0.887961 0.074178 -0.071552 1.000000 0.000000 0.000000
-0.875545 0.146431 -0.267807 1.000000 0.000000 0.000000
-0.822323 0.273776 0.354942 1.000000 0.000000 0.000000
-0.931660 0.176432 0.269102 1.000000 0.000000 0.000000
0.170521 -0.240999 0.354942 0.600000 0.000000 0.300000
-0.824436 0.029155 0.084386 1.000000 0.000000 0.000000
-0.108543 0.062405 0.247435 0.600000 0.000000 0.300000
-0.190914 0.061209 0.333463 0.600000 0.000000 0.300000
-0.121768 0.620999 0.030709 0.500000 0.500000 0.000000
0.187174 0.003522 0.354942 0.600000 0.000000 0.300000
-0.132675 -0.295672 -0.267807 0.600000 0.000000 0.300000
-0.552405 0.586355 -0.247789 0.500000 0.500000 0.000000
-0.653602 -0.661422 0.251255 0.600000 0.300000 0.000000
-0.591029 -0.537786 0.354464 0.500000 0.000000 0.500000
-0.567695 0.061116 -0.267807 0.500000 0.500000 0.000000
-0.687047 -0.167395 0.047922 0.600000 0.000000 0.300000
0.664014 -0.401700 0.252896 0.500000 0.000000 0.500000
-0.687038 -0.168346 -0.133330 0.600000 0.000000 0.300000
0.463547 0.078925 -0.267807 0.500000 0.500000 0.000000
-0.325222 0.062405 0.234759 0.600000 0.000000 0.300000
0.667562 -0.549481 -0.156812 0.300000 0.000000 0.600000
-0.183632 0.429668 -0.267807 0.500000 0.500000 0.000000
0.032214 0.205714 -0.267807 0.500000 0.500000 0.000000
0.546900 -0.266589 -0.267807 0.600000 0.000000 0.300000
-0.124594 -0.523813 0.282617 0.500000 0.000000 0.500000
-0.461024 0.690629 -0.036009 0.500000 0.500000 0.000000
-0.822616 0.028455 0.273417 1.000000 0.000000 0.000000
0.664937 -0.273839 0.283083 0.600000 0.000000 0.300000
-0.327609 0.577712 -0.267807 0.500000 0.500000 0.000000
-0.179398 0.179001 0.030872 0.500000 0.500000 0.000000
-0.686871 -0.368878 0.082962 0.500000 0.000000 0.500000
-0.564683 0.220741 0.347544 1.000000 0.000000 0.000000
0.021143 0.411347 -0.267807 0.500000 0.500000 0.000000
0.179684 0.498093 0.030872 0.500000 0.500000 0.000000
0.673373 0.360061 0.038159 0.500000 0.500000 0.000000
0.854243 0.102666 -0.004170 0.000000 0.000000 1.000000
-0.126603 -0.409667 0.354273 0.500000 0.000000 0.500000
-0.316479 0.622453 0.030872 0.500000 0.500000 0.000000
-0.347463 0.190746 0.030872 0.500000 0.500000 0.000000
0.160852 0.053669 -0.267807 0.500000 0.500000 0.000000
-0.632477 0.306018 0.040556 1.000000 0.000000 0.000000
-0.567881 0.251932 -0.267807 0.500000 0.500000 0.000000
-0.686787 -0.199331 0.333065 0.600000 0.000000 0.300000
-0.655185 0.043439 0.354608 1.000000 0.000000 0.000000
-0.281445 0.721705 -0.238127 0.500000 0.500000 0.000000
0.501088 -0.604205 -0.170306 0.300000 0.000000 0.600000
0.264637 -0.523813 -0.080065 0.500000 0.000000 0.500000
-0.623167 -0.379365 0.353941 0.500000 0.000000 0.500000
-0.686871 -0.341502 -0.037152 0.500000 0.000000 0.500000
0.658699 -0.224104 -0.073470 0.600000 0.000000 0.300000
-0.368204 -0.519675 -0.259894 0.500000 0.000000 0.500000
-0.177921 -0.158099 0.354942 0.600000 0.000000 0.300000
0.509158 -0.177275 0.354942 0.600000 0.000000 0.300000
0.562558 0.591651 -0.154780 0.500000 0.500000 0.000000
-0.686871 -0.234453 -0.035903 0.600000 0.000000 0.300000
-0.564481 -0.523423 -0.267807 0.500000 0.000000 0.500000
-0.471532 -0.186018 0.354942 0.600000 0.000000 0.300000
0.665277 -0.375621 -0.186111 0.500000 0.000000 0.500000
-0.121879 0.062066 0.133087 0.600000 0.000000 0.300000
0.603697 0.460097 -0.264639 0.500000 0.500000 0.000000
0.423700 -0.523813 0.178604 0.500000 0.000000 0.500000
0.720612 0.037302 0.107928 0.000000 0.000000 1.000000
-0.682227 -0.461743 0.215040 0.500000 0.000000 0.500000
0.485208 0.168348 0.342630 0.000000 0.000000 1.000000
-0.713808 -0.023201 -0.026069 0.600000 0.000000 0.300000
0.062572 0.281186 0.030872 0.500000 0.500000 0.000000
-0.463380 -0.499963 0.354360 0.500000 0.000000 0.500000
-0.635703 0.427668 -0.031959 0.500000 0.500000 0.000000
0.467938 0.686363 -0.057637 0.500000 0.500000 0.000000
-0.837073 0.323686 -0.162951 1.000000 0.000000 0.000000
0.362108 0.127283 -0.267807 0.500000 0.500000 0.000000
0.299247 -0.039883 -0.267807 0.600000 0.000000 0.300000
0.227450 0.512929 -0.267807 0.500000 0.500000 0.000000
0.481504 0.160863 0.092103 0.000000 0.000000 1.000000
0.652842 -0.165097 0.347578 0.600000 0.000000 0.300000
0.049587 -0.311574 0.354197 0.600000 0.000000 0.300000
0.796034 0.054492 0.171556 0.000000 0.000000 1.000000
0.065210 -0.523813 0.095547 0.500000 0.000000 0.500000
0.498555 0.553350 0.030872 0.500000 0.500000 0.000000
0.324123 -0.145238 0.354942 0.600000 0.000000 0.300000
0.264294 0.681612 -0.267804 0.500000 0.500000 0.000000
0.857635 0.295048 0.001591 0.000000 0.000000 1.000000
-0.214338 -0.523813 0.248525 0.500000 0.000000 0.500000
-0.278260 0.514245 0.030872 0.500000 0.500000 0.000000
0.544366 0.133113 -0.267807 0.500000 0.500000 0.000000
0.363766 0.431520 0.029873 0.500000 0.500000 0.000000
-0.792256 0.349985 0.025524 0.500000 0.500000 0.000000
0.198246 -0.436082 0.354766 0.500000 0.000000 0.500000
0.098656 0.637323 -0.267807 0.500000 0.500000 0.000000
-0.120872 -0.523813 0.060964 0.500000 0.000000 0.500000
-0.468226 -0.262579 -0.267807 0.600000 0.000000 0.300000
0.001549 0.440687 0.030872 0.500000 0.500000 0.000000
0.028974 -0.132691 0.354942 0.600000 0.000000 0.300000
-0.089970 0.151455 0.030872 0.500000 0.500000 0.000000
-0.662286 0.202948 0.354942 1.000000 0.000000 0.000000
-0.449896 0.693690 -0.179573 0.500000 0.500000 0.000000
0.313030 0.319892 -0.267807 0.500000 0.500000 0.000000
-0.297129 -0.136740 -0.267807 0.600000 0.000000 0.300000
-0.158384 0.733712 -0.076915 0.500000 0.500000 0.000000
0.481177 0.298133 -0.267807 0.500000 0.500000 0.000000
-0.897653 0.281637 0.268571 1.000000 0.000000 0.000000
-0.858316 0.160399 0.354942 1.000000 0.000000 0.000000
-0.682269 -0.576446 0.103094 0.600000 0.300000 0.000000
-0.465415 -0.009720 0.354942 0.600000 0.000000 0.300000
-0.498212 0.548105 0.030536 0.500000 0.500000 0.000000
-0.674294 0.221101 -0.267807 0.500000 0.500000 0.000000
0.056804 0.147939 0.030872 0.500000 0.500000 0.000000
0.353977 0.434105 -0.267807 0.500000 0.500000 0.000000
0.107864 -0.022156 -0.267807 0.600000 0.000000 0.300000
0.372947 -0.044136 0.354942 0.600000 0.000000 0.300000
0.646986 -0.670394 -0.019217 0.300000 0.000000 0.600000
-0.500067 -0.609059 -0.183841 0.600000 0.300000 0.000000
-0.509626 -0.528443 -0.049808 0.500000 0.000000 0.500000
0.712426 0.276406 0.354942 0.000000 0.000000 1.000000
0.679425 -0.029779 -0.180056 0.600000 0.000000 0.300000
0.365610 -0.500435 0.354681 0.500000 0.000000 0.500000
0.171705 -0.523636 -0.243562 0.500000 0.000000 0.500000
0.042868 0.581188 0.030872 0.500000 0.500000 0.000000
0.361567 0.612116 -0.267807 0.500000 0.500000 0.000000
0.874154 0.267767 0.183586 0.000000 0.000000 1.000000
0.642585 0.365663 -0.267807 0.500000 0.500000 0.000000
0.555568 -0.071387 -0.267807 0.600000 0.000000 0.300000
0.065952 0.737688 -0.095154 0.500000 0.500000 0.000000
0.577931 -0.325834 0.354942 0.600000 0.000000 0.300000
0.879526 0.149682 0.069381 0.000000 0.000000 1.000000
0.122145 0.060881 0.328080 0.600000 0.000000 0.300000
-0.320926 -0.343048 -0.267807 0.500000 0.000000 0.500000
-0.686871 -0.234744 0.139735 0.600000 0.000000 0.300000
-0.321621 0.715570 -0.046273 0.500000 0.500000 0.000000
0.665132 -0.275568 -0.176839 0.600000 0.000000 0.300000
0.283368 0.690562 0.030859 0.500000 0.500000 0.000000
-0.628095 -0.667298 -0.217057 0.600000 0.300000 0.000000
-0.247997 0.000572 -0.267807 0.600000 0.000000 0.300000
0.760328 0.041996 0.283080 0.000000 0.000000 1.000000
0.185002 -0.523813 0.236704 0.500000 0.000000 0.500000
0.639054 0.042085 -0.267807 0.500000 0.500000 0.000000
0.310227 0.062405 0.259872 0.600000 0.000000 0.300000
-0.635445 -0.062451 0.354942 0.600000 0.000000 0.300000
-0.560463 -0.171484 -0.267807 0.600000 0.000000 0.300000
0.166357 0.364933 -0.267807 0.500000 0.500000 0.000000
-0.581376 0.503124 -0.172249 0.500000 0.500000 0.000000
0.625926 0.096768 0.354942 0.000000 0.000000 1.000000
-0.560742 0.218202 0.156987 1.000000 0.000000 0.000000
0.575170 0.390566 0.030223 0.500000 0.500000 0.000000
0.399520 0.262659 -0.267807 0.500000 0.500000 0.000000
-0.411028 -0.435826 -0.267807 0.500000 0.000000 0.500000
0.226735 0.622430 0.030872 0.500000 0.500000 0.000000
-0.708486 -0.037873 0.163619 0.600000 0.000000 0.300000
-0.747448 0.323434 0.339244 1.000000 0.000000 0.000000
-0.616008 0.272127 0.243061 1.000000 0.000000 0.000000
-0.029042 0.330299 -0.267807 0.500000 0.500000 0.000000
0.604113 0.011549 0.354942 0.600000 0.000000 0.300000
-0.758474 0.092929 -0.267807 0.500000 0.500000 0.000000
-0.525572 -0.108645 0.354942 0.600000 0.000000 0.300000
0.461085 -0.237141 -0.267807 0.600000 0.000000 0.300000
0.500919 -0.605216 0.041269 0.300000 0.000000 0.600000
-0.502468 -0.613332 0.070140 0.600000 0.300000 0.000000
-0.271755 -0.463275 0.354608 0.500000 0.000000 0.500000
0.689976 -0.588252 -0.009496 0.300000 0.000000 0.600000
-0.669862 -0.538889 -0.195061 0.600000 0.300000 0.000000
-0.929605 0.160555 0.084995 1.000000 0.000000 0.000000
0.312536 -0.523813 0.068860 0.500000 0.000000 0.500000
0.020364 -0.523813 0.280860 0.500000 0.000000 0.500000
-0.045016 0.738489 -0.235836 0.500000 0.500000 0.000000
-0.453168 0.342358 0.030362 0.500000 0.500000 0.000000
-0.018549 0.738710 -0.029201 0.500000 0.500000 0.000000
-0.718935 0.395929 -0.056323 0.500000 0.500000 0.000000
0.182908 -0.523813 -0.051624 0.500000 0.000000 0.500000
0.257584 0.062405 0.177083 0.600000 0.000000 0.300000
0.626802 -0.674264 0.266643 0.300000 0.000000 0.600000
0.764489 0.043066 -0.070817 0.000000 0.000000 1.000000
-0.405794 0.121096 -0.267807 0.500000 0.500000 0.000000
0.367084 0.062343 0.073143 0.600000 0.000000 0.300000
-0.745856 0.278438 -0.267807 0.500000 0.500000 0.000000
-0.780348 0.325535 0.183127 1.000000 0.000000 0.000000
-0.468690 -0.330471 0.353941 0.500000 0.000000 0.500000
0.503028 -0.592349 0.299966 0.300000 0.000000 0.600000
0.426184 0.063823 0.189701 0.600000 0.000000 0.300000
-0.503630 0.518739 -0.267807 0.500000 0.500000 0.000000
0.364027 0.236548 0.030872 0.500000 0.500000 0.000000
-0.520239 0.065935 0.354154 0.600000 0.000000 0.300000
0.488305 -0.524517 0.075668 0.500000 0.000000 0.500000
-0.517975 -0.550349 0.197008 0.600000 0.300000 0.000000
0.637423 -0.558151 0.354919 0.300000 0.000000 0.600000
-0.688121 -0.141684 0.225598 0.600000 0.000000 0.300000
0.277670 0.592174 -0.267807 0.500000 0.500000 0.000000
-0.007345 0.061825 0.265585 0.600000 0.000000 0.300000
0.053217 0.062405 0.156964 0.600000 0.000000 0.300000
0.287504 0.372209 0.030531 0.500000 0.500000 0.000000
-0.694451 0.123966 0.354942 1.000000 0.000000 0.000000
0.089173 0.658354 0.030872 0.500000 0.500000 0.000000
-0.745822 0.379018 -0.256225 0.500000 0.500000 0.000000
0.880168 0.151305 0.334072 0.000000 0.000000 1.000000
0.542717 0.621922 -0.008847 0.500000 0.500000 0.000000
-0.452794 0.062396 0.112091 0.600000 0.000000 0.300000
0.660384 -0.124756 -0.105700 0.600000 0.000000 0.300000
-0.541038 0.620309 -0.050285 0.500000 0.500000 0.000000
0.666341 -0.084879 0.178101 0.600000 0.000000 0.300000
-0.302062 0.271782 -0.267807 0.500000 0.500000 0.000000
-0.376174 -0.523813 0.245337 0.500000 0.000000 0.500000
-0.384772 -0.143676 -0.267807 0.600000 0.000000 0.300000
-0.077472 0.016886 -0.267807 0.500000 0.500000 0.000000
-0.198599 0.323944 0.030670 0.500000 0.500000 0.000000
-0.128696 -0.228793 0.354608 0.600000 0.000000 0.300000
-0.174638 0.685644 0.030539 0.500000 0.500000 0.000000
-0.548605 -0.022964 -0.267807 0.600000 0.000000 0.300000
0.667959 -0.309909 0.095779 0.600000 0.000000 0.300000
-0.277831 -0.523813 0.112357 0.500000 0.000000 0.500000
0.432960 -0.523813 -0.005801 0.500000 0.000000 0.500000
0.670199 -0.062807 0.340812 0.600000 0.000000 0.300000
-0.209452 -0.403745 0.354018 0.500000 0.000000 0.500000
0.730775 0.387116 -0.243660 0.500000 0.500000 0.000000
-0.364630 0.480399 -0.267807 0.500000 0.500000 0.000000
-0.856769 0.046749 0.179954 1.000000 0.000000 0.000000
0.405385 -0.172612 -0.267807 0.600000 0.000000 0.300000
0.394224 0.604483 0.030872 0.500000 0.500000 0.000000
-0.686871 -0.378321 0.296397 0.500000 0.000000 0.500000
0.001763 -0.445036 0.354646 0.500000 0.000000 0.500000
0.695029 -0.604336 0.283335 0.300000 0.000000 0.600000
-0.432421 0.644314 -0.267807 0.500000 0.500000 0.000000
-0.839423 0.230019 -0.267807 1.000000 0.000000 0.000000
0.816976 0.241780 -0.267807 0.000000 0.000000 1.000000
-0.862853 0.309405 0.184690 1.000000 0.000000 0.000000
-0.673492 -0.504966 0.039084 0.500000 0.000000 0.500000
-0.726502 0.000244 0.247763 0.600000 0.000000 0.300000
0.774553 0.212774 0.354942 0.000000 0.000000 1.000000
-0.428468 0.271244 -0.267807 0.500000 0.500000 0.000000
-0.143205 -0.523813 -0.123723 0.500000 0.000000 0.500000
-0.087790 -0.395139 -0.267807 0.500000 0.000000 0.500000
-0.903773 0.094636 0.237999 1.000000 0.000000 0.000000
0.281218 0.154583 0.030872 0.500000 0.500000 0.000000
-0.042120 0.533993 -0.267807 0.500000 0.500000 0.000000
0.732248 0.266321 -0.267807 0.500000 0.500000 0.000000
-0.225111 0.514910 -0.267807 0.500000 0.500000 0.000000
-0.313423 -0.277152 0.354772 0.600000 0.000000 0.300000
-0.252103 0.378111 -0.267807 0.500000 0.500000 0.000000
-0.501695 0.157911 0.038035 1.000000 0.000000 0.000000
-0.686681 -0.420598 -0.077254 0.500000 0.000000 0.500000
-0.686871 -0.265046 -0.214729 0.600000 0.000000 0.300000
-0.490360 0.071238 0.224885 0.600000 0.000000 0.300000
0.392852 -0.353483 -0.267807 0.500000 0.000000 0.500000
0.013327 -0.523813 -0.221835 0.500000 0.000000 0.500000
-0.603341 -0.336455 -0.267807 0.500000 0.000000 0.500000
0.276463 -0.197834 -0.267807 0.600000 0.000000 0.300000
0.539088 0.627332 -0.224076 0.500000 0.500000 0.000000
-0.396977 0.015059 -0.267807 0.500000 0.500000 0.000000
-0.215050 0.462981 0.030872 0.500000 0.500000 0.000000
-0.614771 -0.254647 0.354942 0.600000 0.000000 0.300000
0.326603 -0.523813 -0.133054 0.500000 0.000000 0.500000
0.365347 -0.484356 -0.267807 0.500000 0.000000 0.500000
0.663857 -0.396849 -0.049819 0.500000 0.000000 0.500000
-0.388850 -0.279284 -0.267807 0.600000 0.000000 0.300000
-0.685028 0.127027 -0.267807 0.500000 0.500000 0.000000
0.145585 0.287356 0.030872 0.500000 0.500000 0.000000
0.667203 -0.294619 -0.023545 0.600000 0.000000 0.300000
0.467532 0.099854 0.299249 0.000000 0.000000 1.000000
0.502189 -0.611125 -0.047917 0.300000 0.000000 0.600000
0.885981 0.228453 0.085792 0.000000 0.000000 1.000000
0.254985 -0.521098 0.344546 0.500000 0.000000 0.500000
-0.147858 0.651028 -0.267807 0.500000 0.500000 0.000000
0.504416 0.569291 -0.267807 0.500000 0.500000 0.000000
0.468572 -0.001431 -0.267807 0.600000 0.000000 0.300000
-0.812975 0.094015 0.354942 1.000000 0.000000 0.000000
0.763422 0.346293 0.204175 0.000000 0.000000 1.000000
0.876618 0.141356 -0.163595 0.000000 0.000000 1.000000
0.683866 -0.633855 -0.171841 0.300000 0.000000 0.600000
-0.429941 -0.523813 -0.198279 0.500000 0.000000 0.500000
0.131970 -0.322384 0.354350 0.600000 0.000000 0.300000
-0.747064 0.012249 -0.242149 1.000000 0.000000 0.000000
-0.304460 0.718564 -0.132446 0.500000 0.500000 0.000000
0.857539 0.106108 0.145944 0.000000 0.000000 1.000000
-0.383375 -0.340871 0.353941 0.500000 0.000000 0.500000
0.662725 -0.106857 -0.192877 0.600000 0.000000 0.300000
0.663326 -0.472374 -0.134553 0.500000 0.000000 0.500000
0.248449 0.024639 -0.267807 0.500000 0.500000 0.000000
0.716051 0.098025 0.354942 0.000000 0.000000 1.000000
-0.499242 -0.588615 -0.262242 0.600000 0.300000 0.000000
-0.262220 0.195175 -0.267807 0.500000 0.500000 0.000000
-0.238554 -0.228077 -0.267807 0.600000 0.000000 0.300000
0.603752 0.493357 -0.042483 0.500000 0.500000 0.000000
-0.512478 -0.337318 -0.267807 0.500000 0.000000 0.500000
0.474982 0.416039 -0.267807 0.500000 0.500000 0.000000
0.252377 -0.367172 -0.267807 0.500000 0.000000 0.500000
0.619886 0.317341 0.169927 0.000000 0.000000 1.000000
0.619580 -0.674343 -0.250049 0.300000 0.000000 0.600000
0.138034 0.533542 -0.267807 0.500000 0.500000 0.000000
0.567149 -0.485176 -0.267807 0.500000 0.000000 0.500000
-0.695531 -0.085101 0.067390 0.600000 0.000000 0.300000
0.651562 -0.667262 0.131933 0.300000 0.000000 0.600000
0.259766 0.533392 0.030872 0.500000 0.500000 0.000000
0.444015 0.117465 0.035961 0.500000 0.500000 0.000000
0.648119 0.436082 -0.117671 0.500000 0.500000 0.000000
-0.694772 -0.089080 -0.159725 0.600000 0.000000 0.300000
-0.695362 -0.605248 -0.082791 0.600000 0.300000 0.000000
0.177668 0.062377 0.078830 0.600000 0.000000 0.300000
0.421323 0.559317 -0.267807 0.500000 0.500000 0.000000
-0.202063 -0.523813 -0.063794 0.500000 0.000000 0.500000
0.433360 0.693297 -0.216525 0.500000 0.500000 0.000000
0.152946 0.416957 0.030123 0.500000 0.500000 0.000000
-0.686871 -0.310256 0.256582 0.600000 0.000000 0.300000
-0.075645 0.453582 0.030872 0.500000 0.500000 0.000000
-0.239084 0.003358 0.354759 0.600000 0.000000 0.300000
0.509718 -0.627620 0.195966 0.300000 0.000000 0.600000
0.212046 0.218468 -0.267807 0.500000 0.500000 0.000000
-0.869472 0.305237 0.047836 1.000000 0.000000 0.000000
0.879759 0.149738 -0.068855 0.000000 0.000000 1.000000
0.136725 -0.116196 -0.267807 0.600000 0.000000 0.300000
-0.227756 0.087188 -0.267807 0.500000 0.500000 0.000000
0.794679 0.349463 -0.190811 0.500000 0.500000 0.000000
-0.144897 -0.050132 -0.267807 0.600000 0.000000 0.300000
-0.079149 -0.523813 0.144113 0.500000 0.000000 0.500000
0.007019 0.636587 -0.267807 0.500000 0.500000 0.000000
-0.496604 -0.601217 0.251493 0.600000 0.300000 0.000000
-0.555127 0.579376 -0.170635 0.500000 0.500000 0.000000
-0.142025 0.247534 -0.267807 0.500000 0.500000 0.000000
0.793433 0.053292 0.000336 0.000000 0.000000 1.000000
0.398533 0.035004 0.354626 0.600000 0.000000 0.300000
0.516008 0.228914 0.078721 0.000000 0.000000 1.000000
-0.353616 0.113876 0.030280 0.500000 0.500000 0.000000
-0.874259 0.060171 -0.214167 1.000000 0.000000 0.000000
-0.242709 -0.327777 0.353941 0.500000 0.000000 0.500000
-0.288497 0.712476 0.029231 0.500000 0.500000 0.000000
-0.439232 0.659363 0.030869 0.500000 0.500000 0.000000
0.119060 -0.190973 -0.267807 0.600000 0.000000 0.300000
-0.877801 0.299505 -0.233829 1.000000 0.000000 0.000000
0.658873 -0.226697 0.170401 0.600000 0.000000 0.300000
-0.115657 0.172883 -0.267807 0.500000 0.500000 0.000000
-0.078480 0.737751 -0.094986 0.500000 0.500000 0.000000
-0.686870 -0.402127 -0.228863 0.500000 0.000000 0.500000
-0.130877 -0.129293 -0.267807 0.600000 0.000000 0.300000
-0.582427 0.411696 0.030541 0.500000 0.500000 0.000000
0.878227 0.257638 -0.062489 0.000000 0.000000 1.000000
0.680039 -0.026946 0.022585 0.600000 0.000000 0.300000
-0.292979 0.645693 -0.267807 0.500000 0.500000 0.000000
-0.694849 0.408609 -0.130907 0.500000 0.500000 0.000000
0.334379 -0.523813 0.205922 0.500000 0.000000 0.500000
-0.507968 0.425514 -0.267807 0.500000 0.500000 0.000000
0.534934 -0.035208 0.354942 0.600000 0.000000 0.300000
-0.730795 0.250934 0.354942 1.000000 0.000000 0.000000
0.056342 0.737972 -0.172345 0.500000 0.500000 0.000000
-0.233720 -0.416655 -0.267807 0.500000 0.000000 0.500000
-0.351233 -0.523813 0.150026 0.500000 0.000000 0.500000
0.665463 -0.369137 0.143743 0.500000 0.000000 0.500000
0.783778 0.111070 -0.267807 0.000000 0.000000 1.000000
0.868741 0.278057 0.289041 0.000000 0.000000 1.000000
0.012049 -0.523813 0.149477 0.500000 0.000000 0.500000
0.130736 0.734290 -0.039510 0.500000 0.500000 0.000000
-0.912232 0.262100 -0.064913 1.000000 0.000000 0.000000
-0.064285 -0.523813 -0.078210 0.500000 0.000000 0.500000
0.369842 0.705891 -0.054492 0.500000 0.500000 0.000000
-0.280366 0.062405 0.163363 0.600000 0.000000 0.300000
-0.425294 -0.523813 0.063998 0.500000 0.000000 0.500000
0.091992 0.385241 -0.267807 0.500000 0.500000 0.000000
0.641822 0.428013 0.029277 0.500000 0.500000 0.000000
0.672316 0.199504 -0.267807 0.500000 0.500000 0.000000
0.576683 0.295221 -0.267807 0.500000 0.500000 0.000000
0.803739 0.058735 -0.172651 0.000000 0.000000 1.000000
-0.669838 -0.537603 0.271656 0.600000 0.300000 0.000000
-0.265537 -0.523813 0.310865 0.500000 0.000000 0.500000
-0.708679 -0.029498 0.345367 0.600000 0.000000 0.300000
0.453667 -0.523813 0.298053 0.500000 0.000000 0.500000
-0.405759 0.400383 0.030685 0.500000 0.500000 0.000000
0.650847 -0.290952 0.354606 0.600000 0.000000 0.300000
-0.932132 0.186767 -0.144608 1.000000 0.000000 0.000000
-0.280133 -0.523813 -0.196141 0.500000 0.000000 0.500000
0.335532 0.500686 0.030872 0.500000 0.500000 0.000000
-0.424920 0.501716 0.030261 0.500000 0.500000 0.000000
0.141809 0.284353 -0.267807 0.500000 0.500000 0.000000
-0.756471 0.014971 -0.091190 1.000000 0.000000 0.000000
0.471001 0.482288 0.030720 0.500000 0.500000 0.000000
0.045857 -0.333260 -0.267807 0.500000 0.000000 0.500000
-0.931667 0.176594 0.164720 1.000000 0.000000 0.000000
-0.106424 -0.493287 0.354600 0.500000 0.000000 0.500000
0.017162 0.489226 -0.267807 0.500000 0.500000 0.000000
0.248425 -0.099812 -0.267807 0.600000 0.000000 0.300000
-0.529297 -0.661552 0.333228 0.600000 0.300000 0.000000
-0.136640 -0.504874 -0.267640 0.500000 0.000000 0.500000
-0.433606 -0.523813 -0.109234 0.500000 0.000000 0.500000
0.592317 0.547693 0.009829 0.500000 0.500000 0.000000
-0.024128 -0.188755 0.354942 0.600000 0.000000 0.300000
-0.555706 -0.667561 0.121065 0.600000 0.300000 0.000000
-0.686871 -0.308435 0.139844 0.600000 0.000000 0.300000
0.592810 -0.674420 0.331716 0.300000 0.000000 0.600000
0.663069 -0.446622 0.034481 0.500000 0.000000 0.500000
0.775218 0.054774 0.353584 0.000000 0.000000 1.000000
0.431434 -0.517917 -0.263154 0.500000 0.000000 0.500000
0.669983 -0.555673 -0.243942 0.300000 0.000000 0.600000
-0.338398 -0.523813 -0.001897 0.500000 0.000000 0.500000
0.544243 0.238562 0.354724 0.000000 0.000000 1.000000
-0.525477 -0.097574 -0.267807 0.600000 0.000000 0.300000
0.157492 -0.523813 -0.159197 0.500000 0.000000 0.500000
0.251684 -0.126035 0.354942 0.600000 0.000000 0.300000
0.126278 -0.458322 -0.267807 0.500000 0.000000 0.500000
0.524563 0.647949 -0.082201 0.500000 0.500000 0.000000
0.104829 -0.109444 0.354942 0.600000 0.000000 0.300000
-0.236807 -0.523813 0.174471 0.500000 0.000000 0.500000
0.346572 -0.254258 0.354942 0.600000 0.000000 0.300000
-0.562119 0.274542 0.033044 1.000000 0.000000 0.000000
0.660392 -0.245200 -0.254693 0.600000 0.000000 0.300000
0.538617 0.498141 -0.267807 0.500000 0.500000 0.000000
-0.922656 0.132973 -0.097521 1.000000 0.000000 0.000000
0.242188 0.051478 0.351063 0.600000 0.000000 0.300000
-0.395742 -0.472397 0.354608 0.500000 0.000000 0.500000
-0.339126 0.552656 0.030872 0.500000 0.500000 0.000000
0.496859 -0.525046 0.156401 0.500000 0.000000 0.500000
-0.517712 -0.551435 0.125055 0.600000 0.300000 0.000000
0.509850 -0.426897 -0.267807 0.500000 0.000000 0.500000
0.127748 0.135944 0.030872 0.500000 0.500000 0.000000
-0.106688 0.719883 -0.267565 0.500000 0.500000 0.000000
0.678461 0.338063 0.341015 0.000000 0.000000 1.000000
0.744547 0.346699 0.070560 0.000000 0.000000 1.000000
-0.608598 0.444264 -0.210288 0.500000 0.500000 0.000000
0.525815 -0.273283 0.354942 0.600000 0.000000 0.300000
-0.381670 0.260836 0.030872 0.500000 0.500000 0.000000
0.170747 0.135180 -0.267807 0.500000 0.500000 0.000000
0.874282 0.135445 0.213021 0.000000 0.000000 1.000000
-0.478743 0.687354 -0.114757 0.500000 0.500000 0.000000
0.330029 -0.320237 -0.267807 0.500000 0.000000 0.500000
0.067532 -0.523813 -0.049752 0.500000 0.000000 0.500000
0.326697 0.712852 -0.184950 0.500000 0.500000 0.000000
-0.368588 0.058121 0.346044 0.600000 0.000000 0.300000
0.358452 -0.523813 0.014741 0.500000 0.000000 0.500000
0.777921 0.344981 0.282607 0.000000 0.000000 1.000000
-0.250005 0.652941 0.030539 0.500000 0.500000 0.000000
0.447305 0.315244 0.030872 0.500000 0.500000 0.000000
-0.414481 0.157638 0.030353 0.500000 0.500000 0.000000
-0.484411 -0.406194 -0.267807 0.500000 0.000000 0.500000
0.704880 0.100581 -0.267807 0.500000 0.500000 0.000000
-0.086487 0.061302 0.065530 0.600000 0.000000 0.300000
-0.493527 0.131184 -0.267807 0.500000 0.500000 0.000000
0.684361 0.340086 0.198755 0.000000 0.000000 1.000000
-0.633167 -0.666903 0.066890 0.600000 0.300000 0.000000
0.028629 0.062405 0.090426 0.600000 0.000000 0.300000
0.575047 -0.523384 0.354942 0.500000 0.000000 0.500000
-0.633753 -0.020286 -0.267807 0.600000 0.000000 0.300000
0.122476 -0.523813 0.281347 0.500000 0.000000 0.500000
-0.331022 0.405239 -0.267807 0.500000 0.500000 0.000000
-0.667569 -0.125369 -0.267630 0.600000 0.000000 0.300000
-0.927918 0.162446 0.344409 1.000000 0.000000 0.000000
-0.553772 -0.667380 -0.047573 0.600000 0.300000 0.000000
-0.431209 0.361771 -0.267807 0.500000 0.500000 0.000000
0.303385 0.078506 -0.267807 0.500000 0.500000 0.000000
-0.516758 -0.537891 -0.216968 0.600000 0.300000 0.000000
0.242039 -0.523813 0.091332 0.500000 0.000000 0.500000
0.279554 -0.308991 0.354907 0.600000 0.000000 0.300000
-0.538005 -0.208235 0.354942 0.600000 0.000000 0.300000
0.026741 -0.523813 0.030023 0.500000 0.000000 0.500000
0.574919 -0.330783 -0.267807 0.500000 0.000000 0.500000
0.069099 -0.523813 -0.173433 0.500000 0.000000 0.500000
-0.922655 0.132850 -0.009780 1.000000 0.000000 0.000000
-0.533128 0.157810 0.351494 1.000000 0.000000 0.000000
0.665854 -0.541025 -0.087497 0.300000 0.000000 0.600000
-0.548066 -0.347747 0.353941 0.500000 0.000000 0.500000
0.140151 -0.389919 -0.267807 0.500000 0.000000 0.500000
-0.673315 -0.134339 0.354610 0.600000 0.000000 0.300000
0.698877 0.026120 -0.091393 0.600000 0.000000 0.300000
0.536432 -0.664839 -0.175072 0.300000 0.000000 0.600000
-0.630686 -0.480534 0.354624 0.500000 0.000000 0.500000
0.749908 0.375904 -0.056109 0.500000 0.500000 0.000000
0.661589 -0.115275 0.076693 0.600000 0.000000 0.300000
-0.285510 0.061771 0.068718 0.600000 0.000000 0.300000
-0.555727 0.577530 0.004861 0.500000 0.500000 0.000000
0.569657 0.284940 0.305496 0.000000 0.000000 1.000000
-0.512791 -0.635019 0.004058 0.600000 0.300000 0.000000
-0.297269 0.133215 -0.267807 0.500000 0.500000 0.000000
0.663658 -0.444365 0.315686 0.500000 0.000000 0.500000
0.137965 -0.470059 0.354942 0.500000 0.000000 0.500000
-0.004401 -0.093604 -0.267807 0.600000 0.000000 0.300000
-0.814401 0.337473 -0.099069 0.500000 0.500000 0.000000
-0.573995 -0.667866 0.192449 0.600000 0.300000 0.000000
0.685328 -0.004378 -0.245926 0.600000 0.000000 0.300000
0.395435 -0.523813 -0.126809 0.500000 0.000000 0.500000
-0.411330 -0.210164 -0.267807 0.600000 0.000000 0.300000
0.615665 -0.674504 0.072397 0.300000 0.000000 0.600000
0.663908 -0.403149 -0.122847 0.500000 0.000000 0.500000
0.001285 0.268389 -0.267807 0.500000 0.500000 0.000000
0.656126 -0.418968 -0.265681 0.500000 0.000000 0.500000
0.488321 0.178022 0.271914 0.000000 0.000000 1.000000
-0.674596 -0.639661 0.188550 0.600000 0.300000 0.000000
-0.269071 -0.153008 0.354942 0.600000 0.000000 0.300000
-0.685942 -0.624417 -0.225636 0.600000 0.300000 0.000000
-0.351089 -0.523813 -0.079284 0.500000 0.000000 0.500000
-0.618960 -0.600397 0.354824 0.600000 0.300000 0.000000
-0.102555 -0.226864 -0.267807 0.600000 0.000000 0.300000
0.527083 -0.651916 0.108111 0.300000 0.000000 0.600000
0.206711 -0.523813 0.163739 0.500000 0.000000 0.500000
-0.153711 -0.366374 -0.267807 0.500000 0.000000 0.500000
0.663659 -0.484186 0.208628 0.500000 0.000000 0.500000
-0.588925 0.481313 -0.039855 0.500000 0.500000 0.000000
0.819635 0.333314 0.164462 0.000000 0.000000 1.000000
0.823055 0.167036 -0.267807 0.000000 0.000000 1.000000
-0.645569 -0.253289 -0.267806 0.600000 0.000000 0.300000
-0.930083 0.163670 -0.222445 1.000000 0.000000 0.000000
0.561942 0.278233 0.193741 0.000000 0.000000 1.000000
0.602353 0.506494 -0.214656 0.500000 0.500000 0.000000
-0.229615 -0.160457 -0.267807 0.600000 0.000000 0.300000
-0.520528 0.145429 0.225530 1.000000 0.000000 0.000000
-0.093506 -0.336899 0.353941 0.500000 0.000000 0.500000
-0.845939 0.039813 0.020671 1.000000 0.000000 0.000000
0.520850 -0.101796 0.354942 0.600000 0.000000 0.300000
0.622026 -0.674376 -0.097657 0.300000 0.000000 0.600000
-0.672951 -0.641782 0.314306 0.600000 0.300000 0.000000
0.231993 0.725565 -0.025098 0.500000 0.500000 0.000000
-0.294155 0.311102 0.030872 0.500000 0.500000 0.000000
0.154171 0.062058 0.235904 0.600000 0.000000 0.300000
0.365675 -0.053588 -0.267807 0.600000 0.000000 0.300000
-0.774297 0.361247 -0.197407 0.500000 0.500000 0.000000
-0.077944 0.682089 0.030390 0.500000 0.500000 0.000000
-0.376666 0.707402 -0.188662 0.500000 0.500000 0.000000
0.174613 -0.523813 0.028881 0.500000 0.000000 0.500000
0.670965 -0.558139 0.225286 0.300000 0.000000 0.600000
-0.495746 -0.396384 0.353941 0.500000 0.000000 0.500000
-0.009910 -0.263090 -0.267807 0.600000 0.000000 0.300000
0.888000 0.204799 -0.188062 0.000000 0.000000 1.000000
0.183049 -0.063844 0.354942 0.600000 0.000000 0.300000
-0.472406 -0.259563 0.354941 0.600000 0.000000 0.300000
-0.404105 -0.187624 0.354942 0.600000 0.000000 0.300000
-0.565938 -0.596955 -0.267807 0.600000 0.300000 0.000000
0.369739 -0.523813 0.138137 0.500000 0.000000 0.500000
-0.528705 0.656111 -0.200416 0.500000 0.500000 0.000000
0.871054 0.274302 -0.140012 0.000000 0.000000 1.000000
-0.139422 0.110027 -0.267807 0.500000 0.500000 0.000000
0.108745 0.735252 -0.251797 0.500000 0.500000 0.000000
-0.686507 -0.426883 0.157783 0.500000 0.000000 0.500000
-0.080699 -0.061099 0.354942 0.600000 0.000000 0.300000
-0.694559 -0.607652 0.260134 0.600000 0.300000 0.000000
0.030035 -0.471238 -0.267807 0.500000 0.000000 0.500000
-0.000113 0.140863 -0.267807 0.500000 0.500000 0.000000
0.193952 0.195882 0.030872 0.500000 0.500000 0.000000
-0.219262 0.083701 0.038532 0.600000 0.000000 0.300000
-0.703393 -0.053334 -0.084866 0.600000 0.000000 0.300000
-0.885446 0.293634 0.123839 1.000000 0.000000 0.000000
0.580023 -0.674507 -0.040745 0.300000 0.000000 0.600000
-0.091162 0.223315 0.030872 0.500000 0.500000 0.000000
-0.329981 0.398233 0.030649 0.500000 0.500000 0.000000
0.843398 0.089535 0.329520 0.000000 0.000000 1.000000
0.295042 0.153724 -0.267807 0.500000 0.500000 0.000000
0.537436 -0.602233 -0.267805 0.300000 0.000000 0.600000
-0.543386 0.183562 -0.267807 0.500000 0.500000 0.000000
-0.755684 0.014742 0.119273 1.000000 0.000000 0.000000
-0.854905 0.313073 0.312487 1.000000 0.000000 0.000000
-0.559003 0.322409 -0.267807 0.500000 0.500000 0.000000
0.442214 -0.481739 0.354942 0.500000 0.000000 0.500000
-0.160607 0.499628 -0.267807 0.500000 0.500000 0.000000
0.609603 -0.114611 -0.267807 0.600000 0.000000 0.300000
0.213531 0.284747 0.030872 0.500000 0.500000 0.000000
-0.512527 -0.534313 0.307270 0.500000 0.000000 0.500000
0.694430 -0.601067 0.130353 0.300000 0.000000 0.600000
-0.699060 0.326848 0.044968 0.500000 0.500000 0.000000
0.813667 0.337316 -0.053390 0.000000 0.000000 1.000000
0.443594 -0.523813 -0.186524 0.500000 0.000000 0.500000
0.606385 -0.029264 -0.267807 0.600000 0.000000 0.300000
0.197508 -0.268116 -0.267807 0.600000 0.000000 0.300000
-0.188625 0.360504 -0.267807 0.500000 0.500000 0.000000
-0.636726 0.374436 0.029918 0.500000 0.500000 0.000000
0.663837 -0.408346 0.090019 0.500000 0.000000 0.500000
0.265228 -0.434920 -0.267807 0.500000 0.000000 0.500000
0.662050 -0.112212 0.295481 0.600000 0.000000 0.300000
-0.360391 -0.405778 0.353941 0.500000 0.000000 0.500000
0.125841 -0.175653 0.354942 0.600000 0.000000 0.300000
-0.659227 0.388411 -0.267806 0.500000 0.500000 0.000000
-0.291328 -0.071245 -0.267807 0.600000 0.000000 0.300000
0.512614 -0.534163 -0.181426 0.300000 0.000000 0.600000
0.583424 0.080407 -0.267807 0.500000 0.500000 0.000000
0.660153 0.333705 0.108743 0.000000 0.000000 1.000000
-0.932196 0.193565 0.018792 1.000000 0.000000 0.000000
-0.680616 -0.469614 -0.202867 0.500000 0.000000 0.500000
0.600992 0.198663 -0.267807 0.500000 0.500000 0.000000
0.667423 -0.332296 0.253743 0.500000 0.000000 0.500000
0.697594 0.024327 0.277125 0.600000 0.000000 0.300000
-0.846709 0.040623 0.337962 1.000000 0.000000 0.000000
0.848585 0.302954 0.349037 0.000000 0.000000 1.000000
-0.325906 0.001539 -0.267807 0.600000 0.000000 0.300000
0.406195 0.663126 -0.267736 0.500000 0.500000 0.000000
-0.626690 -0.176345 -0.267807 0.600000 0.000000 0.300000
-0.007620 0.282224 0.030872 0.500000 0.500000 0.000000
-0.175612 -0.523813 -0.218995 0.500000 0.000000 0.500000
-0.632415 -0.666961 -0.144936 0.600000 0.300000 0.000000
0.710353 0.327663 -0.267807 0.500000 0.500000 0.000000
0.601635 -0.387043 0.354942 0.500000 0.000000 0.500000
-0.480276 0.591503 -0.267807 0.500000 0.500000 0.000000
0.683770 -0.010786 0.163015 0.600000 0.000000 0.300000
0.573041 -0.164796 0.354942 0.600000 0.000000 0.300000
-0.074087 -0.523415 -0.252957 0.500000 0.000000 0.500000
0.295966 0.302185 0.030872 0.500000 0.500000 0.000000
-0.053309 -0.523813 0.281903 0.500000 0.000000 0.500000
0.726183 0.388797 0.003013 0.500000 0.500000 0.000000
-0.281200 0.192888 0.030872 0.500000 0.500000 0.000000
-0.391487 0.062337 0.072253 0.600000 0.000000 0.300000
-0.372851 -0.381711 -0.267807 0.500000 0.000000 0.500000
0.161550 0.653594 0.030872 0.500000 0.500000 0.000000
0.520606 0.234164 0.219723 0.000000 0.000000 1.000000
0.348806 -0.391628 0.354022 0.500000 0.000000 0.500000
0.631714 -0.494410 -0.267802 0.500000 0.000000 0.500000
0.528550 -0.653812 0.333640 0.300000 0.000000 0.600000
-0.172830 -0.093920 0.354942 0.600000 0.000000 0.300000
-0.519008 -0.223081 -0.267807 0.600000 0.000000 0.300000
0.042439 0.213014 0.030872 0.500000 0.500000 0.000000
-0.726551 0.320385 0.278511 1.000000 0.000000 0.000000
-0.491900 0.275187 0.030872 0.500000 0.500000 0.000000
-0.300013 -0.523813 -0.125995 0.500000 0.000000 0.500000
-0.686871 -0.324883 -0.191511 0.600000 0.000000 0.300000
-0.586515 0.488339 -0.110022 0.500000 0.500000 0.000000
-0.825536 0.106321 -0.267807 1.000000 0.000000 0.000000
0.498699 -0.104054 -0.267807 0.600000 0.000000 0.300000
0.472406 -0.229649 0.354942 0.600000 0.000000 0.300000
-0.123225 0.407169 -0.267807 0.500000 0.500000 0.000000
-0.384451 0.062405 0.258903 0.600000 0.000000 0.300000
0.580970 0.327074 0.034330 0.500000 0.500000 0.000000
0.660286 -0.242338 0.102679 0.600000 0.000000 0.300000
0.217366 0.412157 0.029881 0.500000 0.500000 0.000000
0.580984 -0.674507 0.220899 0.300000 0.000000 0.600000
-0.304937 -0.515072 -0.264451 0.500000 0.000000 0.500000
-0.112052 0.340115 0.030539 0.500000 0.500000 0.000000
-0.686871 -0.221509 -0.168485 0.600000 0.000000 0.300000
0.512824 -0.534598 -0.083399 0.300000 0.000000 0.600000
-0.528961 0.165125 0.118114 1.000000 0.000000 0.000000
0.225134 -0.183682 0.354942 0.600000 0.000000 0.300000
0.085816 0.144546 -0.267807 0.500000 0.500000 0.000000
-0.084767 -0.523813 0.008899 0.500000 0.000000 0.500000
0.469736 0.115679 0.148722 0.000000 0.000000 1.000000
0.001862 0.728622 0.029911 0.500000 0.500000 0.000000
-0.678204 0.306375 0.159470 1.000000 0.000000 0.000000
0.014121 0.518427 0.030872 0.500000 0.500000 0.000000
-0.906734 0.270330 0.007304 1.000000 0.000000 0.000000
-0.509341 -0.572164 -0.002389 0.600000 0.300000 0.000000
-0.417373 -0.523812 0.318239 0.500000 0.000000 0.500000
0.661541 -0.500215 0.347761 0.500000 0.000000 0.500000
0.318391 0.095599 0.033827 0.500000 0.500000 0.000000
-0.337700 -0.218967 0.354942 0.600000 0.000000 0.300000
-0.521225 0.487060 0.029945 0.500000 0.500000 0.000000
-0.669889 -0.540284 -0.097296 0.600000 0.300000 0.000000
-0.184496 -0.523813 0.000483 0.500000 0.000000 0.500000
0.269109 -0.376880 0.353941 0.500000 0.000000 0.500000
0.658116 -0.217423 0.312907 0.600000 0.000000 0.300000
0.316932 -0.246950 -0.267807 0.600000 0.000000 0.300000
-0.179244 -0.523813 0.111315 0.500000 0.000000 0.500000
-0.878216 0.299128 -0.102755 1.000000 0.000000 0.000000
0.296380 -0.523813 -0.012564 0.500000 0.000000 0.500000
0.418270 0.442883 -0.267807 0.500000 0.500000 0.000000
0.664406 -0.531369 -0.016269 0.300000 0.000000 0.600000
0.306617 0.386260 -0.267807 0.500000 0.500000 0.000000
-0.500757 0.081399 0.076418 1.000000 0.000000 0.000000
-0.169584 0.732875 -0.015211 0.500000 0.500000 0.000000
0.647735 0.223975 0.354942 0.000000 0.000000 1.000000
-0.206503 -0.270217 0.354888 0.600000 0.000000 0.300000
0.641521 0.326528 0.286602 0.000000 0.000000 1.000000
-0.686871 -0.346019 -0.101789 0.500000 0.000000 0.500000
0.377398 -0.112404 0.354942 0.600000 0.000000 0.300000
0.147090 -0.523813 0.182500 0.500000 0.000000 0.500000
0.534688 0.434494 -0.267807 0.500000 0.500000 0.000000
-0.698032 -0.073723 0.213690 0.600000 0.000000 0.300000
-0.063825 0.385145 -0.267807 0.500000 0.500000 0.000000
0.455218 0.061102 0.352938 0.600000 0.000000 0.300000
-0.686892 -0.184825 0.177218 0.600000 0.000000 0.300000
-0.672116 -0.511647 0.178929 0.500000 0.000000 0.500000
0.524298 0.440265 0.030019 0.500000 0.500000 0.000000
-0.927108 0.228523 -0.195791 1.000000 0.000000 0.000000
0.019778 -0.523813 -0.092477 0.500000 0.000000 0.500000
-0.244044 0.062405 0.297134 0.600000 0.000000 0.300000
-0.625872 0.274785 -0.267807 0.500000 0.500000 0.000000
-0.065288 -0.446526 0.354273 0.500000 0.000000 0.500000
-0.327261 -0.085739 0.354942 0.600000 0.000000 0.300000
0.040601 -0.184253 -0.267807 0.600000 0.000000 0.300000
0.017627 -0.258192 0.354941 0.600000 0.000000 0.300000
0.301795 0.716231 -0.128037 0.500000 0.500000 0.000000
-0.624272 -0.667595 0.000048 0.600000 0.300000 0.000000
0.828387 0.326529 0.046833 0.000000 0.000000 1.000000
-0.455553 -0.523813 0.007230 0.500000 0.000000 0.500000
0.093625 0.242592 -0.267807 0.500000 0.500000 0.000000
-0.144145 0.062405 0.191070 0.600000 0.000000 0.300000
0.500178 0.675694 -0.222097 0.500000 0.500000 0.000000
-0.052402 -0.138679 -0.267807 0.600000 0.000000 0.300000
0.190784 0.441235 -0.267807 0.500000 0.500000 0.000000
0.160163 -0.383079 0.353941 0.500000 0.000000 0.500000
-0.205912 0.221067 -0.267807 0.500000 0.500000 0.000000
0.409460 0.181695 0.030872 0.500000 0.500000 0.000000
-0.510456 -0.569036 -0.099024 0.600000 0.300000 0.000000
0.114515 0.062405 0.114415 0.600000 0.000000 0.300000
-0.371777 0.632318 -0.267807 0.500000 0.500000 0.000000
-0.679207 -0.476493 -0.051964 0.500000 0.000000 0.500000
0.230345 -0.269293 0.354942 0.600000 0.000000 0.300000
-0.004277 0.139024 0.030872 0.500000 0.500000 0.000000
0.026781 -0.379901 0.353941 0.500000 0.000000 0.500000
-0.437350 -0.111380 -0.267807 0.600000 0.000000 0.300000
-0.507343 0.263697 -0.267807 0.500000 0.500000 0.000000
-0.023181 0.027887 0.354939 0.600000 0.000000 0.300000
-0.689271 -0.126457 -0.208419 0.600000 0.000000 0.300000
-0.189597 -0.272114 -0.267807 0.600000 0.000000 0.300000
-0.027347 0.052688 -0.267807 0.500000 0.500000 0.000000
-0.102887 -0.523813 0.214691 0.500000 0.000000 0.500000
-0.516181 -0.642058 -0.119080 0.600000 0.300000 0.000000
-0.046923 0.595299 -0.267807 0.500000 0.500000 0.000000
-0.686871 -0.254478 0.305899 0.600000 0.000000 0.300000
0.426445 -0.360935 0.354402 0.500000 0.000000 0.500000
-0.685327 -0.440909 0.064430 0.500000 0.000000 0.500000
0.872985 0.132140 0.276195 0.000000 0.000000 1.000000
0.367262 0.062405 0.225153 0.600000 0.000000 0.300000
-0.820283 0.208567 0.354942 1.000000 0.000000 0.000000
-0.067673 0.294807 0.030872 0.500000 0.500000 0.000000
-0.348936 0.062405 0.172464 0.600000 0.000000 0.300000
-0.575087 -0.462404 -0.267807 0.500000 0.000000 0.500000
-0.617766 -0.315806 0.354126 0.600000 0.000000 0.300000
