ply
format ascii 1.0
element vertex 1265
property float x
property float y
property float z
property uchar red
property uchar green
property uchar blue
end_header
-0.128338 -0.271970 -0.265311 153 0 76
0.658689 0.044897 -0.265311 127 127 0
-0.684479 -0.160853 0.072739 153 0 76
-0.473823 -0.076050 -0.265311 153 0 76
0.519595 0.499853 -0.265311 127 127 0
-0.231649 -0.521318 -0.208871 127 0 127
0.041747 0.059909 0.077883 153 0 76
0.873877 0.263130 -0.035163 0 0 255
0.033225 -0.521318 -0.210449 127 0 127
0.498515 0.355367 -0.265311 127 127 0
-0.075982 0.420953 -0.265311 127 127 0
-0.354684 0.708947 -0.213855 127 127 0
-0.054612 -0.332199 0.352446 127 0 127
-0.214302 -0.411538 -0.265311 127 0 127
0.127754 0.732119 -0.025561 127 127 0
-0.127460 0.439248 0.028377 127 127 0
0.665143 -0.076162 -0.149394 153 0 76
0.303908 0.059909 0.263654 153 0 76
0.352045 -0.521318 0.278311 127 0 127
0.072716 0.735163 -0.032808 127 127 0
-0.684375 -0.410156 -0.146452 127 0 127
0.357869 0.463023 -0.265311 127 127 0
0.782733 0.353681 -0.242789 127 127 0
0.192390 0.701997 0.028377 127 127 0
0.161940 -0.521318 0.160785 127 0 127
-0.921895 0.238437 0.268063 255 0 0
0.409362 0.518703 -0.265311 127 127 0
-0.191351 0.266632 -0.265311 127 127 0
-0.561545 0.160764 -0.265311 127 127 0
0.182005 0.728193 -0.215576 127 127 0
0.564688 -0.343828 -0.265311 127 0 127
0.661164 -0.422294 0.128990 127 0 127
0.391210 0.489138 -0.265311 127 127 0
0.406402 0.663907 0.028377 127 127 0
-0.795224 0.076039 0.352446 255 0 0
0.529858 0.636685 -0.211559 127 127 0
-0.767348 0.018380 0.286697 255 0 0
-0.729580 0.179746 0.352446 255 0 0
0.603925 0.459356 -0.246883 127 127 0
0.012451 -0.196401 0.352446 153 0 76
-0.769680 0.103226 0.352446 255 0 0
-0.507954 -0.619774 -0.028678 153 76 0
0.599344 0.466343 -0.081189 127 127 0
0.839026 0.087595 0.018669 0 0 255
0.189893 0.727413 -0.028825 127 127 0
0.353315 -0.020960 0.352446 153 0 76
0.507142 0.209773 0.298698 0 0 255
0.880959 0.158840 0.174629 0 0 255
0.425359 -0.046645 0.352446 153 0 76
-0.516454 -0.142283 0.352446 153 0 76
-0.519133 0.135625 0.144510 255 0 0
-0.010897 0.157277 -0.265311 127 127 0
-0.300447 0.059909 0.202618 153 0 76
-0.518071 0.602463 -0.265311 127 127 0
0.343852 0.207800 0.028377 127 127 0
0.297449 -0.506696 0.352446 127 0 127
0.239706 0.247484 -0.265311 127 127 0
0.506373 0.208391 0.224137 0 0 255
0.140354 0.059909 0.224900 153 0 76
-0.743006 0.378298 -0.059945 127 127 0
-0.871707 0.301775 -0.154520 255 0 0
-0.066132 0.083268 0.028377 127 127 0
-0.646608 -0.665372 0.314258 153 76 0
-0.381942 0.068372 -0.265311 127 127 0
0.502011 -0.022795 0.352446 153 0 76
-0.312929 -0.521318 0.107566 127 0 127
-0.164404 -0.411314 0.352446 127 0 127
-0.611746 0.005178 0.352446 153 0 76
-0.445964 0.621109 0.028377 127 127 0
-0.107998 0.059909 0.133554 153 0 76
0.202283 0.612496 0.028377 127 127 0
0.623720 -0.672011 0.121429 76 0 153
0.604710 -0.142784 0.352446 153 0 76
0.685479 0.017700 0.300948 153 0 76
-0.360829 0.353514 -0.265311 127 127 0
-0.521376 -0.549912 -0.248751 153 76 0
-0.922584 0.236550 0.089124 255 0 0
0.157119 -0.017746 -0.265311 153 0 76
0.661164 -0.414817 0.154785 127 0 127
0.078477 0.363816 0.028377 127 127 0
0.618786 -0.672011 -0.132113 76 0 153
0.521721 -0.540822 -0.119325 76 0 153
-0.322013 -0.095489 -0.265311 153 0 76
-0.155374 0.521946 0.028377 127 127 0
0.110120 0.369390 0.028377 127 127 0
0.655400 -0.151747 -0.172356 153 0 76
0.672496 -0.642773 -0.047563 76 0 153
0.023953 -0.521318 0.183144 127 0 127
0.132932 -0.362717 0.352446 127 0 127
-0.245322 0.059909 0.151558 153 0 76
-0.747202 0.327201 0.028377 127 127 0
-0.915551 0.119841 -0.120615 255 0 0
0.664038 -0.329784 -0.265311 153 0 76
-0.339185 0.711263 -0.263294 127 127 0
0.488976 -0.204533 -0.265311 153 0 76
-0.423880 0.696542 -0.105881 127 127 0
-0.821622 0.315399 0.352446 255 0 0
0.457220 0.151801 -0.265311 127 127 0
-0.057720 0.028450 -0.265311 127 127 0
-0.185385 -0.304552 -0.265311 153 0 76
-0.447141 0.399010 -0.265311 127 127 0
-0.495261 -0.591799 0.150311 153 76 0
-0.724215 0.340356 0.028377 127 127 0
0.786709 0.052451 -0.222701 0 0 255
0.395606 -0.088994 -0.265311 153 0 76
-0.214728 -0.521318 0.122109 127 0 127
-0.662000 -0.556392 0.023862 153 76 0
0.546511 0.611826 -0.197838 127 127 0
0.502711 -0.521318 -0.156750 127 0 127
-0.236025 0.459190 -0.265311 127 127 0
-0.521661 -0.114069 -0.265311 153 0 76
0.663057 -0.278459 -0.230245 153 0 76
-0.002856 -0.488501 -0.265311 127 0 127
-0.377448 0.501777 -0.265311 127 127 0
-0.615852 -0.389518 -0.265311 127 0 127
-0.162154 0.731017 -0.218289 127 127 0
0.224108 0.724030 -0.037328 127 127 0
0.701400 0.149558 -0.265311 127 127 0
-0.725938 0.282759 -0.265311 127 127 0
0.625486 0.202369 0.352446 0 0 255
-0.105225 -0.521318 0.023622 127 0 127
0.632290 -0.672011 -0.193449 76 0 153
-0.355991 -0.034009 0.352446 153 0 76
-0.507490 0.079626 0.242160 255 0 0
0.632085 -0.068553 0.352446 153 0 76
-0.481353 -0.521318 -0.210650 127 0 127
-0.093439 -0.475225 0.352446 127 0 127
0.811204 0.065496 0.298399 0 0 255
0.818493 0.331535 -0.184129 0 0 255
0.590886 -0.672011 0.030759 76 0 153
0.481242 -0.521318 -0.162802 127 0 127
-0.415420 0.245697 0.028377 127 127 0
-0.684375 -0.375145 0.351766 127 0 127
-0.541671 0.604158 0.028377 127 127 0
-0.430327 -0.325622 -0.265311 127 0 127
0.290616 -0.407841 -0.265311 127 0 127
-0.473920 0.262272 0.028377 127 127 0
-0.353777 -0.521318 -0.122140 127 0 127
-0.337093 0.125853 -0.265311 127 127 0
-0.406569 0.624403 -0.265311 127 127 0
0.311837 -0.393526 -0.265311 127 0 127
-0.530811 0.642584 -0.030468 127 127 0
-0.112722 -0.260425 0.352446 153 0 76
0.365778 0.559580 0.028377 127 127 0
0.501441 -0.335650 0.352446 127 0 127
-0.684375 -0.413226 -0.010585 127 0 127
-0.792690 0.347891 -0.236681 127 127 0
-0.172675 -0.521318 0.176932 127 0 127
-0.530184 0.309316 0.028377 127 127 0
0.478819 0.146697 0.198414 0 0 255
-0.367623 -0.521318 0.254973 127 0 127
-0.037199 -0.466436 -0.265311 127 0 127
-0.495741 -0.463649 -0.265311 127 0 127
0.039163 -0.521318 0.045617 127 0 127
-0.592455 -0.069411 -0.265311 153 0 76
0.065247 0.347973 -0.265311 127 127 0
-0.304362 0.716099 -0.051926 127 127 0
0.211175 -0.521318 -0.246234 127 0 127
-0.039553 0.694369 0.028377 127 127 0
-0.014027 -0.521318 0.149073 127 0 127
-0.322677 0.045740 0.352446 153 0 76
0.448954 -0.521318 -0.153590 127 0 127
-0.684375 -0.338636 0.238472 127 0 127
-0.797238 0.022597 0.084642 255 0 0
0.309226 -0.521318 0.321290 127 0 127
0.688872 -0.585711 -0.074623 76 0 153
-0.825819 0.031739 0.244767 255 0 0
0.658744 -0.250586 -0.115236 153 0 76
-0.445870 0.297978 -0.265311 127 127 0
0.670240 -0.053216 0.216067 153 0 76
-0.796827 0.197344 0.352446 255 0 0
-0.155910 0.591634 -0.265311 127 127 0
-0.462702 0.683643 -0.265311 127 127 0
-0.448158 0.551821 0.028377 127 127 0
0.101941 0.059909 0.197525 153 0 76
0.669302 -0.057356 0.333404 153 0 76
-0.097654 0.636143 0.028377 127 127 0
0.345728 -0.521318 0.231617 127 0 127
0.287039 0.469153 -0.265311 127 127 0
0.132296 0.236018 0.028377 127 127 0
0.242389 0.349828 -0.265311 127 127 0
-0.530266 -0.371120 -0.265311 127 0 127
0.654738 -0.194629 0.211503 153 0 76
0.003238 0.140376 -0.265311 127 127 0
-0.216337 0.359136 0.028377 127 127 0
-0.635983 -0.548362 -0.265311 153 76 0
-0.420055 0.541743 0.028377 127 127 0
-0.225942 -0.521318 0.269531 127 0 127
-0.403971 0.059909 0.210294 153 0 76
-0.906834 0.121708 -0.265311 255 0 0
-0.065878 0.385165 0.028377 127 127 0
-0.892245 0.284687 -0.025825 255 0 0
-0.521376 -0.531887 0.323966 127 0 127
0.399891 -0.236366 0.352446 153 0 76
-0.291015 -0.169540 0.352446 153 0 76
-0.655940 0.419247 0.000174 127 127 0
0.859964 0.289502 -0.036608 0 0 255
-0.321165 0.372829 -0.265311 127 127 0
0.664054 -0.352962 0.211816 127 0 127
-0.218655 -0.329677 -0.265311 127 0 127
-0.865785 0.239485 -0.265311 255 0 0
0.252299 0.684028 -0.265311 127 127 0
0.402251 -0.285757 0.352446 153 0 76
-0.368715 -0.195211 -0.265311 153 0 76
0.234255 0.185335 0.028377 127 127 0
-0.443328 -0.238871 0.352446 153 0 76
0.842165 0.311608 -0.059841 0 0 255
0.620475 0.036823 0.352446 0 0 255
-0.756838 0.017784 0.088028 153 0 76
0.464761 -0.049590 0.352446 153 0 76
0.483646 0.659554 -0.265311 127 127 0
-0.450284 -0.464293 0.352446 127 0 127
0.016458 -0.124673 0.352446 153 0 76
-0.534519 0.172819 0.303671 255 0 0
0.039279 -0.348484 0.352446 127 0 127
-0.930142 0.204306 0.288808 255 0 0
-0.715737 -0.011113 -0.028677 153 0 76
0.498089 -0.604795 -0.219160 76 0 153
0.222218 0.430969 0.028377 127 127 0
0.242154 -0.520067 -0.265311 127 0 127
0.307290 0.427989 0.028377 127 127 0
-0.480129 0.156056 0.028377 127 127 0
-0.684375 -0.404427 0.211123 127 0 127
-0.444066 -0.521318 -0.021023 127 0 127
-0.839073 0.040295 0.352446 255 0 0
-0.417502 -0.521318 -0.005363 127 0 127
-0.172165 0.059909 0.224671 153 0 76
0.170609 0.481070 -0.265311 127 127 0
0.392941 0.023614 -0.265311 127 127 0
0.359559 0.416065 0.028377 127 127 0
-0.684375 -0.256585 0.281553 153 0 76
-0.440674 0.412880 0.028377 127 127 0
0.183000 -0.521318 0.038818 127 0 127
-0.049576 -0.521318 -0.145584 127 0 127
-0.509665 0.099259 0.273070 255 0 0
-0.658538 -0.656237 -0.156415 153 76 0
0.548743 0.213521 0.352446 0 0 255
-0.782853 0.019670 -0.207181 255 0 0
0.519412 -0.607735 0.352446 76 0 153
-0.134285 0.059909 0.224121 153 0 76
-0.635337 0.229283 0.352446 255 0 0
-0.249121 0.029853 -0.265311 127 127 0
0.667066 -0.067465 -0.024210 153 0 76
-0.596547 0.451587 0.027108 127 127 0
0.742412 0.344750 0.235542 0 0 255
0.497917 -0.605107 0.197809 76 0 153
-0.807639 0.338742 -0.079998 127 127 0
-0.765905 0.018298 0.023939 255 0 0
-0.130441 0.059909 0.085262 153 0 76
0.241943 0.457364 -0.265311 127 127 0
0.709401 0.039124 -0.113831 153 0 76
0.587337 -0.512832 -0.265311 76 0 153
0.469569 0.683470 -0.046107 127 127 0
0.733489 0.096994 -0.265311 0 0 255
-0.015623 0.225740 -0.265311 127 127 0
0.222768 0.059909 0.298587 153 0 76
-0.300055 0.132380 0.028377 127 127 0
0.327747 -0.310505 -0.265311 127 0 127
0.283776 0.059909 0.096081 153 0 76
-0.581676 0.494796 -0.017580 127 127 0
-0.463500 -0.093244 0.352446 153 0 76
0.248766 0.592152 0.028377 127 127 0
-0.625490 0.276025 0.347318 255 0 0
-0.381457 0.059909 0.223649 153 0 76
0.071013 0.163958 0.028377 127 127 0
0.797882 0.057792 0.070089 0 0 255
0.661164 -0.460823 0.345930 127 0 127
-0.873858 0.063379 0.352446 255 0 0
0.710068 0.052213 0.352446 0 0 255
0.296931 -0.337193 0.352446 153 0 76
0.526612 0.140476 -0.265311 127 127 0
0.173146 0.289919 -0.265311 127 127 0
-0.302312 -0.521318 0.082841 127 0 127
0.363297 0.612441 0.028377 127 127 0
-0.498072 0.055423 -0.265311 127 127 0
0.518273 -0.635387 0.196558 76 0 153
-0.146430 0.145659 0.028377 127 127 0
0.066728 0.434974 0.028377 127 127 0
0.380365 0.680792 -0.265311 127 127 0
-0.067783 0.456131 0.028377 127 127 0
0.462244 0.114407 -0.265311 127 127 0
0.434703 0.691149 0.008545 127 127 0
-0.526073 -0.657425 -0.009767 153 76 0
0.032851 -0.521318 -0.135545 127 0 127
-0.519926 -0.644653 0.325864 153 76 0
0.242936 0.471256 0.028377 127 127 0
-0.516882 -0.521318 0.284571 127 0 127
-0.898592 0.090690 -0.105973 255 0 0
-0.108419 -0.382801 0.352446 127 0 127
-0.201963 -0.521318 -0.109025 127 0 127
-0.374045 0.059909 0.133107 153 0 76
0.692607 -0.620719 -0.054089 76 0 153
-0.083844 -0.521318 0.181383 127 0 127
0.066841 -0.435099 0.352446 127 0 127
0.552801 0.141607 0.352446 0 0 255
0.466388 -0.208403 0.352446 153 0 76
0.590905 0.297682 0.197365 0 0 255
-0.383047 -0.521318 0.031304 127 0 127
0.296125 0.680132 -0.265311 127 127 0
-0.438221 -0.082926 -0.265311 153 0 76
0.470966 0.111180 0.052251 0 0 255
0.504194 0.037089 -0.265311 127 127 0
0.649537 0.104846 0.352446 0 0 255
-0.908118 0.265284 0.057149 255 0 0
0.818050 0.070046 -0.224103 0 0 255
0.238832 0.139338 -0.265311 127 127 0
0.677196 -0.576976 0.146825 76 0 153
-0.662727 -0.650859 0.143493 153 76 0
-0.338267 0.649536 -0.265311 127 127 0
0.835007 0.318287 0.008431 0 0 255
-0.789915 0.021107 -0.229270 255 0 0
0.661164 -0.461479 0.149666 127 0 127
0.666622 -0.308531 0.149193 153 0 76
-0.165421 0.257697 0.028377 127 127 0
0.404248 0.070844 -0.265311 127 127 0
0.650816 -0.311379 0.352446 153 0 76
0.143167 -0.119718 0.352446 153 0 76
0.658299 -0.246271 0.260299 153 0 76
-0.043799 0.535362 -0.265311 127 127 0
-0.324846 -0.186090 0.352446 153 0 76
0.733861 0.039268 -0.255533 0 0 255
0.814874 0.334044 0.233947 0 0 255
-0.581534 0.495209 -0.071945 127 127 0
-0.527311 -0.659998 0.291386 153 76 0
0.751919 0.041811 0.109673 0 0 255
0.393574 -0.159498 0.352446 153 0 76
0.543884 0.241160 0.352446 0 0 255
-0.679592 -0.462797 0.118055 127 0 127
-0.662000 -0.561660 0.287735 153 76 0
-0.652400 0.400168 -0.265311 127 127 0
-0.076413 0.516656 -0.265311 127 127 0
-0.685096 -0.143405 -0.078321 153 0 76
0.157573 0.395863 -0.265311 127 127 0
-0.719853 0.317140 0.303776 255 0 0
0.396889 0.059909 0.284970 153 0 76
0.346209 0.707637 -0.061721 127 127 0
-0.252015 -0.521318 0.207518 127 0 127
0.521721 -0.537568 0.255225 76 0 153
-0.521376 -0.546325 -0.165477 153 76 0
-0.345580 0.078705 -0.265311 127 127 0
0.599344 0.531982 0.000345 127 127 0
-0.326928 0.344132 0.028377 127 127 0
0.686110 0.028622 -0.244957 153 0 76
0.632898 -0.672011 -0.054159 76 0 153
0.693600 -0.602203 0.327059 76 0 153
0.719773 0.344017 0.348211 0 0 255
0.716026 0.315381 -0.265311 127 127 0
-0.541129 0.184654 0.096171 255 0 0
-0.228814 0.725125 -0.105451 127 127 0
-0.686684 -0.586451 0.228879 153 76 0
0.176940 0.638991 -0.265311 127 127 0
0.645379 -0.262791 0.352446 153 0 76
-0.597886 0.192845 0.352446 255 0 0
-0.407045 0.059909 0.329311 153 0 76
0.126300 0.215613 -0.265311 127 127 0
0.106595 -0.286235 -0.265311 153 0 76
-0.723641 0.319127 -0.265311 127 127 0
-0.201247 -0.521318 0.246626 127 0 127
0.180019 0.728389 -0.177529 127 127 0
-0.723445 0.187638 -0.265311 127 127 0
-0.494767 -0.303252 0.352446 153 0 76
0.365853 0.326241 -0.265311 127 127 0
-0.261034 -0.521318 -0.210903 127 0 127
-0.383620 0.580469 -0.265311 127 127 0
-0.330316 0.415568 -0.265311 127 127 0
0.445287 -0.471748 -0.265311 127 0 127
-0.177783 0.084853 0.028377 127 127 0
-0.684375 -0.336225 -0.218991 127 0 127
0.516132 0.224329 0.260493 0 0 255
0.536940 -0.127741 0.352446 153 0 76
0.663794 0.332390 0.287932 0 0 255
0.122605 0.079956 0.028377 127 127 0
-0.559408 0.559496 -0.044490 127 127 0
0.425300 -0.134392 -0.265311 153 0 76
0.355172 0.625004 -0.265311 127 127 0
-0.337689 0.711471 -0.183494 127 127 0
0.844191 0.309716 0.112540 0 0 255
0.770993 0.213843 0.352446 0 0 255
-0.078995 0.551431 0.028377 127 127 0
0.492180 -0.123326 0.352446 153 0 76
0.569516 -0.672011 -0.103640 76 0 153
-0.008935 0.033944 -0.265311 127 127 0
-0.058525 -0.184162 -0.265311 153 0 76
0.460366 0.579090 -0.265311 127 127 0
-0.406474 -0.521318 0.145177 127 0 127
0.335631 -0.521318 -0.013471 127 0 127
-0.464162 -0.521318 0.178742 127 0 127
-0.609265 -0.097840 0.352446 153 0 76
0.559878 0.075345 -0.265311 127 127 0
0.405781 0.205694 0.028377 127 127 0
-0.043601 -0.521318 0.126055 127 0 127
0.065971 0.059909 0.156744 153 0 76
-0.313899 -0.219380 -0.265311 153 0 76
0.210161 0.050777 -0.265311 127 127 0
-0.605853 -0.665372 0.181989 153 76 0
-0.213208 -0.176155 -0.265311 153 0 76
0.503009 0.676104 -0.122108 127 127 0
-0.320403 -0.521318 0.002887 127 0 127
-0.930557 0.196582 0.122588 255 0 0
-0.326789 0.369228 0.028377 127 127 0
0.143481 -0.281235 0.352446 153 0 76
-0.364483 0.059909 0.347793 153 0 76
-0.076503 -0.014746 -0.265311 153 0 76
-0.129269 -0.521318 -0.215996 127 0 127
0.611230 0.226425 -0.265311 127 127 0
0.090769 -0.128653 -0.265311 153 0 76
0.368653 0.703613 -0.153899 127 127 0
-0.477875 -0.232869 0.352446 153 0 76
0.472028 0.116319 0.111623 0 0 255
-0.192559 0.259051 0.028377 127 127 0
0.643055 -0.496736 0.352446 127 0 127
0.212371 0.488328 -0.265311 127 127 0
0.645823 -0.317229 -0.265311 127 0 127
-0.429633 0.059909 0.234383 153 0 76
0.171808 0.677615 -0.265311 127 127 0
-0.439193 -0.120590 0.352446 153 0 76
0.875465 0.259217 0.163963 0 0 255
0.602545 0.197400 -0.265311 127 127 0
0.604041 -0.606692 -0.265311 76 0 153
0.415073 -0.468774 -0.265311 127 0 127
0.194319 -0.521318 0.020347 127 0 127
-0.203574 -0.521318 -0.240978 127 0 127
-0.914959 0.118275 -0.215781 255 0 0
0.323183 0.552817 0.028377 127 127 0
0.278620 0.558586 -0.265311 127 127 0
0.033837 -0.401798 -0.265311 127 0 127
-0.549793 0.587433 -0.071129 127 127 0
0.004785 -0.521318 0.056051 127 0 127
-0.332400 -0.521318 -0.076110 127 0 127
-0.587346 0.478321 -0.109376 127 127 0
-0.684375 -0.258344 -0.202872 153 0 76
-0.348988 0.249783 0.028377 127 127 0
-0.473835 0.686006 -0.106654 127 127 0
-0.781579 0.019411 0.068326 255 0 0
0.154490 -0.076008 -0.265311 153 0 76
-0.651724 0.420596 -0.077239 127 127 0
0.532557 0.611300 -0.265311 127 127 0
-0.452709 0.690660 -0.225903 127 127 0
0.805248 0.340375 -0.011117 0 0 255
-0.419033 0.059909 0.291571 153 0 76
-0.704777 -0.040168 0.223076 153 0 76
0.661164 -0.552287 -0.251930 76 0 153
-0.664952 0.299949 0.028377 127 127 0
0.874216 0.139658 0.238944 0 0 255
-0.189815 0.014219 0.352446 153 0 76
-0.684375 -0.211901 0.152579 153 0 76
-0.413360 0.482070 -0.265311 127 127 0
-0.732747 0.319476 0.349301 255 0 0
-0.400112 -0.133762 0.352446 153 0 76
-0.119078 -0.521318 0.203540 127 0 127
-0.399783 0.700862 -0.162660 127 127 0
0.868919 0.128948 -0.154618 0 0 255
0.292600 -0.215382 -0.265311 153 0 76
0.833881 0.082921 -0.260929 0 0 255
0.661164 -0.499313 0.069705 127 0 127
-0.609983 0.379537 -0.265311 127 127 0
0.885983 0.213040 -0.189817 0 0 255
-0.748372 0.318782 -0.265311 127 127 0
-0.576720 -0.665372 0.159210 153 76 0
-0.195499 -0.234101 -0.265311 153 0 76
-0.116167 0.733739 -0.171349 127 127 0
-0.364460 -0.203012 0.352446 153 0 76
-0.664001 -0.538838 -0.216831 127 0 127
0.475479 0.224105 -0.265311 127 127 0
-0.684375 -0.265722 0.112234 153 0 76
0.886732 0.204855 0.140145 0 0 255
0.683150 -0.009131 0.297540 153 0 76
-0.520922 -0.014634 0.352446 153 0 76
0.022905 0.736145 -0.141349 127 127 0
0.152238 0.291632 0.028377 127 127 0
0.560509 0.274232 0.285898 0 0 255
0.885556 0.217466 0.239120 0 0 255
-0.406331 0.005727 0.352446 153 0 76
-0.727963 0.015092 0.050984 153 0 76
0.422906 -0.148564 0.352446 153 0 76
0.348347 -0.467799 -0.265311 127 0 127
-0.154225 -0.425185 -0.265311 127 0 127
0.760625 0.366747 0.000753 127 127 0
0.608566 -0.472405 -0.265311 127 0 127
0.162719 -0.343281 0.352446 127 0 127
0.018560 -0.521318 0.229806 127 0 127
-0.782622 0.019623 -0.053486 255 0 0
-0.452242 0.514821 0.028377 127 127 0
-0.684375 -0.370893 0.236600 127 0 127
0.108341 -0.243321 0.352446 153 0 76
0.770565 0.046513 -0.241331 0 0 255
0.290878 0.715779 -0.121411 127 127 0
0.672096 0.207033 -0.265311 127 127 0
0.446597 0.322306 0.028377 127 127 0
0.825673 0.120116 -0.265311 0 0 255
-0.684375 -0.318146 -0.247230 153 0 76
-0.848622 0.314262 -0.070666 255 0 0
0.359238 0.059909 0.121310 153 0 76
0.512002 0.580723 0.028377 127 127 0
-0.366600 0.025127 -0.265311 127 127 0
-0.604675 -0.665372 0.100664 153 76 0
0.700481 0.236891 0.352446 0 0 255
0.675810 0.293879 -0.265311 127 127 0
-0.667763 -0.520489 0.228780 127 0 127
0.662624 -0.377690 0.134687 127 0 127
-0.076698 0.720522 -0.265311 127 127 0
-0.454712 0.059909 0.107892 153 0 76
0.169534 -0.396618 -0.265311 127 0 127
0.177844 -0.155761 0.352446 153 0 76
0.600146 0.461590 0.018177 127 127 0
-0.684375 -0.309062 0.114848 153 0 76
0.753302 0.042096 -0.157389 0 0 255
-0.831388 0.034341 0.191190 255 0 0
0.476756 0.516881 -0.265311 127 127 0
-0.553707 0.576059 -0.118067 127 127 0
0.468519 0.683701 -0.184404 127 127 0
0.163136 0.730024 -0.069487 127 127 0
0.023531 0.455871 0.028377 127 127 0
0.451604 0.059909 0.339700 153 0 76
-0.861402 0.158294 0.352446 255 0 0
-0.441478 0.452041 -0.265311 127 127 0
-0.007008 0.118757 0.028377 127 127 0
0.482007 0.680730 0.024176 127 127 0
-0.589241 0.054432 0.352446 255 0 0
0.712407 0.038932 0.062957 0 0 255
-0.456197 0.514947 -0.265311 127 127 0
0.861945 0.286125 0.302107 0 0 255
-0.921840 0.136497 -0.176262 255 0 0
0.662076 -0.093351 0.017831 153 0 76
0.445840 -0.521318 0.288943 127 0 127
0.095051 -0.521318 -0.250272 127 0 127
-0.877468 0.297668 -0.125636 255 0 0
-0.175856 -0.521318 -0.206583 127 0 127
-0.498952 -0.601069 -0.091887 153 76 0
-0.133767 -0.105083 0.352446 153 0 76
-0.374934 0.705316 -0.245845 127 127 0
-0.358052 0.615388 -0.265311 127 127 0
0.663674 -0.359521 -0.184084 127 0 127
-0.507511 -0.577740 -0.121886 153 76 0
0.044539 0.529405 -0.265311 127 127 0
-0.669453 -0.512245 0.308817 127 0 127
-0.523497 0.147220 0.037100 255 0 0
-0.788789 0.020878 -0.142687 255 0 0
-0.673482 -0.492597 -0.004919 127 0 127
0.585651 0.553396 -0.051137 127 127 0
-0.872809 0.147177 -0.265311 255 0 0
0.457288 0.130100 0.028377 127 127 0
0.482422 0.488211 -0.265311 127 127 0
-0.188187 -0.521318 0.329799 127 0 127
0.811278 0.065542 0.146679 0 0 255
0.633548 -0.578234 0.352446 76 0 153
-0.625553 0.093004 0.352446 255 0 0
0.393056 -0.500669 0.352446 127 0 127
-0.009917 -0.107825 -0.265311 153 0 76
0.564809 0.492166 -0.265311 127 127 0
-0.816784 0.238195 0.352446 255 0 0
0.247489 0.721719 0.014843 127 127 0
0.683549 -0.007881 0.217975 153 0 76
-0.433876 -0.521318 0.298274 127 0 127
0.600320 0.385216 0.028377 127 127 0
-0.580053 0.237706 0.208426 255 0 0
0.194791 0.425108 -0.265311 127 127 0
-0.684375 -0.422777 -0.240769 127 0 127
0.167318 0.078573 0.028377 153 0 76
0.665969 0.422689 -0.105074 127 127 0
0.661164 -0.480673 -0.028289 127 0 127
0.173170 -0.521318 -0.003155 127 0 127
-0.072217 -0.065516 0.352446 153 0 76
-0.636027 0.067258 -0.265311 127 127 0
0.814518 0.334290 -0.225141 0 0 255
-0.684375 -0.363352 0.026462 127 0 127
0.341195 -0.415075 -0.265311 127 0 127
0.835041 0.318256 0.082348 0 0 255
0.098286 0.110281 -0.265311 127 127 0
0.262228 0.719757 -0.219967 127 127 0
0.664272 -0.349181 0.040080 127 0 127
0.661368 -0.399422 0.297039 127 0 127
-0.575093 0.231850 0.236046 255 0 0
0.102710 0.668684 0.028377 127 127 0
0.493565 0.657200 0.028377 127 127 0
-0.776563 0.018902 0.247063 255 0 0
0.419870 -0.521318 0.158485 127 0 127
0.047718 0.718371 0.028377 127 127 0
-0.168939 0.059909 0.102411 153 0 76
-0.271595 -0.439351 0.352446 127 0 127
-0.514755 -0.589838 -0.265311 153 76 0
-0.512672 0.361124 -0.265311 127 127 0
0.254258 0.720864 -0.063542 127 127 0
-0.625662 -0.490117 0.352446 127 0 127
-0.010954 -0.521318 0.041986 127 0 127
-0.029596 0.736324 0.014208 127 127 0
-0.326172 -0.440074 -0.265311 127 0 127
0.574734 0.569693 -0.080976 127 127 0
-0.518675 0.676130 -0.040483 127 127 0
-0.700822 -0.052814 0.275174 153 0 76
-0.590872 -0.348221 -0.265311 127 0 127
-0.140060 0.059909 0.114318 153 0 76
0.287925 -0.373868 0.352446 127 0 127
-0.186601 0.415070 -0.265311 127 127 0
-0.897726 0.089549 0.037365 255 0 0
-0.269665 0.101342 0.028377 127 127 0
-0.611531 -0.610573 0.352446 153 76 0
0.685650 0.020659 -0.014794 153 0 76
-0.248639 -0.107816 -0.265311 153 0 76
0.865337 0.122112 -0.107280 0 0 255
-0.058671 -0.085930 -0.265311 153 0 76
0.097124 -0.521318 -0.193890 127 0 127
0.176379 0.059909 0.291214 153 0 76
-0.486102 0.059909 0.138950 153 0 76
-0.057248 0.290813 0.028377 127 127 0
-0.515848 -0.568172 0.297360 153 76 0
0.036909 0.153379 0.028377 127 127 0
-0.769554 0.018505 0.156287 255 0 0
0.345642 0.555375 -0.265311 127 127 0
0.658085 -0.244190 -0.018461 153 0 76
-0.265852 -0.281151 0.352446 153 0 76
-0.684375 -0.388969 0.076335 127 0 127
-0.711925 -0.020548 0.045204 153 0 76
0.422245 -0.361796 -0.265311 127 0 127
0.571169 -0.560536 0.352446 76 0 153
0.324406 0.711124 -0.126703 127 127 0
0.858929 0.291267 0.131226 0 0 255
-0.001833 0.610564 0.028377 127 127 0
0.508548 -0.228069 0.352446 153 0 76
0.841811 0.311938 0.334596 0 0 255
-0.421413 -0.133919 -0.265311 153 0 76
0.788558 0.141489 -0.265311 0 0 255
-0.822180 0.319767 0.208083 255 0 0
-0.926409 0.153751 0.001963 255 0 0
-0.500392 0.059909 0.248731 255 0 0
0.341037 -0.289860 0.352446 153 0 76
0.300883 -0.039318 -0.265311 153 0 76
0.331798 -0.357333 -0.265311 127 0 127
0.592593 -0.672011 -0.019558 76 0 153
0.261341 0.210238 -0.265311 127 127 0
0.194951 -0.141103 -0.265311 153 0 76
0.014256 -0.521318 0.343383 127 0 127
-0.309309 -0.284292 0.352446 153 0 76
-0.169486 -0.019129 0.352446 153 0 76
0.661164 -0.494583 0.018820 127 0 127
0.521210 -0.562756 0.221551 76 0 153
-0.521376 -0.537578 0.250450 153 76 0
0.884861 0.224668 0.038848 0 0 255
0.124086 -0.318556 -0.265311 127 0 127
0.244299 -0.521318 0.350369 127 0 127
-0.575555 0.480223 -0.265311 127 127 0
0.156051 0.059909 0.280897 153 0 76
-0.165712 0.730806 -0.072116 127 127 0
-0.503817 -0.611178 -0.147519 153 76 0
-0.879133 0.296480 0.055478 255 0 0
-0.089327 -0.521318 0.287695 127 0 127
0.060009 -0.521318 0.131727 127 0 127
0.602839 -0.496820 0.352446 127 0 127
0.145065 0.059909 0.132241 153 0 76
0.023678 -0.432820 0.352446 127 0 127
0.481479 0.153860 0.299467 0 0 255
0.162270 -0.453822 0.352446 127 0 127
0.042300 0.735763 -0.177061 127 127 0
-0.074334 -0.467702 0.352446 127 0 127
0.072629 0.402945 0.028377 127 127 0
-0.251350 0.502214 -0.265311 127 127 0
0.433151 0.088889 -0.265311 127 127 0
0.130932 0.731930 -0.190024 127 127 0
-0.765355 0.161963 -0.265311 127 127 0
-0.573841 0.341465 -0.265311 127 127 0
-0.551897 -0.489672 0.352446 127 0 127
0.217065 0.225396 -0.265311 127 127 0
-0.887530 0.076193 0.215730 255 0 0
0.720595 0.390405 -0.228396 127 127 0
-0.459095 0.033476 -0.265311 127 127 0
-0.223543 0.316935 -0.265311 127 127 0
-0.307818 -0.521318 0.045628 127 0 127
-0.910055 0.262128 0.004278 255 0 0
0.654635 -0.185082 -0.110436 153 0 76
-0.923981 0.232723 -0.190067 255 0 0
0.836268 0.317111 -0.020358 0 0 255
0.064379 0.559157 -0.265311 127 127 0
-0.233148 0.340649 0.028377 127 127 0
0.555885 0.187772 0.352446 0 0 255
-0.635660 -0.132299 0.352446 153 0 76
-0.479601 -0.055007 -0.265311 153 0 76
0.276557 -0.124462 -0.265311 153 0 76
-0.010799 -0.521318 -0.229856 127 0 127
-0.414534 -0.016044 -0.265311 153 0 76
-0.295068 -0.357129 0.352446 127 0 127
-0.904646 0.262176 0.352446 255 0 0
-0.705876 0.157989 -0.265311 127 127 0
0.237457 -0.135562 -0.265311 153 0 76
-0.698408 0.382581 0.028377 127 127 0
0.563128 -0.361371 0.352446 127 0 127
-0.169423 -0.521318 -0.040069 127 0 127
-0.220380 0.725959 0.013398 127 127 0
-0.572541 -0.665372 -0.021974 153 76 0
0.087286 -0.251470 -0.265311 153 0 76
0.091347 0.059909 0.244965 153 0 76
0.183476 -0.091802 0.352446 153 0 76
-0.509681 0.099406 0.166288 255 0 0
-0.543393 0.181331 0.352446 255 0 0
-0.929834 0.176544 0.103135 255 0 0
-0.276267 0.679629 -0.265311 127 127 0
-0.930546 0.196796 -0.142806 255 0 0
0.197728 -0.521318 -0.127167 127 0 127
0.516437 -0.154881 -0.265311 153 0 76
-0.349371 0.709849 -0.086038 127 127 0
0.000320 -0.521318 -0.170854 127 0 127
-0.678933 0.053083 0.352446 255 0 0
0.467622 0.073756 0.208818 153 0 76
0.516401 -0.572842 -0.265311 76 0 153
-0.101734 0.588560 -0.265311 127 127 0
-0.554142 -0.280192 -0.265311 153 0 76
0.302798 0.258111 0.028377 127 127 0
0.861593 0.115653 0.308443 0 0 255
-0.169906 -0.147470 -0.265311 153 0 76
-0.650377 0.291638 0.142996 255 0 0
0.661536 -0.269330 -0.149005 153 0 76
-0.640329 0.285571 0.224599 255 0 0
0.654550 -0.177186 0.047469 153 0 76
-0.242117 0.059909 0.177635 153 0 76
-0.040031 0.736119 -0.011459 127 127 0
-0.500076 -0.603404 -0.127550 153 76 0
0.089376 -0.521318 0.207165 127 0 127
-0.684375 -0.173115 0.352073 153 0 76
0.174141 -0.066999 -0.265311 153 0 76
-0.656415 -0.595572 -0.265311 153 76 0
0.375534 0.655956 0.028377 127 127 0
0.826366 0.237644 0.352446 0 0 255
0.602429 0.460240 -0.176983 127 127 0
-0.684375 -0.169389 -0.244369 153 0 76
-0.670277 0.254060 -0.265311 127 127 0
0.192808 -0.313980 0.352446 153 0 76
-0.806004 0.278097 0.352446 255 0 0
-0.255896 -0.505736 0.352446 127 0 127
-0.641480 0.270138 -0.265311 127 127 0
0.646711 0.403545 -0.265311 127 127 0
0.273444 0.106010 -0.265311 127 127 0
-0.394286 -0.287140 -0.265311 153 0 76
-0.204946 0.023563 -0.265311 127 127 0
0.661164 -0.479965 -0.103041 127 0 127
-0.504834 -0.521318 -0.030377 127 0 127
-0.293326 0.500449 -0.265311 127 127 0
0.195780 -0.430817 0.352446 127 0 127
-0.149996 0.212652 0.028377 127 127 0
0.692073 0.085326 -0.265311 127 127 0
0.732007 0.057381 0.352446 0 0 255
-0.515883 -0.636250 -0.185922 153 76 0
0.665589 -0.291378 0.332402 153 0 76
-0.032066 -0.521318 0.187752 127 0 127
-0.555286 -0.607592 -0.265311 153 76 0
0.593337 0.101907 0.352446 0 0 255
0.547464 -0.021727 -0.265311 153 0 76
0.661164 -0.559198 0.256275 76 0 153
-0.510315 0.297373 -0.265311 127 127 0
-0.908325 0.216209 0.352446 255 0 0
0.169678 0.123202 -0.265311 127 127 0
0.582424 0.067361 -0.265311 127 127 0
0.883814 0.172869 -0.220771 0 0 255
-0.563143 -0.665372 0.121713 153 76 0
-0.630719 -0.665372 -0.090593 153 76 0
-0.091606 -0.514939 0.352446 127 0 127
-0.739173 0.019094 0.153754 255 0 0
-0.670686 -0.506234 0.134543 127 0 127
-0.552494 -0.333640 0.352446 127 0 127
-0.052882 -0.103613 0.352446 153 0 76
0.745158 0.344752 0.303018 0 0 255
0.083098 0.598424 0.028377 127 127 0
0.088893 0.651436 -0.265311 127 127 0
0.627722 0.318491 0.165537 0 0 255
0.505702 -0.590952 -0.181775 76 0 153
0.140419 0.637334 0.028377 127 127 0
0.082711 0.715215 0.028377 127 127 0
0.265233 -0.521318 0.056535 127 0 127
0.395991 0.591080 0.028377 127 127 0
-0.514160 -0.570109 -0.053572 153 76 0
0.043297 -0.167628 -0.265311 153 0 76
-0.450674 0.160551 0.028377 127 127 0
-0.521376 -0.546704 -0.079071 153 76 0
0.655049 -0.161788 0.350855 153 0 76
0.809007 0.064120 -0.047299 0 0 255
0.089370 0.333676 0.028377 127 127 0
0.084942 -0.433060 -0.265311 127 0 127
0.150165 -0.200338 -0.265311 153 0 76
-0.683204 -0.445179 -0.206460 127 0 127
-0.565779 0.220856 0.077268 255 0 0
-0.221645 0.059909 0.051283 153 0 76
-0.497762 -0.222232 0.352446 153 0 76
0.416113 -0.457927 0.352446 127 0 127
0.242992 -0.521318 -0.043964 127 0 127
0.377741 0.701984 -0.028837 127 127 0
-0.291155 -0.298924 -0.265311 153 0 76
-0.131908 0.297164 0.028377 127 127 0
0.529044 0.408019 0.028377 127 127 0
-0.511756 -0.572867 -0.015870 153 76 0
0.099602 -0.391568 -0.265311 127 0 127
-0.747687 0.375434 -0.164462 127 127 0
0.588758 0.269724 -0.265311 127 127 0
0.351689 0.591080 0.028377 127 127 0
0.465768 0.559689 0.028377 127 127 0
-0.230550 -0.297959 -0.265311 153 0 76
0.192974 -0.521318 -0.024143 127 0 127
0.671148 0.322011 -0.265311 127 127 0
0.013534 -0.232203 -0.265311 153 0 76
0.453943 0.059909 0.140984 153 0 76
-0.110796 0.059909 0.269527 153 0 76
0.668824 -0.059515 -0.133231 153 0 76
0.399979 0.463322 -0.265311 127 127 0
-0.385642 -0.521318 -0.191003 127 0 127
0.339884 -0.521318 -0.214299 127 0 127
-0.857647 0.279241 0.352446 255 0 0
-0.056241 0.165245 0.028377 127 127 0
0.490789 -0.265268 -0.265311 153 0 76
0.869134 0.273867 -0.187141 0 0 255
0.007319 -0.176659 0.352446 153 0 76
0.429096 0.290914 0.028377 127 127 0
0.627333 0.013568 0.352446 153 0 76
0.160126 -0.504853 0.352446 127 0 127
0.693600 -0.616911 0.148157 76 0 153
0.383926 -0.192173 -0.265311 153 0 76
0.541670 -0.644544 -0.265311 76 0 153
-0.582183 0.493321 0.009326 127 127 0
0.378888 -0.521318 0.323887 127 0 127
-0.256149 0.722423 -0.154633 127 127 0
-0.531697 -0.328893 -0.265311 127 0 127
0.841211 0.312498 0.289098 0 0 255
-0.734812 0.383313 -0.019168 127 127 0
-0.064969 -0.521318 -0.213873 127 0 127
-0.820087 0.331124 -0.216592 127 127 0
-0.262628 0.331814 0.028377 127 127 0
-0.684375 -0.337548 0.022978 153 0 76
-0.684375 -0.404597 -0.028991 127 0 127
0.613034 0.311284 0.309330 0 0 255
-0.684375 -0.258522 0.242135 153 0 76
0.518753 -0.089761 -0.265311 153 0 76
-0.543342 -0.170434 0.352446 153 0 76
0.481379 0.422405 -0.265311 127 127 0
0.310139 0.522290 -0.265311 127 127 0
-0.113897 -0.521318 -0.187893 127 0 127
-0.408019 0.663713 0.028377 127 127 0
-0.179370 -0.436585 0.352446 127 0 127
0.370371 -0.421211 -0.265311 127 0 127
-0.262184 0.142130 0.028377 127 127 0
0.553660 -0.576755 0.352446 76 0 153
-0.523598 0.189486 0.028377 127 127 0
-0.445959 0.213465 0.028377 127 127 0
-0.134818 -0.505556 0.352446 127 0 127
0.078536 0.637197 0.028377 127 127 0
0.479971 0.681178 -0.223447 127 127 0
0.306999 0.059909 0.181863 153 0 76
-0.838978 0.038380 -0.205893 255 0 0
-0.684375 -0.241296 -0.217175 153 0 76
-0.391751 0.041654 0.352446 153 0 76
-0.877753 0.297464 0.262251 255 0 0
0.685648 -0.583299 -0.148622 76 0 153
-0.503325 0.406241 0.028377 127 127 0
0.530029 0.606597 0.028377 127 127 0
0.655527 -0.150077 0.209044 153 0 76
0.441453 0.308951 -0.265311 127 127 0
0.042652 -0.031216 -0.265311 153 0 76
0.502718 0.201816 0.279902 0 0 255
-0.015740 0.430929 0.028377 127 127 0
-0.145333 -0.521318 0.243090 127 0 127
-0.663659 -0.570035 -0.095807 153 76 0
-0.684375 -0.263130 0.015065 153 0 76
0.545470 0.613379 -0.156574 127 127 0
0.334208 0.497932 -0.265311 127 127 0
0.649334 0.432520 -0.173622 127 127 0
0.885022 0.179041 -0.022034 0 0 255
-0.675258 -0.483935 -0.030701 127 0 127
-0.487641 -0.091400 -0.265311 153 0 76
-0.841847 0.105131 -0.265311 255 0 0
-0.131407 -0.327201 0.352446 127 0 127
-0.684375 -0.234669 0.004173 153 0 76
0.844728 0.093759 -0.221803 0 0 255
-0.015641 0.059909 0.030862 153 0 76
0.118125 0.004919 -0.265311 153 0 76
-0.521376 -0.555200 0.102984 153 76 0
-0.536645 0.625634 0.024837 127 127 0
-0.731588 0.319328 0.264295 255 0 0
0.845996 0.108017 0.352446 0 0 255
-0.453436 0.059909 0.043774 153 0 76
0.222582 -0.215857 -0.265311 153 0 76
-0.257128 -0.079258 0.352446 153 0 76
-0.428031 -0.054590 -0.265311 153 0 76
-0.739251 0.019088 -0.057843 153 0 76
-0.346204 -0.006914 0.352446 153 0 76
-0.694768 -0.075915 0.299342 153 0 76
0.657044 -0.659719 -0.036814 76 0 153
-0.178850 -0.091012 -0.265311 153 0 76
0.182607 0.388000 0.028377 127 127 0
0.200849 -0.521318 0.179015 127 0 127
-0.839927 0.038885 0.287200 255 0 0
-0.224562 0.113876 -0.265311 127 127 0
0.454665 0.619374 -0.265311 127 127 0
0.529537 0.038384 0.352446 0 0 255
-0.258251 0.564976 0.028377 127 127 0
-0.908329 0.197308 -0.265311 255 0 0
0.668161 -0.062514 -0.069115 153 0 76
-0.666913 -0.524635 0.031161 127 0 127
0.223618 -0.154259 0.352446 153 0 76
0.127473 0.470931 0.028377 127 127 0
0.466908 0.060059 0.188819 153 0 76
0.239961 -0.302080 -0.265311 127 0 127
-0.679075 -0.629869 -0.124451 153 76 0
-0.051989 -0.503278 -0.265311 127 0 127
-0.659421 0.295715 0.253318 255 0 0
-0.357964 0.557900 -0.265311 127 127 0
0.556306 -0.672011 -0.184613 76 0 153
-0.028419 0.610589 -0.265311 127 127 0
-0.554933 -0.213044 -0.265311 153 0 76
-0.774262 0.261288 0.352446 255 0 0
-0.069323 0.059909 0.081198 153 0 76
-0.348564 -0.433997 0.352446 127 0 127
-0.283002 0.263317 0.028377 127 127 0
-0.824291 0.319407 0.166409 255 0 0
0.458018 0.392077 0.028377 127 127 0
-0.471115 0.080888 -0.265311 127 127 0
-0.252215 -0.521318 0.165177 127 0 127
-0.684375 -0.254250 -0.004050 153 0 76
0.529373 -0.650851 0.243744 76 0 153
0.648297 -0.669311 -0.153397 76 0 153
-0.662000 -0.550921 0.109132 153 76 0
-0.420335 0.697178 -0.164271 127 127 0
-0.646694 0.108977 0.352446 255 0 0
-0.910641 0.239347 -0.265311 255 0 0
-0.315932 -0.399090 -0.265311 127 0 127
0.133873 0.652237 -0.265311 127 127 0
0.634238 -0.672011 0.246350 76 0 153
-0.435048 0.105043 -0.265311 127 127 0
-0.576861 0.077617 0.352446 255 0 0
0.048243 -0.103277 -0.265311 153 0 76
-0.728429 0.387220 -0.240288 127 127 0
-0.617102 -0.287651 0.352446 153 0 76
-0.351964 -0.287863 0.352446 153 0 76
0.304429 -0.521318 0.121714 127 0 127
-0.160723 -0.521318 0.017419 127 0 127
-0.636919 -0.607874 0.352446 153 76 0
-0.442151 0.059909 0.310840 153 0 76
0.539117 0.241921 -0.265311 127 127 0
0.139177 0.249340 -0.265311 127 127 0
-0.096152 -0.521318 -0.246415 127 0 127
-0.190753 0.450052 0.028377 127 127 0
0.468749 0.242064 0.028377 127 127 0
-0.027705 0.172114 0.028377 127 127 0
0.633011 0.323792 -0.265311 127 127 0
0.661164 -0.414951 -0.247832 127 0 127
0.428430 -0.521318 0.100981 127 0 127
-0.300708 -0.521318 -0.162549 127 0 127
-0.407195 -0.521318 0.065659 127 0 127
0.205008 -0.275725 -0.265311 153 0 76
-0.684375 -0.399804 0.329191 127 0 127
0.115075 0.164099 0.028377 127 127 0
0.646293 -0.255329 -0.265311 153 0 76
0.039590 -0.055166 0.352446 153 0 76
0.159710 -0.521318 -0.121920 127 0 127
0.133775 0.286006 -0.265311 127 127 0
-0.483040 0.474251 -0.265311 127 127 0
0.768962 0.046031 0.309672 0 0 255
0.771989 0.360031 -0.189534 127 127 0
-0.459304 0.059909 0.151405 153 0 76
0.313265 0.353633 -0.265311 127 127 0
0.535863 0.333201 -0.265311 127 127 0
-0.136479 0.617223 0.028377 127 127 0
-0.894574 0.085397 0.245869 255 0 0
-0.569870 0.529099 0.001835 127 127 0
0.022088 0.227946 0.028377 127 127 0
-0.587207 0.245093 0.070620 255 0 0
0.234770 0.610802 0.028377 127 127 0
0.659870 -0.580000 0.352446 76 0 153
-0.729201 0.386748 -0.122287 127 127 0
-0.107249 -0.521318 -0.159775 127 0 127
0.120746 -0.296931 0.352446 153 0 76
-0.257631 0.405586 -0.265311 127 127 0
-0.122435 -0.079845 0.352446 153 0 76
0.650368 -0.461866 -0.265311 127 0 127
-0.612472 -0.665372 0.042730 153 76 0
0.776150 0.343339 0.140271 0 0 255
-0.684375 -0.400678 0.287017 127 0 127
0.204716 -0.083953 -0.265311 153 0 76
0.656751 -0.231172 0.021690 153 0 76
0.877747 0.149702 0.092193 0 0 255
-0.155466 -0.521318 -0.183926 127 0 127
-0.250592 0.304237 0.028377 127 127 0
0.478679 -0.515957 0.352446 127 0 127
-0.439201 0.688159 0.028377 127 127 0
-0.675821 -0.481187 -0.248598 127 0 127
-0.271096 -0.380325 0.352446 127 0 127
0.141267 -0.377543 -0.265311 127 0 127
-0.453591 -0.521318 0.065472 127 0 127
0.661164 -0.473675 0.327237 127 0 127
-0.522235 -0.433462 0.352446 127 0 127
-0.139110 0.066797 -0.265311 127 127 0
-0.134199 -0.242847 0.352446 153 0 76
0.134451 -0.521318 -0.224701 127 0 127
-0.307540 -0.512213 0.352446 127 0 127
0.249540 0.512187 0.028377 127 127 0
-0.138686 -0.082439 -0.265311 153 0 76
-0.786299 0.079750 -0.265311 127 127 0
0.189942 0.426910 0.028377 127 127 0
-0.626739 0.428587 0.012948 127 127 0
0.652625 -0.122026 0.352446 153 0 76
-0.425850 0.059909 0.116528 153 0 76
-0.631321 -0.173140 0.352446 153 0 76
-0.394437 -0.521318 0.099473 127 0 127
-0.915190 0.118885 0.080192 255 0 0
0.191434 -0.404684 -0.265311 127 0 127
-0.243848 0.175601 -0.265311 127 127 0
0.408836 -0.258528 -0.265311 153 0 76
-0.671789 -0.575831 -0.041512 153 76 0
0.515211 -0.631121 0.297409 76 0 153
-0.684375 -0.274152 -0.070838 153 0 76
0.535409 0.521510 0.028377 127 127 0
0.549653 -0.672011 0.124027 76 0 153
0.658773 -0.116068 0.187483 153 0 76
0.378601 -0.521318 -0.137537 127 0 127
0.521721 -0.561805 0.078387 76 0 153
-0.140358 0.175180 0.028377 127 127 0
0.661360 -0.399562 -0.116464 127 0 127
0.284187 0.059909 0.332055 153 0 76
-0.196739 -0.453490 -0.265311 127 0 127
-0.684375 -0.420224 -0.118235 127 0 127
-0.929513 0.208480 0.145802 255 0 0
-0.534937 -0.249096 -0.265311 153 0 76
-0.323162 0.059909 0.171127 153 0 76
0.078574 0.604097 -0.265311 127 127 0
-0.365823 0.706950 -0.171127 127 127 0
-0.681948 -0.626180 0.177963 153 76 0
-0.565271 0.542459 -0.147080 127 127 0
-0.622010 0.195116 0.352446 255 0 0
-0.638675 0.341794 -0.265311 127 127 0
-0.332970 -0.300931 -0.265311 153 0 76
0.434247 0.125748 0.028377 127 127 0
0.618430 -0.023983 -0.265311 153 0 76
0.045610 0.515820 0.028377 127 127 0
-0.801549 0.023475 -0.111508 255 0 0
0.638618 -0.116397 -0.265311 153 0 76
-0.904664 0.270061 -0.019164 255 0 0
-0.652975 -0.663380 -0.262963 153 76 0
-0.029996 0.042480 -0.265311 127 127 0
0.773819 0.047492 0.262930 0 0 255
-0.122138 -0.232376 -0.265311 153 0 76
0.701778 0.341250 0.284533 0 0 255
0.847392 0.274905 0.352446 0 0 255
-0.691636 -0.589982 0.014041 153 76 0
0.849069 0.098472 0.047370 0 0 255
-0.764088 0.323485 0.195890 255 0 0
0.118672 0.065103 -0.265311 127 127 0
-0.073973 -0.356375 0.352446 127 0 127
-0.893093 0.083446 0.092880 255 0 0
0.069611 0.059909 0.251427 153 0 76
0.299068 0.409688 0.028377 127 127 0
0.656672 -0.230401 0.223166 153 0 76
-0.569535 -0.304668 0.352446 153 0 76
-0.385849 -0.521318 -0.245345 127 0 127
0.542712 -0.535385 0.352446 76 0 153
0.665205 -0.333034 0.329996 127 0 127
-0.888616 0.077549 -0.175039 255 0 0
0.032928 -0.521318 -0.078188 127 0 127
0.520154 -0.638007 -0.234698 76 0 153
0.121629 -0.398877 -0.265311 127 0 127
0.376414 -0.069434 -0.265311 153 0 76
0.587307 0.366742 0.028377 127 127 0
0.617904 -0.150528 -0.265311 153 0 76
-0.388804 0.059909 0.244523 153 0 76
0.410456 -0.520881 -0.265311 127 0 127
0.797714 0.344828 -0.219453 127 127 0
-0.694413 -0.077488 -0.026566 153 0 76
-0.319751 -0.322301 -0.265311 153 0 76
-0.840022 0.038935 -0.109058 255 0 0
0.658737 -0.116358 -0.098175 153 0 76
0.672403 -0.045193 -0.092709 153 0 76
-0.199523 0.646938 -0.265311 127 127 0
0.663921 -0.567045 0.218890 76 0 153
-0.149487 0.059909 0.075622 153 0 76
-0.228807 0.269962 -0.265311 127 127 0
-0.346738 -0.521318 0.272496 127 0 127
-0.531252 -0.018319 -0.265311 153 0 76
-0.916756 0.123033 -0.158785 255 0 0
0.692096 -0.621279 0.105914 76 0 153
0.709366 0.122192 0.352446 0 0 255
-0.679576 -0.150800 -0.265311 153 0 76
-0.688143 -0.111900 0.051650 153 0 76
-0.677407 0.371729 -0.265311 127 127 0
-0.615154 -0.215025 -0.265311 153 0 76
0.193021 -0.202730 -0.265311 153 0 76
-0.661692 0.296739 0.055475 255 0 0
0.209931 0.059909 0.275660 153 0 76
-0.597565 -0.665372 0.302057 153 76 0
-0.918611 0.127946 0.261586 255 0 0
-0.177466 0.063801 -0.265311 127 127 0
-0.263660 0.484834 -0.265311 127 127 0
0.074564 -0.521318 0.029131 127 0 127
0.866627 0.278142 0.195988 0 0 255
-0.136543 0.732533 -0.197304 127 127 0
-0.327026 -0.297317 0.352446 153 0 76
-0.461865 0.536175 0.028377 127 127 0
-0.227529 -0.521318 -0.250070 127 0 127
-0.008180 0.355615 0.028377 127 127 0
-0.680185 -0.581817 -0.131920 153 76 0
0.557858 -0.672011 0.326624 76 0 153
0.336277 0.059909 0.291337 153 0 76
0.076804 -0.521318 -0.265164 127 0 127
-0.507608 0.291953 0.028377 127 127 0
0.606486 0.076563 0.352446 0 0 255
-0.592225 -0.665372 0.219316 153 76 0
0.238275 0.226627 0.028377 127 127 0
-0.058743 0.711707 -0.265311 127 127 0
-0.684375 -0.350829 0.102893 127 0 127
-0.171131 0.730485 -0.017984 127 127 0
-0.136612 -0.014225 -0.265311 153 0 76
0.665652 -0.325312 0.272459 127 0 127
-0.678004 0.014280 0.352446 255 0 0
0.659452 -0.255336 0.169376 153 0 76
0.311022 -0.132012 0.352446 153 0 76
-0.525786 -0.656829 -0.046129 153 76 0
-0.670426 -0.640974 -0.003099 153 76 0
-0.081029 0.735311 -0.186371 127 127 0
0.656491 -0.138148 0.100599 153 0 76
0.663284 -0.366268 0.242393 127 0 127
0.155670 0.051568 -0.265311 127 127 0
0.420404 -0.070367 -0.265311 153 0 76
-0.528606 -0.662690 0.256464 153 76 0
-0.565114 0.542916 -0.191944 127 127 0
-0.791010 0.322985 0.079394 255 0 0
0.486260 -0.374778 0.352446 127 0 127
0.801027 0.174181 -0.265311 0 0 255
-0.239818 0.566201 -0.265311 127 127 0
0.661164 -0.531776 0.279669 127 0 127
-0.043455 0.059909 0.307666 153 0 76
-0.042130 0.736077 -0.168657 127 127 0
0.365368 -0.004392 -0.265311 153 0 76
-0.600282 -0.557840 -0.265311 153 76 0
-0.173115 -0.110439 -0.265311 153 0 76
0.333539 -0.521318 -0.144669 127 0 127
0.404320 0.318022 -0.265311 127 127 0
0.034582 -0.521318 0.266800 127 0 127
0.886060 0.191012 -0.262838 0 0 255
0.117164 0.059909 0.333438 153 0 76
0.136670 0.395465 -0.265311 127 127 0
-0.337107 0.107258 0.028377 127 127 0
-0.177574 -0.403627 -0.265311 127 0 127
0.323654 0.587727 -0.265311 127 127 0
-0.495231 0.059909 0.168715 153 0 76
0.661164 -0.437171 -0.035528 127 0 127
-0.924183 0.232171 -0.072370 255 0 0
0.165347 -0.138089 -0.265311 153 0 76
-0.671825 -0.453657 0.352446 127 0 127
-0.143335 0.256576 0.028377 127 127 0
0.664002 -0.353846 0.289292 127 0 127
0.146972 0.089843 -0.265311 127 127 0
-0.038257 0.059909 0.170569 153 0 76
-0.048095 0.735960 -0.134028 127 127 0
-0.694983 -0.594962 0.244890 153 76 0
0.404298 -0.420840 -0.265311 127 0 127
-0.684502 -0.159733 -0.040370 153 0 76
-0.540957 -0.625517 -0.265311 153 76 0
0.021420 -0.521318 0.145575 127 0 127
0.148766 0.669708 -0.265311 127 127 0
0.621662 -0.560165 0.352446 76 0 153
-0.361795 0.562903 0.028377 127 127 0
0.046429 -0.521318 -0.032738 127 0 127
-0.584654 -0.580089 -0.265311 153 76 0
-0.684375 -0.200046 -0.225548 153 0 76
0.785074 0.341981 0.330481 0 0 255
0.057561 0.244117 0.028377 127 127 0
0.617751 0.389319 -0.265311 127 127 0
0.521523 0.165149 0.352446 0 0 255
0.361975 0.698608 -0.265311 127 127 0
-0.345750 0.528549 0.028377 127 127 0
0.131179 -0.521318 -0.145684 127 0 127
-0.675463 0.413002 0.008838 127 127 0
-0.146566 0.731939 -0.141333 127 127 0
-0.010779 -0.403998 0.352446 127 0 127
-0.722155 0.003293 0.006995 153 0 76
-0.661043 0.370597 0.028377 127 127 0
-0.403668 -0.088960 0.352446 153 0 76
0.662091 -0.386905 0.208977 127 0 127
-0.415317 0.518069 -0.265311 127 127 0
0.403249 0.629026 0.028377 127 127 0
0.807324 0.254995 -0.265311 0 0 255
-0.591906 0.236586 0.352446 255 0 0
0.435328 -0.479145 0.352446 127 0 127
0.863391 0.118400 0.013806 0 0 255
0.263390 0.637275 -0.265311 127 127 0
0.480271 -0.401730 -0.265311 127 0 127
-0.392677 -0.466919 0.352446 127 0 127
0.037560 -0.426473 -0.265311 127 0 127
0.362657 -0.199142 -0.265311 153 0 76
0.733929 0.039276 0.095910 0 0 255
-0.665115 -0.446576 -0.265311 127 0 127
0.222470 0.367192 -0.265311 127 127 0
0.018895 -0.314246 -0.265311 127 0 127
-0.539713 -0.062654 -0.265311 153 0 76
0.404513 -0.172398 -0.265311 153 0 76
-0.665648 -0.530807 0.171132 153 76 0
-0.641773 0.033195 0.352446 255 0 0
-0.528972 -0.663450 -0.100344 153 76 0
-0.684375 -0.324754 -0.077544 153 0 76
0.008109 -0.073691 -0.265311 153 0 76
-0.204921 -0.330090 0.352446 153 0 76
0.665373 -0.075121 0.185144 153 0 76
0.156773 -0.110402 -0.265311 153 0 76
0.108880 0.563580 0.028377 127 127 0
0.394667 0.541492 -0.265311 127 127 0
-0.564668 -0.509986 0.352446 127 0 127
-0.697436 0.405975 -0.043603 127 127 0
-0.540246 -0.181230 -0.265311 153 0 76
-0.430192 -0.216382 -0.265311 153 0 76
-0.923764 0.141751 0.084776 255 0 0
-0.031102 0.340639 -0.265311 127 127 0
-0.367162 0.390018 0.028377 127 127 0
0.735378 0.039442 0.254319 0 0 255
0.007832 0.059909 0.048985 153 0 76
-0.684375 -0.363601 -0.149148 127 0 127
0.545891 0.476975 -0.265311 127 127 0
0.097079 0.733934 0.005912 127 127 0
0.267489 0.300791 -0.265311 127 127 0
-0.519469 -0.643703 0.169422 153 76 0
0.680405 -0.017730 -0.231906 153 0 76
-0.040303 -0.521318 -0.066188 127 0 127
-0.526366 -0.437200 -0.265311 127 0 127
-0.906506 0.267640 -0.217474 255 0 0
0.520549 -0.283914 -0.265311 153 0 76
-0.325590 -0.521318 0.198659 127 0 127
0.819000 0.331183 0.261310 0 0 255
0.666787 -0.305670 -0.213543 153 0 76
-0.684375 -0.223895 0.076620 153 0 76
-0.082574 0.530058 0.028377 127 127 0
0.661164 -0.432708 0.098560 127 0 127
0.250972 -0.257646 0.352446 153 0 76
0.738718 0.349423 -0.265311 127 127 0
0.367585 0.360275 0.028377 127 127 0
-0.178376 0.434561 -0.265311 127 127 0
-0.294148 -0.361479 -0.265311 127 0 127
-0.150678 0.468089 -0.265311 127 127 0
-0.586114 0.411024 -0.265311 127 127 0
-0.684375 -0.246385 0.105564 153 0 76
0.650000 -0.393491 0.352446 127 0 127
-0.571956 0.122598 0.352446 255 0 0
0.562743 0.587593 -0.016973 127 127 0
0.626080 0.163600 -0.265311 127 127 0
-0.684375 -0.311933 0.049264 153 0 76
0.500420 -0.610515 0.265252 76 0 153
0.225600 0.544685 0.028377 127 127 0
0.047188 -0.279277 -0.265311 153 0 76
-0.283798 0.230557 -0.265311 127 127 0
-0.250845 -0.242063 0.352446 153 0 76
0.442605 -0.364317 0.352446 127 0 127
0.705078 0.118650 -0.265311 127 127 0
0.280106 -0.521318 0.114999 127 0 127
0.186214 0.195999 0.028377 127 127 0
-0.804094 0.340912 -0.252091 127 127 0
-0.815660 0.333833 0.004187 127 127 0
0.521399 -0.521318 0.045812 127 0 127
-0.360560 0.192141 -0.265311 127 127 0
0.451331 -0.077009 -0.265311 153 0 76
-0.684375 -0.189747 -0.176646 153 0 76
0.499354 -0.609030 0.054240 76 0 153
-0.725878 0.136483 0.352446 255 0 0
0.192240 0.103265 0.028377 127 127 0
0.624368 -0.663002 -0.265311 76 0 153
-0.601495 0.437213 -0.074547 127 127 0
-0.670559 0.132881 -0.265311 127 127 0
0.431911 0.449454 0.028377 127 127 0
0.093256 -0.264830 0.352446 153 0 76
-0.496993 -0.338507 -0.265311 127 0 127
0.737067 0.253316 0.352446 0 0 255
-0.494175 -0.521318 0.198358 127 0 127
-0.899562 0.091967 0.192882 255 0 0
0.654547 -0.176174 -0.203711 153 0 76
0.324092 -0.120229 -0.265311 153 0 76
0.338034 -0.190721 -0.265311 153 0 76
