ply
format ascii 1.0
element vertex 1272
property float x
property float y
property float z
property uchar red
property uchar green
property uchar blue
end_header
0.358848 0.424142 -0.311560 127 0 127
-0.389712 -0.058275 -0.132916 0 255 0
-0.073522 0.433259 -0.312700 127 0 127
-0.151938 0.001449 0.188286 0 255 0
-0.379445 -0.778322 0.449892 76 0 153
-0.329823 0.210753 -0.295691 127 0 127
-0.383688 0.123334 -0.256132 127 0 127
0.387212 -0.774883 -0.012235 153 76 0
0.391600 -0.771096 -0.290841 153 76 0
-0.378917 -0.656687 0.521533 76 0 153
0.280739 0.003248 0.223198 0 255 0
-0.389528 -0.353170 -0.215845 153 0 76
-0.276892 0.311939 -0.290116 127 0 127
-0.362248 -0.017613 0.500753 0 255 0
0.174007 -0.006265 0.039061 0 255 0
-0.151190 0.126571 -0.279325 127 0 127
0.204209 0.003222 0.222846 0 255 0
-0.155981 -0.037640 -0.115124 0 255 0
-0.292534 0.013548 0.520219 0 255 0
-0.305712 0.572278 -0.339739 127 0 127
0.190265 -0.008958 -0.012344 0 255 0
0.387190 -0.664513 0.522156 0 127 127
0.330451 -0.065383 0.507771 0 127 127
-0.010858 0.171091 -0.288084 127 0 127
0.056985 -0.002208 0.116453 0 255 0
-0.147165 -0.055943 0.406003 76 0 153
0.373516 -0.063516 0.019160 0 0 255
0.297992 0.394648 -0.331538 127 0 127
0.196357 0.226531 -0.272496 127 0 127
-0.366187 -0.381057 0.504302 76 0 153
0.036261 -0.012449 -0.094946 0 255 0
-0.316055 -0.026925 0.214956 0 255 0
0.027415 -0.001580 0.128425 0 255 0
-0.135608 0.550954 -0.335557 127 0 127
-0.147205 -0.004125 0.079866 0 255 0
0.293792 -0.017815 0.309556 0 255 0
-0.153644 0.524986 -0.356766 127 0 127
-0.380372 -0.639518 -0.320525 153 0 76
0.276076 0.319305 -0.290567 127 0 127
0.375093 0.403365 -0.310256 127 0 127
0.239093 -0.020296 0.265858 0 255 0
-0.347309 -0.129531 0.522404 76 0 153
-0.231735 -0.010877 -0.048976 0 255 0
-0.170078 -0.018868 0.362276 0 255 0
-0.356905 -0.064893 0.175698 255 0 0
0.412263 -0.748676 -0.322575 153 76 0
-0.046705 -0.011933 -0.069109 0 255 0
-0.342869 0.392007 -0.304894 127 0 127
-0.131032 0.122945 -0.252276 127 0 127
-0.398086 -0.788026 0.033510 76 0 153
-0.220394 -0.015044 0.428965 76 0 153
0.256794 -0.018774 0.294119 0 255 0
-0.330478 -0.066312 0.070456 0 255 0
-0.008114 -0.010039 0.461585 0 255 0
0.093968 -0.001718 0.130791 0 255 0
0.237037 0.112023 -0.276257 127 0 127
-0.237925 0.292674 -0.311631 127 0 127
0.388864 0.167859 -0.267952 127 0 127
0.352395 -0.011079 -0.117870 0 255 0
-0.179007 -0.016020 0.427259 76 0 153
-0.020592 0.278511 -0.308874 127 0 127
0.096570 0.495099 -0.351064 127 0 127
-0.004069 0.435725 -0.313175 127 0 127
-0.361930 0.008260 0.345666 0 255 0
0.125056 -0.019156 0.287427 0 255 0
0.340936 -0.077525 0.182208 0 0 255
-0.329532 -0.043579 0.244240 0 255 0
0.108388 0.352229 -0.323189 127 0 127
-0.037895 -0.000438 0.150243 0 255 0
-0.189022 0.309959 -0.289732 127 0 127
-0.231468 -0.036218 -0.038003 0 255 0
0.380572 -0.012881 -0.093164 0 255 0
-0.392134 -0.770647 -0.137436 76 0 153
-0.132917 0.337034 -0.295038 127 0 127
-0.355986 0.017035 0.498593 0 255 0
-0.394385 -0.787848 -0.234924 76 0 153
0.116380 0.149816 -0.283948 127 0 127
0.378526 0.196190 -0.266986 127 0 127
-0.324691 -0.045420 0.470862 255 0 0
-0.185923 -0.011729 -0.110741 0 255 0
-0.054074 -0.007880 0.502012 0 255 0
-0.409269 -0.721440 0.505521 76 0 153
0.344584 0.129148 -0.279826 127 0 127
0.187594 0.113512 -0.276583 127 0 127
0.009730 0.447287 -0.341738 127 0 127
0.276392 -0.001620 0.520302 0 255 0
-0.200990 0.172936 -0.262168 127 0 127
0.115911 0.331925 -0.293168 127 0 127
-0.329549 0.006223 0.296438 0 255 0
-0.284685 0.522366 -0.356261 127 0 127
0.336504 0.654511 -0.377698 127 0 127
-0.008539 -0.042401 -0.001019 0 255 0
-0.403606 -0.787949 -0.143751 76 0 153
0.384785 -0.779482 -0.253000 153 76 0
0.057620 -0.018098 0.305046 0 255 0
-0.217372 0.376954 -0.328046 127 0 127
-0.085785 -0.010987 0.442572 0 255 0
-0.132001 -0.010189 -0.035835 0 255 0
-0.186343 0.242606 -0.301984 127 0 127
-0.236768 -0.024224 0.190912 0 255 0
0.271778 0.054760 -0.226607 127 0 127
0.387281 -0.754694 0.495273 0 127 127
-0.181619 0.127673 -0.279539 127 0 127
0.405991 -0.764792 -0.302890 153 76 0
0.247029 0.014901 0.442918 0 255 0
0.052291 0.013471 0.415618 0 255 0
-0.065192 0.013278 0.411950 0 255 0
-0.167101 -0.005832 0.047307 0 255 0
0.401092 -0.769661 0.421223 153 76 0
-0.368397 -0.380928 -0.225695 153 0 76
-0.041758 0.451508 -0.316230 127 0 127
0.190649 0.121114 -0.251876 127 0 127
0.332349 -0.039306 0.242052 0 0 255
-0.358305 0.307115 -0.314372 127 0 127
0.393720 -0.771233 0.367364 153 76 0
-0.271236 -0.024890 0.178211 0 255 0
0.391957 -0.772058 -0.043084 153 76 0
0.140744 0.003248 0.223198 0 255 0
-0.353741 -0.400390 0.518524 76 0 153
-0.025722 -0.007970 0.500568 0 255 0
0.225896 -0.047810 0.411654 76 0 153
-0.193007 0.613586 -0.374001 127 0 127
0.150242 -0.028217 0.114730 0 255 0
-0.354876 0.173570 -0.288565 127 0 127
-0.086293 -0.001671 0.126695 0 255 0
0.105677 -0.037444 -0.117607 0 255 0
0.102913 0.003402 0.225288 0 255 0
0.140739 0.090255 -0.243809 127 0 127
-0.036141 -0.008658 -0.006627 0 255 0
0.253808 -0.004086 0.099741 0 255 0
0.084719 -0.007548 0.507374 0 255 0
0.286325 -0.024842 0.179112 0 255 0
-0.401513 -0.769976 -0.091869 76 0 153
0.397943 -0.628556 0.522458 0 127 127
-0.333958 -0.035827 0.522336 76 0 153
-0.092508 0.410807 -0.308335 127 0 127
-0.387897 -0.771495 0.373381 76 0 153
-0.301854 0.010076 0.369954 0 255 0
0.412694 -0.787660 -0.218838 153 76 0
-0.283718 0.370419 -0.326723 127 0 127
-0.102997 0.469105 -0.319648 127 0 127
-0.032075 -0.075042 0.023662 153 0 76
0.195130 -0.005983 0.515721 0 255 0
0.274785 -0.036065 -0.035150 0 255 0
0.392242 -0.688595 0.521986 0 127 127
0.345219 -0.059298 -0.134899 0 255 0
-0.293276 -0.002846 0.104258 0 255 0
0.365457 0.009790 0.488777 0 255 0
-0.158335 -0.009214 -0.017233 0 255 0
0.032439 0.112631 -0.276390 127 0 127
-0.092473 0.181257 -0.263786 127 0 127
-0.319598 -0.014354 -0.188967 127 0 127
-0.079095 0.526814 -0.330930 127 0 127
0.204012 0.615172 -0.374311 127 0 127
0.303090 -0.038110 -0.075325 0 255 0
-0.357754 -0.284510 0.522204 76 0 153
0.414564 -0.638862 -0.303857 76 153 0
-0.194638 -0.038486 -0.088030 0 255 0
0.095590 0.000067 0.181137 0 255 0
0.396396 -0.770796 0.067438 153 76 0
-0.240807 -0.001568 0.128652 0 255 0
-0.028424 0.646376 -0.354156 127 0 127
-0.343744 -0.083678 -0.085207 255 0 0
-0.333400 0.655330 -0.375374 127 0 127
-0.377210 -0.653082 -0.307670 153 0 76
0.379416 -0.364320 0.522511 0 127 127
0.334901 -0.111227 0.519990 0 127 127
0.385190 -0.557357 0.504429 0 127 127
-0.353534 -0.106388 0.504351 76 0 153
-0.382667 -0.774305 0.321358 76 0 153
-0.276806 -0.001127 0.137079 0 255 0
0.391796 -0.588934 0.522390 0 127 127
0.016124 -0.023420 0.206262 0 255 0
0.351697 -0.004897 0.084210 0 255 0
-0.196857 0.035487 -0.244169 127 0 127
-0.225450 -0.028962 0.099796 0 255 0
-0.355384 -0.078867 0.098194 255 0 0
0.094377 0.014088 -0.185630 127 0 127
0.209286 -0.007920 0.007454 0 255 0
-0.049550 0.006722 0.286854 0 255 0
-0.398633 -0.277371 -0.198569 153 0 76
-0.205327 -0.027364 -0.161226 0 255 0
-0.341817 0.044050 -0.249983 127 0 127
-0.063695 0.316307 -0.316311 127 0 127
0.379925 -0.625858 0.506365 0 127 127
-0.374544 0.261283 -0.280947 127 0 127
-0.049455 -0.058423 0.396578 76 0 153
-0.173570 0.278320 -0.282826 127 0 127
-0.300422 -0.009569 -0.196672 127 0 127
0.272064 0.475118 -0.321665 127 0 127
0.027532 -0.035577 -0.026007 0 255 0
0.367966 -0.034853 0.437506 0 0 255
0.352273 0.015025 0.451585 0 255 0
-0.235314 -0.015279 -0.187449 127 0 127
-0.296982 -0.028990 0.097619 0 255 0
-0.291675 0.006079 0.293677 0 255 0
-0.159271 -0.024094 0.193410 0 255 0
-0.414008 -0.785558 0.212189 76 0 153
-0.231370 0.107446 -0.248830 127 0 127
-0.321013 0.492401 -0.350539 127 0 127
-0.332142 -0.006892 0.027097 0 255 0
0.420962 -0.786482 0.186398 153 76 0
0.389560 -0.009084 -0.188316 127 0 127
-0.386944 -0.030940 -0.055379 0 255 0
0.342817 -0.080118 0.145896 0 0 255
0.384103 -0.013315 0.103933 0 255 0
0.278727 -0.077509 0.037579 153 0 76
0.146499 -0.045160 0.371857 0 255 0
-0.070971 -0.011920 -0.108656 0 255 0
-0.141937 -0.006970 0.512423 0 255 0
0.143119 0.012037 -0.182639 127 0 127
0.309185 -0.017786 0.347298 0 255 0
0.394212 -0.762263 -0.336670 153 76 0
-0.098274 -0.028570 -0.158071 0 255 0
-0.255936 -0.008117 0.003692 0 255 0
0.006918 0.288363 -0.310786 127 0 127
-0.018412 -0.006906 0.026820 0 255 0
0.401178 -0.787842 0.299772 153 76 0
0.253581 0.317492 -0.290200 127 0 127
-0.371817 0.045514 -0.250804 127 0 127
0.179642 -0.010948 -0.119311 0 255 0
0.156782 0.011575 0.379458 0 255 0
0.001792 -0.038245 0.070784 153 0 76
0.353873 0.003332 0.224590 0 255 0
0.353795 0.160364 -0.259672 127 0 127
-0.083390 0.307479 -0.314594 127 0 127
-0.372287 -0.566819 -0.292773 153 0 76
0.126870 0.656376 -0.372317 127 0 127
-0.105324 0.497916 -0.351611 127 0 127
-0.024735 0.391922 -0.331008 127 0 127
-0.281391 0.014644 -0.226580 127 0 127
0.413458 -0.787898 0.270363 153 76 0
-0.349632 -0.026690 -0.163938 0 255 0
0.154042 -0.075656 0.024507 153 0 76
-0.080111 -0.005796 0.047988 0 255 0
0.023518 0.625415 -0.376305 127 0 127
0.187994 0.327634 -0.318512 127 0 127
0.110014 0.178578 -0.263265 127 0 127
0.055081 -0.009131 0.478906 0 255 0
-0.247232 0.399677 -0.332516 127 0 127
-0.243249 0.001778 0.199381 0 255 0
0.167975 -0.017913 -0.182573 0 255 0
0.276127 -0.038245 -0.079718 0 255 0
0.388724 -0.772985 0.186190 153 76 0
0.367872 -0.541188 0.514868 0 127 127
-0.367284 -0.552887 0.520261 76 0 153
0.241044 0.331346 -0.319234 127 0 127
0.324364 0.472192 -0.321266 127 0 127
0.376199 0.419007 -0.327488 127 0 127
0.394761 -0.741068 -0.327622 76 153 0
-0.224985 -0.010717 0.448332 0 255 0
0.037726 -0.026362 0.150132 0 255 0
0.070373 0.441435 -0.340601 127 0 127
-0.326117 -0.034611 0.181254 0 255 0
-0.320386 0.099013 -0.273230 127 0 127
0.040439 0.523055 -0.356390 127 0 127
0.217636 -0.024854 0.178910 0 255 0
0.356511 -0.104031 0.504403 0 127 127
0.391023 -0.566385 -0.299284 76 153 0
0.351880 -0.160718 0.504598 0 127 127
-0.084981 -0.020978 0.252860 0 255 0
0.293009 0.088634 -0.270246 127 0 127
-0.322486 0.459347 -0.317752 127 0 127
0.300234 0.343429 -0.321516 127 0 127
-0.345072 -0.079139 0.249815 255 0 0
-0.403392 -0.788017 0.277366 76 0 153
-0.297356 -0.058165 0.399939 76 0 153
-0.299594 0.334632 -0.319867 127 0 127
-0.221703 0.413765 -0.335255 127 0 127
-0.146040 0.635685 -0.352037 127 0 127
0.346853 0.010146 0.352217 0 255 0
0.106891 -0.019836 0.364133 0 255 0
0.184174 -0.010458 0.453587 0 255 0
0.089899 -0.044486 0.002318 0 255 0
0.350743 -0.141856 0.522221 0 127 127
0.284687 0.471957 -0.346560 127 0 127
0.110274 0.005195 0.257708 0 255 0
0.040019 0.034541 -0.209963 127 0 127
0.064322 0.016285 0.469822 0 255 0
0.141419 0.015444 0.453359 0 255 0
0.092690 0.414368 -0.309653 127 0 127
0.272611 -0.000979 0.160870 0 255 0
0.171562 -0.074142 0.054892 153 0 76
0.065251 -0.031815 0.371214 0 255 0
0.108395 -0.027041 0.137166 0 255 0
0.259483 0.173946 -0.262364 127 0 127
-0.171416 0.429043 -0.311885 127 0 127
-0.338415 -0.008811 -0.009546 0 255 0
0.048650 0.644634 -0.353790 127 0 127
0.390368 -0.476744 0.522233 0 127 127
0.044506 0.560395 -0.363756 127 0 127
-0.296039 -0.011150 -0.054177 0 255 0
-0.161279 0.198984 -0.267176 127 0 127
0.164620 0.488079 -0.324354 127 0 127
0.350191 -0.188131 0.505504 0 127 127
0.145266 0.246255 -0.302693 127 0 127
-0.120077 0.587789 -0.342819 127 0 127
-0.032066 0.505142 -0.326742 127 0 127
0.272128 0.454032 -0.317483 127 0 127
-0.362100 0.192377 -0.292118 127 0 127
-0.189304 -0.008343 -0.000611 0 255 0
-0.201540 0.301921 -0.313504 127 0 127
-0.198306 0.003158 0.237930 0 255 0
-0.343651 0.638323 -0.378728 127 0 127
0.219898 0.314838 -0.289663 127 0 127
-0.037907 -0.002266 0.115339 0 255 0
0.367636 -0.048133 0.287435 0 0 255
0.203737 -0.058790 0.387845 76 0 153
0.053145 0.538097 -0.333059 127 0 127
-0.073124 0.557532 -0.336836 127 0 127
-0.283725 0.016046 0.465618 0 255 0
-0.109907 0.246418 -0.302725 127 0 127
0.371390 -0.388432 0.504543 0 127 127
0.201057 0.418243 -0.310613 127 0 127
0.177681 0.157862 -0.259165 127 0 127
0.137112 -0.019036 -0.180333 0 255 0
0.173175 -0.020632 0.259462 0 255 0
0.252015 -0.007563 0.507152 0 255 0
-0.348252 0.081804 -0.268107 127 0 127
0.246394 0.158305 -0.285599 127 0 127
-0.011307 0.533525 -0.358426 127 0 127
-0.053862 0.184670 -0.290657 127 0 127
-0.215000 0.317359 -0.291194 127 0 127
-0.395114 -0.484638 0.507216 76 0 153
-0.411435 -0.771447 -0.037023 76 0 153
-0.138435 -0.016397 0.340258 0 255 0
-0.317632 0.005001 0.273116 0 255 0
0.218477 0.233574 -0.300229 127 0 127
0.135018 -0.012399 -0.082390 0 255 0
0.346762 0.490217 -0.324555 127 0 127
0.255030 0.511765 -0.354276 127 0 127
-0.197019 0.007508 0.319555 0 255 0
0.019332 -0.012074 -0.071849 0 255 0
-0.403300 -0.769978 -0.223000 76 0 153
0.355649 -0.061938 0.324843 0 0 255
-0.381385 0.155409 -0.260361 127 0 127
0.262027 0.612155 -0.347487 127 0 127
0.312533 0.004321 0.241040 0 255 0
-0.082330 -0.026510 0.147298 0 255 0
0.003035 -0.072659 0.057375 153 0 76
-0.117118 0.390706 -0.330771 127 0 127
0.033219 0.011988 0.387336 0 255 0
0.289355 0.257598 -0.304879 127 0 127
-0.183553 0.000124 0.161366 0 255 0
0.122325 0.091913 -0.244377 127 0 127
-0.139536 -0.049975 0.374017 0 255 0
-0.395222 -0.788037 0.101614 76 0 153
-0.261484 -0.016532 0.426364 76 0 153
0.312726 -0.026898 0.168924 0 255 0
0.319503 0.025161 -0.200027 127 0 127
0.038711 0.213862 -0.296309 127 0 127
0.388726 -0.365114 -0.219421 76 153 0
0.214352 0.655512 -0.374828 127 0 127
0.214672 -0.035988 -0.033707 0 255 0
0.236264 0.421296 -0.336710 127 0 127
0.180192 0.638675 -0.352621 127 0 127
-0.148431 0.228297 -0.272840 127 0 127
0.047918 -0.021520 0.242509 0 255 0
0.304061 -0.010971 0.442796 0 255 0
-0.355736 -0.235973 0.504339 76 0 153
0.239435 0.006698 0.286394 0 255 0
0.341593 0.045912 -0.220554 127 0 127
0.060919 0.079690 -0.239481 127 0 127
0.328789 -0.034343 -0.150137 0 255 0
0.281953 0.059577 -0.258817 127 0 127
-0.362532 -0.012370 -0.099698 0 255 0
-0.331363 -0.049152 -0.070430 0 255 0
-0.268981 0.543702 -0.334148 127 0 127
-0.242456 0.016845 0.480493 0 255 0
0.188078 0.398463 -0.306095 127 0 127
0.063320 -0.030680 0.415026 76 0 153
-0.383869 -0.447219 0.521280 76 0 153
0.124567 0.014280 -0.185905 127 0 127
0.127925 0.005811 0.269467 0 255 0
0.046990 0.196421 -0.266693 127 0 127
0.169469 -0.009692 0.468208 0 255 0
-0.360036 0.080731 -0.239936 127 0 127
-0.098403 0.014941 0.443681 0 255 0
-0.170335 -0.004092 0.080485 0 255 0
0.174703 -0.028751 0.369792 0 255 0
-0.149624 0.175413 -0.288921 127 0 127
-0.380242 -0.676223 -0.315307 153 0 76
-0.392983 -0.756514 0.516121 76 0 153
0.180302 -0.016585 0.336010 0 255 0
0.230945 0.346981 -0.322182 127 0 127
0.133712 0.017887 0.500503 0 255 0
0.361568 0.239517 -0.301381 127 0 127
-0.376061 -0.588741 0.521563 76 0 153
-0.175234 0.576081 -0.366805 127 0 127
-0.152726 0.308617 -0.314816 127 0 127
0.090071 0.614935 -0.348008 127 0 127
-0.233254 0.000774 0.173849 0 255 0
0.233968 -0.010268 -0.123869 0 255 0
-0.389292 -0.594320 -0.307797 153 0 76
0.085039 -0.021565 0.241649 0 255 0
0.338208 0.017562 0.514062 0 255 0
0.310216 -0.039148 -0.093761 0 255 0
-0.409097 -0.787379 -0.256267 76 0 153
-0.294765 0.384744 -0.329612 127 0 127
-0.309565 -0.019474 0.349630 0 255 0
0.158484 -0.002503 0.127593 0 255 0
-0.056395 0.281141 -0.283128 127 0 127
-0.348091 0.152112 -0.258308 127 0 127
0.222879 0.043868 -0.218198 127 0 127
-0.403189 -0.788010 -0.003558 76 0 153
-0.401572 -0.761834 -0.337307 76 0 153
-0.324047 -0.063579 0.421564 255 0 0
0.116161 0.438799 -0.314662 127 0 127
-0.037374 -0.012453 -0.094736 0 255 0
-0.273282 0.385451 -0.303913 127 0 127
0.109028 0.012058 0.388685 0 255 0
0.244324 0.010298 0.355100 0 255 0
-0.175781 0.445110 -0.341315 127 0 127
0.356355 -0.085840 0.113257 0 0 255
0.040390 0.001946 -0.165456 127 0 127
0.099477 -0.000683 0.163246 0 255 0
-0.308598 0.192954 -0.266490 127 0 127
0.335001 0.021649 -0.233056 127 0 127
0.131376 -0.058361 0.397750 76 0 153
0.044448 0.244907 -0.276145 127 0 127
0.312353 0.057315 -0.228576 127 0 127
0.287571 0.592267 -0.369923 127 0 127
-0.405631 -0.788014 0.395231 76 0 153
0.088577 0.006830 0.288902 0 255 0
-0.272657 -0.035805 -0.030265 0 255 0
-0.407985 -0.787912 0.249334 76 0 153
-0.104165 -0.007443 0.509075 0 255 0
0.384333 -0.182598 -0.164177 76 153 0
0.269579 0.023040 -0.197553 127 0 127
0.326471 -0.033334 0.104001 0 0 255
-0.229521 0.447915 -0.315533 127 0 127
-0.084016 -0.007518 0.507862 0 255 0
0.355839 -0.039632 0.521864 0 0 255
0.405599 -0.787836 0.162559 153 76 0
0.108627 0.606511 -0.346428 127 0 127
0.061618 -0.041010 0.068710 153 0 76
-0.279385 -0.022806 0.217961 0 255 0
-0.157396 0.498367 -0.351699 127 0 127
0.384370 -0.438674 -0.241552 76 153 0
0.329749 -0.008730 0.011121 0 255 0
0.115650 0.008109 0.313309 0 255 0
0.384697 0.266868 -0.287218 127 0 127
0.090655 -0.011449 -0.059888 0 255 0
-0.336357 -0.058343 0.119833 255 0 0
0.018376 0.248385 -0.303107 127 0 127
-0.183912 0.592313 -0.369930 127 0 127
-0.388257 -0.481607 -0.273528 153 0 76
0.129221 0.612933 -0.373875 127 0 127
0.360551 -0.189404 -0.183626 76 153 0
-0.326943 -0.046129 -0.042325 0 255 0
-0.180172 -0.003838 0.519546 0 255 0
-0.008248 -0.061914 0.018668 153 0 76
0.407078 -0.673314 -0.312654 76 153 0
0.388747 -0.037488 0.006429 0 255 0
-0.380962 -0.731122 0.521034 76 0 153
0.413079 -0.770313 0.381852 153 76 0
-0.361776 -0.347123 -0.230757 153 0 76
-0.339253 -0.080701 0.109361 255 0 0
0.297626 0.642893 -0.379672 127 0 127
0.051803 0.176693 -0.262899 127 0 127
0.287711 0.247271 -0.276617 127 0 127
0.269762 -0.021686 0.366524 0 255 0
-0.162145 0.046232 -0.219913 127 0 127
0.123550 -0.024854 0.178888 0 255 0
-0.303601 -0.076738 0.047531 153 0 76
-0.063877 0.014227 0.430039 0 255 0
0.166816 0.389878 -0.330610 127 0 127
-0.202926 -0.003721 -0.151909 0 255 0
-0.081491 0.510926 -0.354119 127 0 127
-0.383539 -0.754465 -0.338362 153 0 76
-0.332089 0.284809 -0.310098 127 0 127
0.292638 0.351374 -0.296835 127 0 127
-0.304074 -0.036800 -0.029504 0 255 0
-0.053399 0.233030 -0.300123 127 0 127
0.071671 0.060448 -0.259290 127 0 127
0.358414 -0.121672 -0.145430 76 153 0
0.137311 -0.002780 0.112988 0 255 0
-0.233903 0.151365 -0.257885 127 0 127
-0.392569 -0.770217 0.213398 76 0 153
0.158144 0.506631 -0.327570 127 0 127
-0.266101 -0.030318 -0.153217 0 255 0
0.022247 0.016382 0.471680 0 255 0
0.128454 0.014356 0.432515 0 255 0
-0.261319 -0.010042 -0.125049 0 255 0
0.339637 -0.076197 0.077539 0 0 255
-0.158286 -0.002258 0.115493 0 255 0
-0.178910 0.014487 0.435010 0 255 0
0.370959 0.006264 0.365634 0 255 0
0.332076 0.639448 -0.353025 127 0 127
0.097593 0.008959 0.329534 0 255 0
0.321311 -0.027330 0.271491 0 0 255
-0.329573 -0.068341 0.349137 255 0 0
0.048256 0.130316 -0.280052 127 0 127
0.094481 0.532273 -0.331958 127 0 127
0.228398 -0.005287 0.070242 0 255 0
-0.002753 0.573014 -0.339889 127 0 127
-0.362945 0.571801 -0.340906 127 0 127
0.404491 -0.769663 0.245113 153 76 0
0.225324 -0.006247 0.039935 0 255 0
0.403628 -0.528876 0.511468 0 127 127
0.245876 -0.000042 0.179496 0 255 0
-0.346148 -0.108685 0.522460 76 0 153
0.146326 0.573548 -0.366312 127 0 127
-0.221651 0.614397 -0.374159 127 0 127
0.072575 0.644012 -0.353668 127 0 127
-0.378023 -0.287813 0.506270 76 0 153
0.274626 -0.004844 0.085259 0 255 0
0.013408 0.010419 0.357407 0 255 0
-0.140883 0.375806 -0.301914 127 0 127
0.031552 0.417118 -0.310018 127 0 127
0.084168 0.018164 0.511066 0 255 0
-0.331833 -0.065794 0.317281 255 0 0
0.061565 0.470709 -0.346316 127 0 127
0.247044 0.214827 -0.270222 127 0 127
-0.140368 0.005664 0.284317 0 255 0
0.297001 0.518466 -0.330352 127 0 127
0.075553 -0.037765 -0.067494 0 255 0
0.054518 -0.010122 -0.034562 0 255 0
-0.367319 -0.090708 0.513025 76 0 153
0.233608 0.259368 -0.278969 127 0 127
-0.330858 -0.045534 0.224394 0 255 0
0.131707 0.200715 -0.267502 127 0 127
-0.213026 0.528127 -0.357376 127 0 127
0.063235 -0.004601 0.070775 0 255 0
0.067673 0.420096 -0.311016 127 0 127
0.105635 0.560402 -0.363757 127 0 127
0.378916 -0.497185 -0.277777 76 153 0
0.361550 -0.302143 0.522350 0 127 127
-0.415279 -0.772783 -0.164235 76 0 153
-0.006302 -0.002296 -0.207215 127 0 127
-0.385417 -0.772343 -0.237005 76 0 153
0.356384 -0.227722 0.504451 0 127 127
0.152428 0.178779 -0.263304 127 0 127
-0.278613 -0.016122 0.357007 0 255 0
-0.325314 0.392906 -0.331199 127 0 127
-0.183783 0.025242 -0.200582 127 0 127
-0.310147 0.003960 0.253229 0 255 0
-0.154951 0.162789 -0.260162 127 0 127
-0.319212 -0.027368 0.323947 0 255 0
-0.154070 0.000314 0.165063 0 255 0
-0.293657 0.365074 -0.300401 127 0 127
0.346413 -0.066082 0.445760 0 0 255
0.332399 0.357275 -0.297947 127 0 127
-0.151607 -0.077005 0.044638 153 0 76
0.011566 -0.058769 0.389950 76 0 153
0.389686 -0.772701 -0.109155 153 76 0
-0.398618 -0.617045 -0.296048 153 0 76
-0.113338 -0.029322 0.092560 0 255 0
-0.012886 -0.026540 0.146722 0 255 0
0.194966 0.285581 -0.283975 127 0 127
-0.418346 -0.780445 0.426482 76 0 153
-0.067016 0.629286 -0.350788 127 0 127
-0.381549 -0.013515 -0.103327 0 255 0
0.340277 -0.058318 0.126468 0 0 255
0.309113 -0.006485 0.053947 0 255 0
-0.343773 0.003732 0.248900 0 255 0
0.152151 -0.038680 0.413129 76 0 153
-0.102425 0.350200 -0.297225 127 0 127
-0.294225 -0.035675 -0.131195 0 255 0
-0.235226 0.644000 -0.353666 127 0 127
-0.185265 -0.004928 -0.147885 0 255 0
0.242945 -0.036231 0.413778 76 0 153
-0.186444 0.239785 -0.275110 127 0 127
-0.314108 0.252480 -0.278649 127 0 127
0.093372 -0.038506 -0.090347 0 255 0
-0.111793 0.407763 -0.334088 127 0 127
-0.351634 -0.012175 -0.075128 0 255 0
-0.088007 -0.009375 0.474238 0 255 0
0.420654 -0.775895 0.105462 153 76 0
0.285246 0.491814 -0.350425 127 0 127
-0.337051 -0.074286 0.272168 255 0 0
0.378871 -0.401106 0.522379 0 127 127
0.135460 0.629837 -0.350893 127 0 127
0.188985 -0.003322 0.113544 0 255 0
-0.383376 -0.783589 0.181397 76 0 153
-0.065032 0.541949 -0.360064 127 0 127
0.365186 0.209157 -0.269125 127 0 127
-0.352597 -0.060539 0.317181 255 0 0
0.047435 0.438503 -0.340034 127 0 127
0.127242 -0.016806 0.330989 0 255 0
-0.043092 0.128688 -0.279736 127 0 127
0.001368 0.017254 0.517434 0 255 0
0.353266 0.354907 -0.297531 127 0 127
0.049847 0.637930 -0.378792 127 0 127
0.292599 0.010247 -0.222095 127 0 127
-0.103735 -0.027452 0.369164 0 255 0
0.287369 0.130370 -0.280063 127 0 127
0.356679 -0.206439 0.522149 0 127 127
-0.120974 0.157360 -0.259064 127 0 127
-0.292261 -0.006597 -0.141474 0 255 0
0.307258 0.016987 0.483206 0 255 0
0.237097 -0.046602 0.371925 0 255 0
0.389886 -0.331897 0.513944 0 127 127
0.173972 0.466308 -0.345456 127 0 127
0.186849 0.364869 -0.325644 127 0 127
0.069745 0.363260 -0.299117 127 0 127
0.401716 -0.768722 0.463156 153 76 0
0.027600 0.447860 -0.341850 127 0 127
0.403677 -0.787854 0.206297 153 76 0
0.124864 -0.008090 0.004219 0 255 0
0.143594 0.316234 -0.289949 127 0 127
-0.135334 0.018135 0.509947 0 255 0
0.390582 -0.038218 -0.036876 0 255 0
-0.236602 -0.032966 -0.144053 0 255 0
-0.309616 0.223551 -0.298279 127 0 127
-0.384380 -0.683408 -0.334671 153 0 76
-0.205363 0.464801 -0.318812 127 0 127
0.382584 -0.443706 -0.261922 76 153 0
0.015523 0.589469 -0.343145 127 0 127
-0.375362 0.313063 -0.310041 127 0 127
-0.262015 -0.067665 0.020081 153 0 76
-0.377037 0.000711 -0.210594 127 0 127
0.049243 0.305241 -0.314159 127 0 127
-0.198301 0.506513 -0.327009 127 0 127
-0.341226 0.321912 -0.291952 127 0 127
-0.007118 -0.023187 0.210716 0 255 0
-0.100077 -0.017987 0.307141 0 255 0
-0.318556 0.312785 -0.315626 127 0 127
0.015119 -0.041872 -0.001865 0 255 0
-0.357450 0.052000 -0.224457 127 0 127
0.356984 0.055862 -0.227648 127 0 127
-0.376071 0.088752 -0.243611 127 0 127
-0.119809 0.110985 -0.276030 127 0 127
-0.030855 0.318236 -0.316686 127 0 127
-0.068921 0.656546 -0.371833 127 0 127
0.232714 -0.037696 -0.114417 0 255 0
0.336728 -0.002910 0.121722 0 255 0
-0.228098 0.016173 0.467683 0 255 0
-0.400930 -0.644104 -0.303908 153 0 76
0.130777 0.083730 -0.268743 127 0 127
0.396107 -0.463207 -0.249044 76 153 0
0.011808 -0.010534 -0.042409 0 255 0
0.051743 -0.016744 -0.184905 0 255 0
-0.386321 -0.193164 -0.185982 153 0 76
0.384328 -0.549255 -0.275895 76 153 0
-0.235141 -0.042521 -0.000827 0 255 0
0.113099 -0.006490 -0.141885 0 255 0
-0.122395 -0.059230 0.016754 153 0 76
0.101332 0.260741 -0.279236 127 0 127
0.171503 0.420932 -0.336639 127 0 127
-0.204926 0.556646 -0.363026 127 0 127
0.400856 -0.769976 0.133853 153 76 0
-0.033095 -0.033388 -0.142221 0 255 0
-0.127111 0.585637 -0.368663 127 0 127
-0.135391 0.448577 -0.315662 127 0 127
0.048236 0.012564 0.398329 0 255 0
-0.401055 -0.788014 -0.088955 76 0 153
-0.295389 0.606886 -0.372700 127 0 127
-0.022766 0.097064 -0.272774 127 0 127
0.393048 -0.429686 -0.257706 76 153 0
-0.396140 -0.220758 -0.178042 153 0 76
0.134028 0.328383 -0.318658 127 0 127
0.171298 0.285355 -0.283931 127 0 127
0.015022 -0.037441 -0.061301 0 255 0
-0.133408 0.408514 -0.307888 127 0 127
0.306096 -0.021402 0.257263 0 255 0
-0.275554 0.009588 0.360648 0 255 0
0.154091 -0.036929 -0.051515 0 255 0
0.223957 -0.012430 0.433224 76 0 153
0.010335 0.402023 -0.307013 127 0 127
-0.308503 0.216963 -0.271626 127 0 127
-0.267474 -0.014119 -0.189354 127 0 127
-0.327847 -0.065854 0.461925 255 0 0
0.329574 -0.045360 -0.014364 0 255 0
-0.228676 -0.054832 0.408842 76 0 153
0.296465 -0.023770 -0.170050 0 255 0
0.368612 -0.417359 0.504737 0 127 127
-0.332724 -0.046956 -0.142002 0 255 0
0.350845 -0.015193 -0.187591 127 0 127
0.302535 -0.023169 0.210664 0 255 0
-0.186741 0.085268 -0.241916 127 0 127
0.128478 0.517602 -0.329166 127 0 127
-0.155061 0.453452 -0.316608 127 0 127
0.044707 -0.033943 -0.139696 0 255 0
-0.387548 -0.024973 -0.078001 0 255 0
0.379437 -0.696072 0.508325 0 127 127
0.377099 -0.353932 -0.234667 76 153 0
0.134831 -0.006627 0.032140 0 255 0
0.342312 0.348507 -0.322468 127 0 127
0.334781 -0.077578 0.495663 0 127 127
0.036445 0.256810 -0.304731 127 0 127
-0.398209 -0.787120 -0.292357 76 0 153
0.025976 -0.009309 -0.128880 0 255 0
0.165319 0.565346 -0.338355 127 0 127
0.318328 -0.010796 -0.120978 0 255 0
0.416499 -0.785167 -0.276868 153 76 0
0.356802 -0.005579 -0.145311 0 255 0
-0.067456 -0.038106 0.371517 0 255 0
-0.020064 0.011343 0.375035 0 255 0
0.269243 0.377961 -0.302221 127 0 127
0.384381 -0.657754 -0.326810 76 153 0
0.108950 0.021400 -0.232837 127 0 127
-0.170211 -0.037776 -0.067716 0 255 0
0.390334 -0.772515 0.150445 153 76 0
-0.042479 0.000751 0.173402 0 255 0
-0.371265 -0.002580 0.283904 0 255 0
-0.084324 0.002723 0.229542 0 255 0
0.371574 -0.116943 0.509136 0 127 127
-0.276010 0.016879 -0.190079 127 0 127
0.022931 0.222370 -0.298039 127 0 127
0.296941 -0.012179 -0.075254 0 255 0
0.125756 0.012508 0.520611 0 255 0
-0.143394 0.246447 -0.302731 127 0 127
-0.229609 -0.008553 -0.004613 0 255 0
-0.382964 0.021636 -0.230227 127 0 127
0.058989 0.090291 -0.270755 127 0 127
0.381462 -0.053886 0.082941 0 0 255
0.178812 -0.039353 -0.006669 0 255 0
-0.096544 0.319782 -0.290664 127 0 127
0.023944 -0.016110 0.344839 0 255 0
-0.285544 -0.046958 0.063974 153 0 76
-0.404614 -0.766794 0.473202 76 0 153
-0.201960 0.051113 -0.223557 127 0 127
0.403177 -0.769971 0.002327 153 76 0
-0.376220 -0.508970 0.504184 76 0 153
-0.332820 -0.102056 0.505896 76 0 153
0.411628 -0.787896 0.066777 153 76 0
0.236120 0.233334 -0.300182 127 0 127
-0.372688 -0.298787 0.522125 76 0 153
0.363692 -0.177114 0.522625 0 127 127
-0.367321 -0.495644 0.522246 76 0 153
-0.195824 0.164668 -0.286836 127 0 127
0.420143 -0.780794 0.485192 153 76 0
-0.237454 0.011855 0.390931 0 255 0
-0.066779 0.100329 -0.273538 127 0 127
-0.381419 -0.611907 -0.312916 153 0 76
0.253181 0.260606 -0.305445 127 0 127
0.132081 0.000145 0.183071 0 255 0
-0.315240 -0.028086 0.162815 0 255 0
0.078826 -0.002637 -0.154598 0 255 0
0.399159 -0.787728 -0.072908 153 76 0
-0.100694 0.106880 -0.248692 127 0 127
0.415731 -0.772281 0.056269 153 76 0
-0.069700 -0.037568 -0.063724 0 255 0
-0.171320 -0.012113 -0.073119 0 255 0
-0.152635 -0.019993 0.364435 0 255 0
0.360734 -0.260979 0.504430 0 127 127
0.105788 -0.029131 0.096679 0 255 0
-0.218420 0.636599 -0.378556 127 0 127
0.181448 -0.058842 0.060692 153 0 76
0.004482 0.608710 -0.346839 127 0 127
0.371319 -0.141253 -0.151604 76 153 0
0.369652 -0.070178 -0.030686 0 0 255
-0.347843 0.018083 -0.229911 127 0 127
-0.028247 -0.020651 0.259084 0 255 0
-0.255003 0.004034 0.254650 0 255 0
-0.165754 0.086855 -0.269700 127 0 127
-0.305778 0.278564 -0.308885 127 0 127
0.180670 -0.002428 0.131360 0 255 0
-0.389016 -0.771411 0.024065 76 0 153
0.083674 0.003147 0.221818 0 255 0
-0.368274 -0.515546 0.522320 76 0 153
-0.077602 -0.032806 -0.144619 0 255 0
-0.064627 0.104282 -0.248058 127 0 127
-0.029055 -0.024665 0.367818 0 255 0
-0.128795 0.506162 -0.326941 127 0 127
0.416894 -0.787413 0.396122 153 76 0
-0.296478 -0.011022 -0.118501 0 255 0
-0.265283 0.575753 -0.366741 127 0 127
-0.234718 0.497407 -0.351512 127 0 127
-0.273306 0.153852 -0.284733 127 0 127
-0.069240 -0.001205 0.135595 0 255 0
-0.267804 0.014858 0.443773 0 255 0
-0.100993 0.212456 -0.269761 127 0 127
0.151212 0.078772 -0.267016 127 0 127
-0.002727 0.004826 0.250672 0 255 0
0.205267 0.000730 -0.211188 127 0 127
-0.402170 -0.621934 0.519051 76 0 153
0.374371 -0.000894 0.310834 0 255 0
-0.188458 0.644451 -0.379948 127 0 127
0.383581 -0.520135 0.522409 0 127 127
0.325752 0.005210 -0.171755 127 0 127
0.112922 -0.016202 0.343372 0 255 0
-0.193774 -0.036333 -0.126313 0 255 0
0.295466 0.280785 -0.283061 127 0 127
-0.398021 -0.788037 0.427543 76 0 153
-0.372729 0.376162 -0.308175 127 0 127
-0.229743 -0.012192 -0.105672 0 255 0
0.371242 -0.003534 0.141372 0 255 0
0.377024 0.372073 -0.320527 127 0 127
0.086205 0.204531 -0.268221 127 0 127
-0.299179 -0.047049 0.006439 0 255 0
-0.303266 0.432240 -0.312503 127 0 127
0.209487 -0.060528 0.060272 153 0 76
-0.007130 0.388617 -0.330365 127 0 127
-0.262224 -0.016216 0.343119 0 255 0
0.099263 0.017485 0.492539 0 255 0
-0.246767 0.311404 -0.315357 127 0 127
-0.276816 -0.019810 0.275135 0 255 0
0.091373 0.339598 -0.294691 127 0 127
0.200909 -0.037437 -0.061226 0 255 0
0.399810 -0.648216 -0.304806 76 153 0
0.164708 -0.046938 0.006240 0 255 0
0.080969 0.154885 -0.284934 127 0 127
0.274781 0.313361 -0.315738 127 0 127
-0.393284 -0.769916 -0.279958 76 0 153
-0.097707 0.013452 0.415270 0 255 0
-0.346215 -0.082725 0.205370 255 0 0
-0.160287 0.000627 -0.162697 0 255 0
-0.162942 -0.029098 0.097385 0 255 0
0.023103 -0.016175 0.426989 76 0 153
0.378111 0.277013 -0.305484 127 0 127
0.094151 0.296049 -0.312317 127 0 127
-0.374890 -0.463428 0.504194 76 0 153
0.050486 0.541607 -0.359997 127 0 127
0.170890 -0.065572 0.019798 153 0 76
0.029432 0.602591 -0.371869 127 0 127
0.369994 0.230819 -0.273413 127 0 127
0.378448 -0.012844 0.237600 0 255 0
-0.178743 -0.010563 -0.042966 0 255 0
0.382750 -0.028189 0.141287 0 255 0
-0.034226 0.367593 -0.326173 127 0 127
0.075480 0.005346 0.260586 0 255 0
0.190599 0.148438 -0.283680 127 0 127
0.396257 -0.786836 -0.143775 153 76 0
-0.339640 0.052742 -0.225155 127 0 127
0.229425 0.203772 -0.268078 127 0 127
-0.411130 -0.771313 0.075758 76 0 153
0.133921 0.254292 -0.277982 127 0 127
-0.206497 -0.005514 0.517282 0 255 0
-0.364460 -0.003979 0.085949 0 255 0
-0.008390 -0.011346 0.435426 76 0 153
-0.398278 -0.677213 0.505204 76 0 153
-0.207347 0.016933 0.482184 0 255 0
-0.281695 0.479280 -0.321626 127 0 127
-0.367236 -0.019705 0.397740 0 255 0
-0.137448 0.081378 -0.267951 127 0 127
0.367906 -0.006423 0.056325 0 255 0
0.283771 0.409222 -0.334372 127 0 127
-0.301680 -0.020182 0.365114 0 255 0
0.403274 -0.320704 -0.208717 76 153 0
0.137893 -0.049948 0.010135 153 0 76
0.281867 -0.019337 0.284064 0 255 0
0.224927 -0.021159 0.249401 0 255 0
-0.024697 -0.009757 0.466973 0 255 0
-0.240428 -0.019926 0.272923 0 255 0
-0.334184 -0.070293 0.438480 255 0 0
0.188411 0.169404 -0.287756 127 0 127
-0.316059 -0.037078 -0.144571 0 255 0
-0.207918 -0.076478 0.047961 153 0 76
0.203361 0.009454 0.338992 0 255 0
-0.062288 0.016589 -0.228563 127 0 127
-0.247546 -0.005265 0.058114 0 255 0
-0.385305 0.166981 -0.276772 127 0 127
0.334885 0.408835 -0.308597 127 0 127
0.281270 0.005843 0.270069 0 255 0
0.368643 0.540098 -0.355608 127 0 127
-0.140047 0.390870 -0.330803 127 0 127
-0.312207 -0.024375 0.250668 0 255 0
0.197869 0.502304 -0.327210 127 0 127
-0.127534 -0.021489 0.243103 0 255 0
0.198136 0.028653 -0.203734 127 0 127
-0.080985 0.346137 -0.322024 127 0 127
-0.358252 -0.155601 0.504429 76 0 153
0.157942 0.019354 -0.231032 127 0 127
0.319024 0.006437 0.521215 0 255 0
0.273607 -0.011489 -0.193673 127 0 127
0.010492 0.520654 -0.329759 127 0 127
-0.168912 -0.019020 0.289983 0 255 0
-0.006350 -0.004957 0.063990 0 255 0
-0.398277 -0.788033 0.301414 76 0 153
0.180454 0.524720 -0.356714 127 0 127
-0.202604 -0.035305 0.074527 0 255 0
0.234508 -0.024155 0.367065 0 255 0
0.221787 0.142774 -0.256217 127 0 127
0.335716 -0.049104 -0.066578 0 255 0
-0.228772 -0.016576 0.336125 0 255 0
0.268946 -0.007959 0.021352 0 255 0
-0.415945 -0.784446 -0.197967 76 0 153
0.273351 -0.052498 0.375572 0 255 0
0.159924 -0.005492 0.053796 0 255 0
0.259861 0.541723 -0.334784 127 0 127
-0.027477 0.008479 0.320368 0 255 0
-0.025939 -0.015529 0.428116 76 0 153
-0.115114 0.004751 0.265000 0 255 0
0.348040 -0.088730 0.042961 0 0 255
0.395601 -0.770701 0.285522 153 76 0
0.384133 -0.778333 0.031503 153 76 0
-0.130803 -0.009428 0.473234 0 255 0
0.222355 0.478594 -0.322511 127 0 127
0.350207 -0.092724 -0.137540 0 0 255
0.254612 0.469857 -0.346150 127 0 127
-0.275615 0.055681 -0.226896 127 0 127
-0.233967 -0.051401 0.062547 153 0 76
-0.300759 0.417325 -0.335942 127 0 127
0.242910 -0.032337 -0.145616 0 255 0
-0.100693 0.285308 -0.310192 127 0 127
-0.000341 0.113362 -0.250186 127 0 127
-0.186227 -0.026230 0.152639 0 255 0
0.221177 0.502406 -0.327229 127 0 127
-0.397657 -0.300991 -0.217828 153 0 76
-0.098018 0.009728 0.344219 0 255 0
0.282461 0.597831 -0.345322 127 0 127
0.357435 -0.155175 -0.160777 76 153 0
0.381175 -0.696096 -0.328103 76 153 0
-0.322367 -0.012236 -0.077090 0 255 0
-0.362583 -0.011555 -0.061857 0 255 0
0.246615 -0.012543 -0.087064 0 255 0
0.079078 -0.035818 -0.130186 0 255 0
0.385840 0.071862 -0.263945 127 0 127
-0.074835 0.005077 0.263685 0 255 0
-0.089743 -0.012281 -0.078567 0 255 0
-0.325370 0.171479 -0.262082 127 0 127
0.368413 -0.065760 0.101159 0 0 255
0.307845 -0.027159 0.146225 0 255 0
0.011281 0.374021 -0.301745 127 0 127
-0.320091 -0.041614 0.071943 0 255 0
0.350110 0.016726 0.482288 0 255 0
0.140570 -0.010912 0.440469 0 255 0
0.416883 -0.745692 0.501656 0 127 127
0.321888 0.176152 -0.262794 127 0 127
0.261775 -0.044377 0.066184 153 0 76
-0.365065 0.233942 -0.300234 127 0 127
0.212964 0.455494 -0.343338 127 0 127
-0.327255 -0.008337 -0.133950 0 255 0
-0.126926 0.016589 0.475617 0 255 0
0.008108 0.162487 -0.286412 127 0 127
0.098876 0.331478 -0.319259 127 0 127
0.386651 -0.775335 0.266402 153 76 0
0.255449 -0.009468 -0.021523 0 255 0
-0.389758 -0.393762 -0.246963 153 0 76
0.263321 0.656923 -0.370711 127 0 127
-0.049115 -0.021651 0.240018 0 255 0
-0.041501 -0.061179 0.060110 153 0 76
-0.353947 -0.217554 -0.182654 153 0 76
0.331696 -0.045130 -0.123192 0 255 0
0.138205 0.009966 0.348763 0 255 0
-0.071870 -0.024812 0.179714 0 255 0
0.240544 0.311832 -0.315441 127 0 127
-0.134435 0.191247 -0.265718 127 0 127
0.092506 0.171820 -0.261951 127 0 127
0.379186 -0.146381 -0.172029 76 153 0
-0.354607 0.000903 -0.163250 127 0 127
0.216305 -0.031991 0.081479 0 255 0
-0.085818 -0.022644 0.221073 0 255 0
0.115631 -0.035882 -0.023896 0 255 0
-0.209593 0.411382 -0.308447 127 0 127
0.213743 0.013329 0.412909 0 255 0
-0.326556 0.543741 -0.334155 127 0 127
0.259003 0.326923 -0.318374 127 0 127
0.370914 0.556986 -0.352727 127 0 127
-0.256653 -0.025629 0.164111 0 255 0
-0.167659 0.355838 -0.298521 127 0 127
0.395081 -0.617629 0.504836 0 127 127
-0.280983 0.655452 -0.375001 127 0 127
-0.054207 0.657552 -0.360928 127 0 127
0.211023 0.560489 -0.337603 127 0 127
-0.367167 -0.004550 0.389721 0 255 0
-0.285251 0.110632 -0.275950 127 0 127
-0.358516 -0.118104 -0.162197 153 0 76
-0.202606 0.624561 -0.349867 127 0 127
0.189789 -0.055498 0.407177 76 0 153
0.022393 -0.009314 0.475419 0 255 0
0.352154 0.328988 -0.292521 127 0 127
-0.096560 0.535830 -0.358875 127 0 127
-0.337641 0.343878 -0.321600 127 0 127
0.109721 -0.015638 -0.186860 127 0 127
0.257921 -0.037267 -0.057967 0 255 0
0.203724 -0.009053 0.480388 0 255 0
0.005530 0.205356 -0.294642 127 0 127
-0.357357 -0.035733 0.497961 255 0 0
-0.299108 -0.001572 0.128581 0 255 0
0.319480 -0.019237 0.491727 0 0 255
0.043837 0.002886 0.215319 0 255 0
-0.352955 0.578823 -0.367100 127 0 127
-0.033476 0.482427 -0.322237 127 0 127
-0.360831 -0.077066 -0.012380 255 0 0
0.328616 0.008603 0.322725 0 255 0
-0.073933 0.216089 -0.296761 127 0 127
-0.318526 0.475857 -0.347323 127 0 127
-0.379387 -0.713834 -0.330703 153 0 76
-0.265482 -0.058333 0.398301 76 0 153
-0.267549 0.459116 -0.344048 127 0 127
-0.154083 0.597437 -0.344694 127 0 127
-0.040380 0.551350 -0.361947 127 0 127
-0.132596 -0.039958 -0.004927 0 255 0
-0.401397 -0.346730 -0.226896 153 0 76
0.374006 -0.584068 0.519371 0 127 127
-0.365736 0.546149 -0.339034 127 0 127
0.332332 -0.068383 0.480880 0 0 255
-0.319855 0.014616 0.448068 0 255 0
-0.257743 0.349974 -0.322751 127 0 127
0.096740 -0.009924 0.463778 0 255 0
-0.088015 -0.033597 0.371299 0 255 0
0.370432 0.170611 -0.287895 127 0 127
-0.178655 0.594554 -0.344134 127 0 127
-0.151776 0.342945 -0.321425 127 0 127
0.137251 0.012458 0.396303 0 255 0
0.139592 -0.025365 0.169140 0 255 0
0.225698 0.390991 -0.330827 127 0 127
-0.333575 0.012021 0.405992 0 255 0
0.306516 -0.000837 -0.209131 127 0 127
-0.211251 -0.035825 -0.030657 0 255 0
0.133011 -0.001279 0.151036 0 255 0
-0.384763 -0.032431 -0.006577 0 255 0
-0.383677 -0.047810 0.000812 0 255 0
-0.200796 0.569086 -0.339091 127 0 127
0.278766 -0.034007 -0.139210 0 255 0
-0.075687 -0.011375 -0.058466 0 255 0
-0.395168 -0.519887 0.506510 76 0 153
0.326897 0.621130 -0.349784 127 0 127
-0.274461 -0.009316 0.475361 0 255 0
0.369232 0.209265 -0.295397 127 0 127
0.306593 0.231994 -0.273558 127 0 127
-0.289940 0.013346 0.425475 0 255 0
0.055870 0.110503 -0.249562 127 0 127
-0.272339 0.291948 -0.286233 127 0 127
-0.052691 -0.004060 0.081098 0 255 0
0.021325 0.032544 -0.242040 127 0 127
0.034229 0.591721 -0.343583 127 0 127
-0.377883 -0.348463 0.504940 76 0 153
0.210207 -0.031320 0.414612 76 0 153
-0.021043 0.451500 -0.316229 127 0 127
0.289900 -0.009942 -0.027905 0 255 0
-0.327686 0.016718 -0.189778 127 0 127
0.069814 0.518526 -0.329345 127 0 127
0.260724 0.218462 -0.297244 127 0 127
0.324068 -0.009449 -0.004928 0 255 0
-0.133934 -0.000746 0.144348 0 255 0
0.257009 -0.029050 0.098422 0 255 0
-0.194789 0.215314 -0.270317 127 0 127
0.372228 -0.247329 0.521281 0 127 127
-0.116607 -0.077287 0.026753 153 0 76
0.109575 -0.012005 -0.107720 0 255 0
-0.358484 -0.004624 -0.204072 127 0 127
0.241033 0.527734 -0.332121 127 0 127
-0.360153 -0.068918 0.130953 255 0 0
-0.365117 -0.075235 -0.105764 255 0 0
0.060028 -0.012010 -0.070568 0 255 0
0.080996 -0.037089 0.413493 76 0 153
-0.242392 -0.000176 0.155433 0 255 0
0.105136 0.007013 0.292389 0 255 0
-0.334228 -0.005859 0.046794 0 255 0
-0.128420 0.001311 0.184087 0 255 0
0.282131 0.429211 -0.338239 127 0 127
-0.343590 0.146000 -0.283206 127 0 127
-0.389870 -0.770964 0.256720 76 0 153
-0.215756 0.027960 -0.238386 127 0 127
0.390166 -0.326633 -0.226561 76 153 0
-0.161329 0.213114 -0.296156 127 0 127
-0.191107 0.016686 0.477473 0 255 0
0.205281 -0.047376 0.006941 0 255 0
0.305070 -0.023280 0.419201 76 0 153
0.239135 0.572207 -0.366051 127 0 127
0.185141 0.006482 0.282269 0 255 0
0.398881 -0.591661 -0.306876 76 153 0
0.115699 -0.003460 0.092997 0 255 0
0.159491 -0.058017 0.401119 76 0 153
0.033462 0.510739 -0.327831 127 0 127
-0.256059 0.640121 -0.379180 127 0 127
0.098203 0.038923 -0.246586 127 0 127
0.273204 -0.058299 0.398725 76 0 153
0.334215 -0.005219 0.078105 0 255 0
0.393108 -0.042227 -0.094978 0 255 0
0.422373 -0.778485 0.449548 153 76 0
0.188001 0.609911 -0.373288 127 0 127
-0.337063 0.008579 0.338937 0 255 0
-0.198100 -0.010298 0.456617 0 255 0
-0.128555 0.469354 -0.319697 127 0 127
0.165879 -0.038072 -0.109656 0 255 0
-0.045967 0.004261 0.248343 0 255 0
-0.347514 -0.060022 0.388103 255 0 0
-0.151792 0.263524 -0.305995 127 0 127
-0.360357 -0.320379 -0.208530 153 0 76
0.289970 0.632225 -0.351360 127 0 127
-0.206903 0.351160 -0.297745 127 0 127
-0.029769 0.006201 0.276958 0 255 0
0.115239 0.501395 -0.352287 127 0 127
-0.085845 -0.035869 -0.031474 0 255 0
-0.110589 0.001511 -0.164462 127 0 127
0.350330 -0.001287 0.147227 0 255 0
0.390943 -0.502302 -0.260841 76 153 0
-0.142335 0.496328 -0.324999 127 0 127
-0.378863 -0.532084 -0.270956 153 0 76
-0.385526 -0.020326 -0.025566 0 255 0
0.100892 0.303958 -0.287546 127 0 127
0.154528 -0.003664 0.095597 0 255 0
0.026478 0.165731 -0.260757 127 0 127
0.319665 -0.026517 0.299650 0 255 0
0.261461 0.018161 0.510947 0 255 0
0.067601 0.105163 -0.274670 127 0 127
0.226814 0.412461 -0.309414 127 0 127
0.312467 0.149745 -0.283934 127 0 127
0.209790 0.241661 -0.275489 127 0 127
0.085437 -0.005932 0.045403 0 255 0
-0.361411 0.641636 -0.367857 127 0 127
-0.129166 0.209464 -0.269180 127 0 127
0.151461 -0.015695 0.351497 0 255 0
0.122800 0.228986 -0.272973 127 0 127
0.152361 -0.017367 0.319133 0 255 0
0.247632 0.560129 -0.338101 127 0 127
0.274436 0.017821 0.498793 0 255 0
-0.249520 0.063277 -0.231357 127 0 127
-0.246082 0.526992 -0.357155 127 0 127
-0.278857 0.632514 -0.377741 127 0 127
0.062672 -0.010629 0.450233 0 255 0
-0.354738 0.479915 -0.321939 127 0 127
-0.361423 -0.069724 0.081808 255 0 0
-0.067199 0.218292 -0.270895 127 0 127
-0.008127 -0.028327 0.112636 0 255 0
0.047095 0.276263 -0.282209 127 0 127
-0.185198 -0.022693 0.220143 0 255 0
-0.382473 -0.774728 0.148319 76 0 153
0.048976 -0.016038 0.346005 0 255 0
0.245112 0.069742 -0.263556 127 0 127
0.189016 -0.071749 0.020627 153 0 76
0.031609 -0.045017 0.371850 0 255 0
0.343678 0.015964 0.465983 0 255 0
-0.243474 0.002827 0.521462 0 255 0
0.078201 0.092504 -0.271435 127 0 127
0.352655 0.007275 0.297710 0 255 0
-0.353736 -0.093914 -0.155512 153 0 76
0.383507 -0.406562 0.505058 0 127 127
0.366525 -0.107878 -0.160013 0 0 255
-0.371644 0.013238 -0.184569 127 0 127
-0.138114 0.319708 -0.316972 127 0 127
0.091076 0.010583 0.360524 0 255 0
0.007832 0.002899 0.215986 0 255 0
0.045444 0.009033 0.330950 0 255 0
-0.097890 0.188873 -0.291445 127 0 127
0.176979 0.038017 -0.213158 127 0 127
-0.269705 0.017135 0.515752 0 255 0
-0.310063 -0.012367 -0.099827 0 255 0
-0.350987 -0.308538 0.504458 76 0 153
0.000658 -0.030124 0.085395 0 255 0
0.037095 -0.008860 0.484062 0 255 0
-0.010163 0.032486 -0.207977 127 0 127
-0.285688 -0.015165 0.428744 76 0 153
0.095927 0.007739 0.521416 0 255 0
-0.385419 0.112150 -0.269983 127 0 127
0.122102 0.282131 -0.309575 127 0 127
0.272805 0.278289 -0.282591 127 0 127
0.327899 0.600816 -0.371531 127 0 127
0.383846 -0.085421 -0.152650 0 0 255
0.404049 -0.785597 0.477848 153 76 0
-0.245017 -0.017696 0.358581 0 255 0
0.326636 -0.043360 -0.047373 0 255 0
0.190219 -0.009898 -0.030275 0 255 0
-0.133890 -0.012048 -0.071303 0 255 0
0.179069 0.344586 -0.321733 127 0 127
0.163811 0.123750 -0.252451 127 0 127
-0.222116 -0.060785 0.017864 153 0 76
-0.379852 -0.538090 0.522514 76 0 153
0.391276 -0.771928 0.437130 153 76 0
0.212180 0.349107 -0.322582 127 0 127
-0.039686 0.241364 -0.275429 127 0 127
0.334252 -0.055888 0.329208 0 0 255
-0.050342 0.094598 -0.245297 127 0 127
-0.187944 -0.004406 0.074498 0 255 0
-0.248231 0.485832 -0.322899 127 0 127
0.372585 -0.371254 -0.223504 76 153 0
0.016681 0.180044 -0.263550 127 0 127
0.159301 0.013588 0.417853 0 255 0
0.334714 -0.006171 -0.143110 0 255 0
-0.416343 -0.773449 0.125366 76 0 153
0.339271 -0.152650 0.516644 0 127 127
-0.228911 0.124804 -0.278982 127 0 127
0.170908 0.010241 0.354011 0 255 0
0.322667 0.303344 -0.287427 127 0 127
0.345559 -0.074661 -0.014942 0 0 255
-0.261517 0.461681 -0.318205 127 0 127
0.289952 0.401508 -0.307031 127 0 127
-0.370628 -0.009902 0.314207 0 255 0
0.353548 -0.056731 0.390505 0 0 255
-0.376934 -0.014820 0.138179 0 255 0
0.328788 -0.011076 -0.045300 0 255 0
-0.333404 0.601633 -0.345523 127 0 127
-0.265359 0.017608 0.494838 0 255 0
0.055739 0.603420 -0.372029 127 0 127
0.314089 -0.076702 0.052555 153 0 76
-0.282329 -0.042534 -0.000807 0 255 0
-0.030239 0.108648 -0.249123 127 0 127
-0.022112 -0.037179 -0.056283 0 255 0
0.019022 -0.028056 0.117812 0 255 0
-0.202695 -0.008517 0.490546 0 255 0
0.414663 -0.602951 -0.293038 76 153 0
-0.239521 -0.054296 0.376101 0 255 0
0.379932 -0.621048 -0.300001 76 153 0
-0.332658 0.013202 -0.225109 127 0 127
0.147625 0.149810 -0.283947 127 0 127
0.263938 0.004361 0.241790 0 255 0
0.189244 -0.006055 0.045787 0 255 0
0.079765 0.012231 0.391969 0 255 0
0.109527 0.395104 -0.331627 127 0 127
0.182169 -0.049330 0.373619 0 255 0
0.337679 0.057831 -0.257865 127 0 127
-0.359851 -0.188441 0.504444 76 0 153
-0.225690 0.536479 -0.332750 127 0 127
-0.068981 0.022924 -0.197316 127 0 127
0.121586 -0.056888 0.061179 153 0 76
-0.383787 -0.015977 -0.008766 0 255 0
-0.352566 -0.231654 0.522054 76 0 153
-0.106542 0.625378 -0.376297 127 0 127
-0.382865 -0.702361 0.522361 76 0 153
0.384084 -0.778361 -0.193892 153 76 0
0.175931 -0.022817 0.217767 0 255 0
-0.130129 -0.023802 0.198975 0 255 0
-0.305056 0.004549 -0.170518 127 0 127
0.211384 0.005557 0.264609 0 255 0
0.066250 0.045263 -0.219666 127 0 127
0.140759 0.611214 -0.347310 127 0 127
0.064188 0.586535 -0.368837 127 0 127
0.015593 0.536286 -0.358962 127 0 127
0.417982 -0.784196 -0.006095 153 76 0
-0.260385 -0.038106 -0.074898 0 255 0
-0.383631 -0.773472 -0.046737 76 0 153
0.370785 -0.011722 -0.047725 0 255 0
-0.322956 -0.031841 0.509362 255 0 0
-0.243659 -0.012538 -0.086884 0 255 0
0.234555 0.020145 -0.194124 127 0 127
-0.131522 0.214249 -0.296387 127 0 127
0.035435 0.479191 -0.347972 127 0 127
-0.155560 0.269187 -0.280877 127 0 127
-0.227397 0.343263 -0.296297 127 0 127
-0.137436 0.627715 -0.376772 127 0 127
0.329960 -0.054835 0.445171 0 0 255
-0.136740 0.494459 -0.350939 127 0 127
-0.033835 0.346099 -0.296024 127 0 127
0.175132 -0.028796 0.103689 0 255 0
-0.217235 0.015494 0.454335 0 255 0
0.092657 -0.027844 -0.159968 0 255 0
-0.154263 0.566212 -0.364886 127 0 127
-0.207651 -0.004930 0.064498 0 255 0
0.182172 0.246854 -0.302810 127 0 127
0.083243 -0.035921 -0.032444 0 255 0
-0.005163 0.330336 -0.292928 127 0 127
-0.236585 0.008790 0.344035 0 255 0
-0.361208 -0.344128 -0.214286 153 0 76
-0.384514 -0.772529 0.060272 76 0 153
0.262105 0.005743 -0.173255 127 0 127
0.089555 -0.015993 0.356760 0 255 0
0.177222 0.066369 -0.233179 127 0 127
-0.114114 -0.000876 0.520531 0 255 0
0.109943 0.381517 -0.302897 127 0 127
0.364440 -0.280625 0.504285 0 127 127
0.366319 -0.028000 0.478175 0 0 255
-0.180435 0.034004 -0.243126 127 0 127
-0.125265 -0.038133 -0.075832 0 255 0
0.016460 -0.033447 0.371292 0 255 0
0.400770 -0.764302 0.481308 153 76 0
0.267329 -0.023179 0.210864 0 255 0
0.382460 0.007034 -0.218065 127 0 127
0.300476 -0.028456 0.110072 0 255 0
-0.208866 0.006128 -0.173666 127 0 127
-0.377546 -0.009987 0.098649 0 255 0
0.017811 0.002588 0.521558 0 255 0
-0.146271 0.013888 0.423587 0 255 0
0.239069 0.046259 -0.220247 127 0 127
-0.111869 -0.028174 0.115555 0 255 0
-0.344865 0.007635 0.318984 0 255 0
-0.068377 -0.015749 0.350615 0 255 0
0.277371 -0.025567 0.165290 0 255 0
0.214636 0.010680 0.362383 0 255 0
-0.366804 -0.043304 0.279098 255 0 0
-0.417179 -0.775594 -0.272743 76 0 153
-0.104191 0.031085 -0.240882 127 0 127
-0.209083 0.191442 -0.291937 127 0 127
0.086591 0.650472 -0.379487 127 0 127
-0.045645 -0.037958 -0.071187 0 255 0
-0.047436 -0.038164 -0.108486 0 255 0
0.211444 0.001861 0.204346 0 255 0
0.379987 -0.297860 0.504982 0 127 127
-0.418210 -0.780080 0.036024 76 0 153
0.205699 0.619965 -0.348974 127 0 127
0.256385 0.008568 0.322068 0 255 0
-0.151962 -0.014595 -0.188573 127 0 127
0.143439 -0.028301 -0.158780 0 255 0
-0.346889 0.427506 -0.311666 127 0 127
-0.032095 0.300780 -0.313273 127 0 127
0.301544 0.423578 -0.311627 127 0 127
-0.057050 -0.022215 -0.173721 0 255 0
0.322000 0.014164 0.428837 0 255 0
