ply
format ascii 1.0
element vertex 1276
property float x
property float y
property float z
property uchar red
property uchar green
property uchar blue
end_header
-0.342188 0.099852 0.287382 153 76 0
-0.160530 0.086187 0.285310 153 76 0
-0.408892 0.064500 0.479083 153 76 0
-0.090918 0.045265 0.438535 153 76 0
0.123591 -0.469275 -0.017826 76 153 0
-0.041629 -0.168743 0.087305 76 0 153
-0.273429 0.098566 0.354452 153 76 0
0.086024 0.012188 -0.314439 153 76 0
-0.114774 -0.511768 0.218413 76 153 0
-0.345666 0.051503 0.319214 153 76 0
0.170102 -0.505662 -0.008717 76 153 0
0.037917 0.743189 -0.351700 153 0 76
0.080054 0.798447 -0.375305 153 0 76
0.413901 0.104643 0.420664 153 76 0
0.090384 0.028067 0.575273 153 76 0
0.027071 -0.530568 -0.435236 76 153 0
-0.317321 -0.538496 -0.058250 76 0 153
-0.255793 0.045368 0.361030 153 76 0
0.374461 -0.515219 -0.092966 76 153 0
-0.257538 -0.499248 0.447715 153 76 0
-0.089114 -0.137407 -0.015724 76 0 153
0.410930 0.030558 0.384046 76 0 153
0.442750 0.045782 0.008736 153 76 0
-0.259255 0.022120 -0.124031 153 76 0
-0.035127 0.521219 -0.304046 153 0 76
-0.273187 0.093088 0.276216 153 76 0
-0.613705 -0.667060 -0.174440 127 0 127
0.175167 0.014761 -0.168334 153 76 0
0.422096 -0.712790 0.528736 0 0 255
0.233653 0.074708 -0.162633 153 76 0
-0.173351 0.033058 -0.266045 153 76 0
0.310293 0.051252 -0.254673 153 76 0
0.316047 0.054011 0.413854 153 76 0
0.233172 0.034912 -0.253516 153 76 0
0.085658 0.045492 0.438902 153 76 0
0.106472 0.613590 -0.319765 153 0 76
-0.087916 0.607000 -0.319869 153 0 76
-0.025868 -0.075030 0.154710 76 0 153
-0.313067 0.394529 -0.244679 153 0 76
-0.187849 0.098619 0.466409 153 76 0
-0.130786 0.096462 0.489062 153 76 0
-0.411989 -0.123403 0.030923 76 0 153
-0.402196 -0.064473 0.034599 76 0 153
-0.355857 0.109539 0.507562 153 76 0
0.450652 0.059111 0.310080 153 76 0
-0.148568 -0.106369 -0.043354 76 0 153
0.074973 -0.146703 -0.000121 76 0 153
0.187576 0.548756 -0.309889 153 0 76
0.000469 0.087374 0.383515 153 76 0
-0.247078 0.636924 -0.315025 153 0 76
-0.123719 -0.137946 -0.006078 76 0 153
0.274566 0.026729 0.142167 153 76 0
0.287162 0.372479 -0.265558 153 0 76
-0.283293 0.341324 -0.246573 153 0 76
0.343304 0.609805 -0.275636 153 0 76
-0.404172 0.136686 -0.174704 153 0 76
-0.362472 0.039091 -0.154588 153 76 0
0.156731 0.069661 -0.089495 153 76 0
-0.536198 -0.553476 -0.144768 76 153 0
0.638856 -0.669739 -0.118089 153 76 0
0.144439 0.457973 -0.286183 153 0 76
-0.190491 0.064348 0.553114 153 76 0
-0.264749 -0.000471 0.562969 153 76 0
-0.166342 -0.524851 0.259610 76 153 0
-0.242966 -0.524026 -0.058138 76 0 153
0.344811 0.100870 0.317453 153 76 0
0.590656 -0.708167 -0.195893 76 0 153
0.132590 0.087422 0.344265 153 76 0
0.460109 0.012806 -0.007314 153 76 0
0.384125 -0.728470 0.554031 153 0 76
0.074132 0.092708 0.456595 153 76 0
-0.078799 0.039747 0.382452 153 76 0
-0.249068 -0.479294 0.408173 153 76 0
-0.433051 0.092391 0.438525 153 76 0
-0.325433 -0.669396 0.554071 0 255 0
-0.058956 0.005165 0.583071 153 76 0
-0.106544 -0.389530 0.042213 76 0 153
0.006357 0.091422 0.454601 153 76 0
0.380484 0.039142 -0.179310 153 76 0
0.264946 0.030660 0.201288 153 76 0
0.084619 0.001982 -0.099234 153 76 0
0.390335 0.368910 -0.230275 153 0 76
0.597379 -0.704863 -0.160991 76 0 153
0.060298 0.012725 0.189037 153 76 0
-0.265574 0.063513 0.557445 153 76 0
0.027160 -0.492929 -0.061223 204 51 127
0.335785 0.017831 0.542497 153 76 0
-0.054467 -0.422315 0.179943 153 76 0
0.150079 0.810344 -0.360700 153 0 76
-0.399695 0.055975 0.272988 153 76 0
-0.382360 -0.685227 0.556715 255 0 0
0.063109 0.067261 -0.200147 153 76 0
-0.246334 -0.067196 -0.067037 76 0 153
-0.212535 0.430872 -0.283865 153 0 76
-0.467896 0.116490 -0.182023 153 0 76
-0.239649 -0.057949 0.324919 76 0 153
0.170082 -0.438611 0.236805 76 0 153
0.134427 -0.457325 0.182300 76 153 0
0.253396 -0.526451 0.430689 76 0 153
0.125040 0.021717 0.239195 153 76 0
0.300268 -0.021819 -0.127130 76 0 153
0.244780 0.050265 0.441492 153 76 0
-0.167792 0.006718 -0.075338 153 76 0
0.314182 0.041699 0.250058 153 76 0
-0.108466 0.003307 -0.098320 153 76 0
-0.352725 0.058593 0.498351 153 76 0
-0.052314 -0.337682 0.043024 76 153 0
0.391613 0.040859 -0.069915 153 76 0
-0.124101 0.085067 0.528294 153 76 0
-0.277177 0.084617 0.138198 153 76 0
0.437864 0.033250 0.251049 76 0 153
0.216559 -0.082611 0.202473 76 0 153
-0.132152 -0.468550 -0.023156 76 153 0
0.625232 -0.654295 -0.165316 76 0 153
-0.126872 0.037260 0.351022 153 76 0
-0.327071 0.553824 -0.266750 153 0 76
-0.279432 -0.060988 -0.095000 76 0 153
0.417090 0.072674 -0.177987 153 76 0
0.421089 0.097477 0.354249 153 76 0
-0.586196 -0.690714 -0.212478 76 153 0
0.411074 0.200615 -0.204187 153 0 76
0.224042 0.641706 -0.323333 153 0 76
0.293829 0.048107 0.357911 153 76 0
-0.105262 -0.467630 0.154275 153 76 0
-0.103867 -0.493696 0.016616 76 153 0
-0.355444 0.038914 0.049842 153 76 0
0.436521 0.222859 -0.174826 153 0 76
0.176050 0.149143 -0.323457 153 0 76
-0.008170 -0.709912 -0.620907 0 127 127
-0.016135 -0.110285 -0.042352 76 0 153
0.245809 -0.484534 0.001692 153 0 76
-0.060301 0.692017 -0.339377 153 0 76
-0.117115 0.819108 -0.365685 153 0 76
0.212331 0.026406 0.212612 153 76 0
-0.178218 0.648698 -0.318067 153 0 76
-0.642091 -0.660751 -0.152093 0 127 127
-0.448591 0.044069 0.442779 153 76 0
0.219878 0.370490 -0.280440 153 0 76
-0.205711 -0.136549 0.095546 76 0 153
-0.018810 -0.430306 -0.175697 76 153 0
0.034578 0.072766 0.098111 153 76 0
-0.472540 0.007257 -0.124287 153 76 0
0.624014 -0.593309 -0.129017 153 0 76
0.324904 0.033371 -0.168591 153 76 0
-0.062427 0.026544 0.432410 76 0 153
0.337509 -0.722789 0.551968 204 51 127
-0.021844 0.000718 0.089234 153 76 0
-0.420911 0.079356 -0.212213 153 76 0
-0.040227 0.042878 0.566987 153 76 0
0.278518 0.041484 0.306759 153 76 0
0.596941 -0.593912 -0.161238 76 153 0
-0.360313 0.844130 -0.341234 153 0 76
-0.296272 0.605829 -0.284352 153 0 76
-0.020385 -0.505831 -0.259846 204 51 127
-0.089919 0.191651 -0.333596 153 0 76
-0.060630 0.646560 -0.342244 153 0 76
-0.213433 0.076603 -0.235256 153 76 0
0.251016 0.869772 -0.392920 153 0 76
0.263137 0.444547 -0.265814 153 0 76
0.057694 0.000000 0.078639 153 76 0
0.232639 -0.140468 0.079228 76 0 153
-0.319064 0.094851 0.244438 153 76 0
0.191049 0.073723 0.008107 153 76 0
0.016429 0.011652 -0.233625 153 76 0
-0.083926 -0.462041 0.123271 76 153 0
0.199678 0.010690 -0.105128 153 76 0
0.139231 -0.409242 -0.018872 76 153 0
-0.004376 -0.237362 0.105547 76 153 0
0.449212 0.155416 -0.216412 153 0 76
-0.227338 0.021680 -0.162594 153 76 0
-0.464449 0.031113 0.051897 153 76 0
-0.098772 -0.435270 0.238008 153 76 0
0.400566 -0.644169 0.543974 0 0 255
-0.435536 0.698207 -0.270584 153 0 76
0.211656 0.332178 -0.280724 153 0 76
-0.412658 0.412334 -0.212115 153 0 76
0.286395 0.001006 0.570036 153 76 0
0.347295 0.404718 -0.251084 153 0 76
0.122505 0.048527 0.476512 153 76 0
0.036185 -0.154972 0.106143 76 0 153
0.316769 0.026020 -0.075970 153 76 0
-0.018949 0.073629 0.137189 153 76 0
0.019367 -0.692978 -0.604010 0 127 127
-0.351999 0.613688 -0.269214 153 0 76
-0.255848 0.031341 0.208386 153 76 0
-0.131351 0.021256 0.221505 153 76 0
0.313723 -0.538316 0.438423 76 153 0
0.281465 -0.004331 0.059129 76 0 153
-0.406816 0.061037 -0.170710 153 76 0
0.095955 0.235447 -0.315539 153 0 76
0.458042 0.062517 0.502382 153 76 0
0.434030 0.052521 0.164919 153 76 0
0.380520 0.059208 0.408439 153 76 0
-0.083484 0.432101 -0.288692 153 0 76
-0.168664 -0.530387 0.295304 153 76 0
0.249169 0.075359 -0.111496 153 76 0
0.035613 -0.636284 -0.589656 153 0 76
-0.160151 0.229963 -0.293895 153 0 76
-0.047119 -0.543701 0.071049 76 153 0
-0.188166 0.014022 0.423150 76 0 153
0.040045 -0.689669 -0.556005 153 0 76
0.354720 -0.059085 0.196726 76 0 153
-0.147143 0.637454 -0.319474 153 0 76
-0.321193 0.684942 -0.305557 153 0 76
0.441154 0.038658 0.371941 76 0 153
-0.427518 0.039064 0.552048 153 76 0
0.166103 0.486814 -0.289249 153 0 76
0.365615 -0.035429 -0.135428 76 0 153
-0.026988 -0.464821 0.148630 76 153 0
-0.440479 0.014615 0.023144 76 0 153
0.368540 0.106998 0.374633 153 76 0
-0.036487 0.013823 0.200803 153 76 0
0.402559 0.042050 -0.001635 153 76 0
-0.088546 0.255192 -0.311286 153 0 76
-0.027754 -0.591591 0.023724 76 153 0
-0.275781 0.582192 -0.297289 153 0 76
0.163010 0.651041 -0.321832 153 0 76
-0.295413 -0.565586 0.428217 153 76 0
-0.403451 0.621277 -0.252582 153 0 76
0.338486 -0.487309 -0.080957 76 153 0
0.033520 -0.233781 0.007433 76 153 0
0.303661 -0.495243 0.434514 76 0 153
0.405663 0.625293 -0.269604 153 0 76
-0.050846 0.807893 -0.367296 153 0 76
0.046798 -0.740532 -0.602471 153 0 76
0.450290 0.025142 0.062078 76 0 153
-0.197139 0.041559 0.363342 153 76 0
-0.334599 -0.089553 0.201712 76 0 153
-0.469882 0.016678 -0.071269 153 76 0
-0.057143 0.088672 0.384175 153 76 0
-0.100337 0.083824 0.276455 153 76 0
-0.109570 -0.145405 0.097195 76 0 153
0.366122 -0.621022 0.583481 76 0 153
-0.212115 0.816959 -0.350235 153 0 76
-0.187232 0.322499 -0.282470 153 0 76
0.266892 0.078484 0.002811 153 76 0
0.153587 0.037812 0.361100 153 76 0
-0.302207 0.267587 -0.238489 153 0 76
-0.068520 -0.386319 0.194629 153 76 0
-0.470865 0.059107 -0.165562 153 76 0
-0.114875 0.682855 -0.332522 153 0 76
0.109507 0.010965 -0.176875 153 76 0
0.070222 -0.485862 0.100719 76 153 0
-0.083358 0.093083 0.450347 153 76 0
-0.459960 -0.541796 -0.122161 76 0 153
-0.266608 0.079391 -0.180639 153 76 0
-0.376024 0.361690 -0.216679 153 0 76
-0.010116 -0.587291 -0.533214 204 51 127
-0.007727 -0.005775 -0.050499 153 76 0
-0.020876 -0.403427 -0.068216 76 153 0
-0.356253 0.012042 0.546485 153 76 0
-0.024744 0.744033 -0.350946 153 0 76
0.365914 0.347331 -0.235352 153 0 76
-0.070723 0.034409 -0.289798 153 76 0
0.294194 0.093637 0.276240 153 76 0
0.570606 -0.540798 -0.112775 153 0 76
0.384170 0.517537 -0.257809 153 0 76
0.282727 0.019454 -0.054706 153 76 0
0.032608 0.068362 -0.056764 153 76 0
-0.132555 0.074150 -0.270157 153 76 0
-0.018209 -0.697409 -0.669118 76 153 0
-0.030106 0.047534 0.492882 153 76 0
0.033958 -0.482458 -0.133585 204 51 127
-0.036510 -0.369293 -0.013388 204 51 127
0.395557 0.085569 0.089364 153 76 0
-0.463861 0.183827 -0.182719 153 0 76
0.299901 0.103139 0.420299 153 76 0
0.136865 0.071150 -0.007557 153 76 0
0.129520 -0.514092 0.229519 76 153 0
0.206755 0.093900 0.376463 153 76 0
0.411516 0.469235 -0.239351 153 0 76
0.100765 0.074234 0.105664 153 76 0
-0.275936 -0.107697 -0.044253 76 0 153
-0.303685 0.039853 0.222711 153 76 0
-0.195182 0.020890 -0.197399 153 76 0
0.412403 0.110495 0.489169 153 76 0
0.304047 0.850950 -0.358209 153 0 76
0.067922 0.021770 0.255731 153 76 0
0.443836 0.711353 -0.281852 153 0 76
-0.007182 0.250226 -0.305184 153 0 76
0.090180 -0.000370 0.049782 153 76 0
0.047426 -0.723702 -0.631902 153 0 76
0.167333 0.027040 0.575310 153 76 0
0.300406 0.024657 0.047892 153 76 0
-0.272566 0.285342 -0.248729 153 0 76
-0.393529 0.093338 0.239781 153 76 0
-0.354178 0.774126 -0.298203 153 0 76
-0.407322 0.017425 -0.106395 153 76 0
-0.227627 0.492374 -0.290531 153 0 76
-0.220751 0.048126 0.510290 153 76 0
-0.108624 0.028161 -0.266219 153 76 0
-0.112678 0.080016 0.200208 153 76 0
-0.434709 -0.087052 -0.007014 76 0 153
-0.001492 0.020796 0.254911 153 76 0
-0.395481 0.015305 -0.199797 153 76 0
-0.297176 0.636928 -0.302593 153 0 76
-0.378543 -0.058798 -0.119330 76 0 153
0.223440 0.684631 -0.332344 153 0 76
0.334888 0.030394 0.008366 153 76 0
0.336291 0.083255 -0.137227 153 76 0
0.199733 0.430132 -0.289328 153 0 76
-0.186688 0.014832 -0.139575 153 76 0
0.184168 0.010091 0.087645 153 76 0
-0.158097 0.046754 0.445241 153 76 0
0.258670 0.083679 0.152899 153 76 0
-0.136227 0.071338 -0.034026 153 76 0
-0.463669 0.020511 0.093784 153 76 0
-0.436918 0.049057 -0.074785 153 76 0
-0.285863 0.030722 -0.187875 153 76 0
0.362972 0.037736 -0.107246 153 76 0
0.267806 -0.107495 0.166619 76 0 153
-0.190564 0.527714 -0.303300 153 0 76
-0.419171 -0.061435 -0.028234 76 0 153
0.244778 -0.050661 0.347121 76 0 153
-0.252412 -0.015876 0.323527 76 0 153
0.108084 -0.000903 -0.055815 153 76 0
-0.241827 -0.454889 -0.054415 76 0 153
-0.121307 0.550553 -0.316266 153 0 76
-0.349543 0.084270 -0.037492 153 76 0
0.028366 -0.504543 -0.352727 204 51 127
-0.346884 -0.068056 -0.107492 76 0 153
0.421981 0.566644 -0.239779 153 0 76
0.326833 0.103421 0.383622 153 76 0
0.184324 0.049128 -0.294843 153 76 0
-0.237557 -0.138398 0.025740 76 0 153
-0.341412 0.039488 0.098866 153 76 0
-0.125430 -0.057574 -0.067723 76 0 153
0.386572 -0.708914 0.500563 153 0 76
-0.329044 0.081779 -0.087244 153 76 0
0.068920 0.220144 -0.324981 153 0 76
-0.325418 0.491671 -0.267160 153 0 76
-0.302945 0.107811 0.459250 153 76 0
-0.147174 0.001870 -0.043860 153 76 0
0.181762 0.239602 -0.301078 153 0 76
-0.210191 0.844087 -0.375238 153 0 76
-0.054810 0.157805 -0.351373 153 0 76
-0.292098 -0.046332 0.244988 76 0 153
0.104589 -0.102417 0.155049 76 0 153
0.229496 0.075754 -0.197234 153 76 0
0.212513 0.258560 -0.274295 153 0 76
0.368985 0.052182 0.295639 153 76 0
-0.216462 0.077582 0.064852 153 76 0
0.075510 -0.359207 0.102194 76 153 0
-0.140089 0.284348 -0.286168 153 0 76
-0.331063 -0.111071 -0.027634 76 0 153
0.125108 0.068826 -0.166673 153 76 0
0.252490 0.030832 0.406228 76 0 153
-0.119163 0.069286 -0.133366 153 76 0
-0.016107 0.035626 -0.296333 153 76 0
-0.161275 0.037509 0.343629 153 76 0
-0.379806 -0.551333 -0.074333 76 0 153
0.115809 0.001635 0.581791 153 76 0
0.391054 0.733217 -0.282219 153 0 76
-0.034811 0.084896 0.327487 153 76 0
0.031010 0.403397 -0.302779 153 0 76
0.314524 0.266987 -0.239328 153 0 76
0.080609 0.384536 -0.301111 153 0 76
-0.368611 -0.127221 0.076188 76 0 153
-0.233527 0.087891 0.241833 153 76 0
0.111696 0.179176 -0.335802 153 0 76
0.625023 -0.694168 -0.215287 76 0 153
-0.319475 0.083342 0.021274 153 76 0
0.193409 -0.071233 0.178047 76 0 153
-0.295913 0.054648 0.562573 153 76 0
0.045538 0.345057 -0.303114 153 0 76
-0.392470 0.050094 0.161597 153 76 0
-0.015184 0.070118 0.029239 153 76 0
0.293328 0.028605 -0.167104 153 76 0
-0.395216 -0.514957 -0.102017 76 0 153
0.469304 0.053587 0.184153 153 76 0
-0.326907 0.086485 0.107737 153 76 0
0.427435 0.440135 -0.215834 153 0 76
-0.382452 -0.681778 0.521224 255 0 0
-0.425411 0.569470 -0.233912 153 0 76
0.106167 0.349908 -0.297736 153 0 76
0.366227 -0.694371 0.558860 153 0 76
0.038154 0.088849 0.398316 153 76 0
0.502775 -0.549902 -0.131892 76 153 0
0.357421 0.041320 0.109091 153 76 0
0.134918 0.073208 0.055682 153 76 0
0.234198 0.012491 -0.056570 153 76 0
-0.000272 0.080138 0.253430 153 76 0
0.158291 -0.521231 0.253519 76 153 0
-0.637008 -0.714964 -0.223780 0 127 127
0.140468 0.069329 0.545691 153 76 0
0.597525 -0.664190 -0.177631 76 0 153
-0.283761 0.102034 0.512299 153 76 0
-0.207938 0.030314 0.547046 153 76 0
-0.074915 -0.126159 0.142081 76 0 153
-0.182734 0.009328 0.066481 153 76 0
-0.299164 0.745826 -0.310768 153 0 76
0.106748 -0.415429 0.145762 76 153 0
-0.613803 -0.694333 -0.155700 127 0 127
0.380873 0.060824 0.449635 153 76 0
-0.434278 0.035204 0.207213 76 0 153
-0.057068 -0.369047 0.144805 153 76 0
0.359950 0.640419 -0.276403 153 0 76
-0.346900 0.647352 -0.277202 153 0 76
-0.251693 -0.030478 0.285383 76 0 153
0.473751 0.206645 -0.187778 153 0 76
-0.439715 0.045241 -0.002002 153 76 0
-0.425927 0.656025 -0.277411 153 0 76
0.295325 -0.504066 0.469479 76 0 153
0.272847 -0.136232 0.029366 76 0 153
-0.018154 -0.340784 0.000198 76 153 0
0.132373 -0.001545 0.002013 153 76 0
-0.156613 0.043319 0.406503 153 76 0
-0.402964 0.086727 0.181905 153 76 0
-0.384191 0.059226 0.375265 153 76 0
-0.073971 -0.411897 0.113878 76 153 0
-0.354809 -0.666219 0.530200 255 0 0
-0.347194 0.347814 -0.237238 153 0 76
-0.432286 0.034144 0.353408 76 0 153
0.476229 0.160850 -0.179057 153 76 0
0.227723 -0.045712 -0.071446 76 0 153
0.450268 0.026614 0.148520 76 0 153
0.436694 0.262720 -0.232777 153 0 76
0.422733 0.014914 -0.066347 153 76 0
0.379483 -0.649769 0.584441 153 0 76
0.213436 -0.066384 0.260449 76 0 153
-0.329627 0.033903 -0.242347 153 76 0
0.569057 -0.687659 -0.206736 76 0 153
0.110488 0.070155 -0.239437 153 76 0
-0.029261 -0.602502 0.074578 76 153 0
0.468942 0.049553 -0.083603 153 76 0
0.213202 0.078338 0.099429 153 76 0
0.480212 0.079840 -0.154284 153 76 0
0.376954 0.099591 0.258244 153 76 0
0.029795 -0.414535 -0.154697 76 153 0
0.368749 0.041149 -0.222042 153 76 0
0.217377 -0.026737 0.396239 76 0 153
-0.277136 0.044385 0.330479 153 76 0
-0.196900 0.593349 -0.304231 153 0 76
0.266356 0.094302 0.522319 153 76 0
0.478862 0.117127 -0.176931 153 0 76
-0.238491 -0.008710 0.055021 76 0 153
-0.121030 -0.448259 0.267781 76 153 0
-0.025595 -0.485876 -0.071564 204 51 127
-0.557217 -0.680426 -0.158809 76 153 0
0.005668 -0.497530 -0.083882 76 153 0
0.070579 -0.413972 -0.004338 76 153 0
-0.228527 -0.414482 -0.022705 76 0 153
0.253277 0.268520 -0.259598 153 0 76
-0.427945 0.081504 0.295912 153 76 0
0.024690 0.044836 0.447898 153 76 0
-0.155875 0.429449 -0.281506 153 0 76
0.427208 0.816373 -0.281253 153 0 76
-0.358030 0.806037 -0.315380 153 0 76
-0.010415 -0.472345 -0.363840 76 153 0
-0.138610 0.093439 0.429651 153 76 0
0.414181 0.129994 -0.192642 153 0 76
0.088185 0.076144 0.155746 153 76 0
0.239615 0.077623 0.039781 153 76 0
-0.223472 0.011649 0.027051 153 76 0
0.462548 0.056421 0.248625 76 0 153
0.090014 -0.459140 0.116606 76 153 0
0.159804 0.330387 -0.279376 153 0 76
-0.097845 -0.151678 0.053958 76 0 153
0.233668 -0.467183 0.380183 76 0 153
-0.313732 0.031189 -0.130645 153 76 0
-0.214350 0.081972 0.170360 153 76 0
-0.087388 0.638845 -0.326479 153 0 76
-0.243670 0.152363 -0.301284 153 0 76
-0.304033 0.787012 -0.331341 153 0 76
-0.411630 -0.705918 0.561940 127 127 0
-0.358962 -0.091584 0.174986 76 0 153
-0.429017 0.195451 -0.223359 153 0 76
0.372956 0.054112 0.563374 153 76 0
0.230171 0.090504 0.293161 153 76 0
0.270788 -0.427568 -0.050511 153 0 76
-0.267250 -0.499210 -0.063990 76 0 153
0.402598 0.043946 0.032256 153 76 0
-0.231175 0.074566 -0.127505 153 76 0
-0.068392 -0.003590 -0.045218 153 76 0
0.438423 -0.087257 0.100258 76 0 153
0.183439 0.035866 0.319024 153 76 0
-0.156572 -0.146607 0.045729 76 0 153
0.050269 0.014690 0.428923 76 0 153
0.329213 -0.058482 -0.131978 76 0 153
0.163191 0.369863 -0.291535 153 0 76
-0.181367 0.090369 0.338836 153 76 0
0.343771 -0.541818 -0.059730 76 153 0
0.415059 -0.532700 -0.105639 153 0 76
0.018815 0.019920 0.578113 153 76 0
0.195646 -0.397559 0.003801 153 0 76
-0.231462 -0.495976 0.338156 153 76 0
0.083531 -0.377634 0.163676 76 153 0
-0.110918 0.003526 0.081289 153 76 0
0.368951 -0.121275 -0.005251 76 0 153
0.066332 -0.472755 0.185128 76 153 0
-0.444279 -0.489412 -0.079050 76 0 153
0.332300 0.109884 0.473678 153 76 0
-0.211912 -0.514127 0.390543 76 153 0
-0.344072 0.059827 0.467802 153 76 0
0.343430 0.757049 -0.315047 153 0 76
0.395797 -0.068997 -0.099292 76 0 153
-0.430761 0.241724 -0.175523 153 0 76
-0.356945 0.035976 -0.006025 153 76 0
-0.045610 -0.273068 0.071615 76 153 0
0.387866 0.082111 0.001022 153 76 0
0.344658 -0.127084 0.086719 76 0 153
0.256408 -0.051484 0.278829 76 0 153
0.099309 0.008625 0.141182 153 76 0
0.422462 -0.684231 0.512801 0 0 255
0.476030 0.017671 -0.033777 153 76 0
-0.440735 0.082592 0.467773 153 76 0
-0.357177 0.550566 -0.256315 153 0 76
0.103058 -0.092073 -0.052944 76 0 153
-0.445815 0.014159 -0.034025 153 76 0
-0.338870 -0.568026 0.557981 76 153 0
0.393696 -0.710096 0.580232 0 0 255
0.086133 0.068393 -0.089482 153 76 0
0.361565 -0.574598 0.573406 76 153 0
-0.415257 0.045980 0.018721 153 76 0
-0.284258 0.078863 -0.126749 153 76 0
0.626150 -0.624369 -0.128353 76 153 0
0.054001 0.062275 0.552583 153 76 0
-0.436800 0.269465 -0.229685 153 0 76
-0.249381 0.764367 -0.327326 153 0 76
0.414280 0.319049 -0.200120 153 0 76
0.214344 0.757781 -0.348784 153 0 76
-0.237214 0.040972 -0.278420 153 76 0
0.066014 0.077620 0.188481 153 76 0
0.303553 0.799155 -0.337576 153 0 76
0.273384 0.103122 0.458768 153 76 0
-0.188034 -0.438035 0.301709 76 153 0
-0.397489 -0.007606 -0.134420 76 0 153
-0.411407 -0.702699 0.510518 127 127 0
0.250661 0.771056 -0.343849 153 0 76
-0.022766 0.437697 -0.304361 153 0 76
0.475250 -0.538324 -0.123373 76 153 0
-0.042162 -0.003097 -0.063012 153 76 0
-0.204787 -0.002062 0.384452 76 0 153
-0.262481 0.234222 -0.271647 153 0 76
0.389406 0.090963 0.159543 153 76 0
-0.317797 0.442079 -0.249927 153 0 76
0.458179 0.093363 -0.206320 153 76 0
-0.041308 0.854837 -0.390002 153 0 76
0.150554 -0.495166 0.202214 76 0 153
0.221156 0.867551 -0.400965 153 0 76
0.603691 -0.546674 -0.157563 153 0 76
0.217943 0.015726 0.578614 153 76 0
-0.064184 -0.360631 0.107424 153 76 0
0.385237 0.039920 -0.137892 153 76 0
0.414192 -0.064501 0.029628 76 0 153
0.177934 -0.470139 0.328517 76 0 153
0.187867 0.071044 -0.151729 153 76 0
0.335132 0.056447 0.498521 153 76 0
-0.163774 -0.390750 0.004137 76 153 0
-0.078755 0.069664 -0.233928 153 76 0
-0.170258 0.071613 -0.080271 153 76 0
-0.359093 0.044540 0.138717 153 76 0
0.047831 -0.707711 -0.595117 153 0 76
0.109538 0.505593 -0.309507 153 0 76
0.205356 -0.033520 0.282048 76 0 153
0.274868 0.672631 -0.316987 153 0 76
0.434219 -0.486573 -0.107695 153 0 76
0.421630 -0.740061 0.550827 0 0 255
-0.271882 0.018253 -0.018543 153 76 0
0.064969 0.860300 -0.391143 153 0 76
0.323371 0.087835 0.143703 153 76 0
0.430573 0.064110 0.449025 153 76 0
0.106117 -0.499257 0.154537 76 0 153
0.079468 -0.002841 0.020824 153 76 0
0.210655 -0.517891 0.374915 76 153 0
-0.000219 0.085650 0.352684 153 76 0
0.002817 -0.574500 -0.468265 204 51 127
0.398431 -0.582773 0.559866 76 0 153
-0.076257 0.071270 -0.274814 153 76 0
0.255644 -0.523132 -0.025846 76 153 0
-0.263692 0.077153 -0.075204 153 76 0
-0.052453 0.293098 -0.306103 153 0 76
0.404171 0.538223 -0.241902 153 0 76
0.036193 0.183045 -0.331725 153 0 76
-0.025605 -0.155913 0.110285 76 0 153
0.378833 0.477598 -0.241121 153 0 76
-0.357207 0.301533 -0.226554 153 0 76
0.445781 0.614089 -0.238626 153 0 76
-0.261061 0.019098 -0.082742 153 76 0
-0.078416 0.528179 -0.315881 153 0 76
-0.019045 -0.459234 -0.218790 204 51 127
-0.344890 0.704145 -0.301375 153 0 76
0.654568 -0.726731 -0.138980 153 76 0
0.313954 -0.116577 0.126049 76 0 153
-0.262973 -0.037280 0.353007 76 0 153
-0.051611 0.012341 -0.220918 153 76 0
-0.187418 0.043919 0.398052 153 76 0
0.027182 -0.515846 -0.405739 76 153 0
0.367689 -0.083415 0.179262 76 0 153
-0.247123 0.081661 0.120632 153 76 0
0.198145 0.045430 0.399206 153 76 0
-0.058351 0.065674 0.550046 153 76 0
-0.211202 0.009388 -0.029963 153 76 0
0.352187 0.316634 -0.234886 153 0 76
-0.472754 -0.571011 -0.112324 76 153 0
-0.189712 0.006841 0.033289 153 76 0
0.569307 -0.679605 -0.142270 76 0 153
0.269241 -0.115982 -0.029400 76 0 153
0.283146 0.042328 -0.265924 153 76 0
0.234607 0.085181 0.533085 153 76 0
0.013143 -0.161173 -0.010881 76 0 153
-0.221462 0.095081 0.517520 153 76 0
-0.127229 0.039064 0.534969 153 76 0
0.277855 0.017939 0.417742 76 0 153
-0.113471 0.442148 -0.287629 153 0 76
0.018394 0.600520 -0.321999 153 0 76
-0.357349 0.059455 0.428485 153 76 0
0.014501 -0.344655 -0.005715 76 153 0
-0.211716 0.767068 -0.335788 153 0 76
0.425069 0.067868 -0.213106 153 0 76
-0.377416 -0.114136 0.112422 76 0 153
-0.057786 -0.158024 0.044249 76 0 153
0.431473 0.028944 0.208827 76 0 153
0.409725 0.068148 -0.094851 153 76 0
-0.380993 0.107123 0.381077 153 76 0
-0.424108 0.323737 -0.239960 153 0 76
-0.354763 -0.671458 0.562541 255 0 0
-0.077388 -0.378763 0.165511 153 76 0
-0.467296 -0.022864 -0.123421 153 76 0
-0.401716 0.047706 0.086346 153 76 0
0.033637 -0.457465 -0.101964 76 153 0
-0.129548 -0.411996 -0.019623 76 0 153
-0.383335 0.606248 -0.270299 153 0 76
0.336517 -0.709645 0.520122 204 51 127
0.031799 -0.526128 -0.277383 204 51 127
-0.037292 -0.492115 0.164387 153 76 0
-0.184100 -0.439293 -0.036844 76 0 153
-0.004568 -0.492191 -0.422130 204 51 127
0.441717 0.380025 -0.199877 153 0 76
-0.077710 -0.147215 0.100742 76 0 153
0.010771 0.230825 -0.325080 153 0 76
-0.359988 0.048730 0.221965 153 76 0
-0.299244 0.082870 -0.179553 153 76 0
0.175298 -0.420091 -0.029920 76 153 0
-0.143524 0.606392 -0.313415 153 0 76
-0.191557 -0.511848 -0.008790 76 153 0
0.412822 0.209763 -0.233731 153 0 76
0.008011 0.033980 0.352233 153 76 0
-0.472001 -0.540514 -0.080746 76 153 0
0.418550 0.060856 -0.045069 153 76 0
-0.266729 0.103571 0.449478 153 76 0
-0.416882 0.060560 0.510796 153 76 0
0.323687 0.084654 -0.190025 153 76 0
0.192413 0.005128 0.022172 153 76 0
0.171741 0.785558 -0.362989 153 0 76
-0.018953 -0.225854 0.048721 76 153 0
-0.473646 -0.500130 -0.090862 76 0 153
-0.236005 -0.009347 0.422422 76 0 153
-0.374956 0.666169 -0.283969 153 0 76
-0.105658 0.032507 0.321330 153 76 0
0.394785 0.032791 0.570466 153 76 0
0.193724 0.637594 -0.314750 153 0 76
0.253321 0.013410 0.003254 153 76 0
-0.042274 -0.421124 -0.015057 76 153 0
-0.123981 -0.498251 0.276218 153 76 0
-0.023571 -0.470971 -0.105527 204 51 127
0.061747 0.147238 -0.344760 153 0 76
0.327155 0.585830 -0.288146 153 0 76
0.035217 -0.511723 0.097713 76 153 0
-0.401897 0.146332 -0.203577 153 0 76
0.241324 0.470870 -0.273643 153 0 76
0.370211 -0.460138 -0.044976 153 0 76
-0.213653 -0.114428 -0.038585 76 0 153
-0.166992 0.703946 -0.343001 153 0 76
-0.219006 -0.116418 0.150230 76 0 153
-0.169611 0.807249 -0.367187 153 0 76
-0.323207 -0.529361 0.470155 153 76 0
0.061160 0.086751 0.353344 153 76 0
0.190199 0.385772 -0.287973 153 0 76
-0.303110 -0.515639 -0.021050 76 153 0
0.093061 0.047214 0.469198 153 76 0
-0.223409 -0.549206 0.372796 153 76 0
-0.111878 0.152932 -0.346563 153 0 76
-0.382972 0.391141 -0.219795 153 0 76
-0.033467 0.044777 0.444380 153 76 0
-0.414853 0.288047 -0.189905 153 0 76
-0.401858 0.829748 -0.295369 153 0 76
-0.212033 -0.062817 0.300171 76 0 153
0.357448 -0.002476 -0.130386 76 0 153
0.143807 0.075649 0.124443 153 76 0
0.218634 -0.099255 0.166258 76 0 153
0.187162 -0.461548 -0.035746 76 153 0
0.614692 -0.654140 -0.127640 76 0 153
0.019490 -0.670136 -0.625565 0 127 127
0.178364 -0.529809 0.292361 76 153 0
-0.148822 0.027832 0.574937 153 76 0
-0.048258 -0.006504 -0.004850 153 76 0
-0.257492 -0.560052 0.413871 153 76 0
-0.278028 -0.497821 -0.013018 76 153 0
-0.345228 -0.560592 0.499614 153 76 0
-0.429056 0.050120 0.107514 153 76 0
0.042176 -0.405958 -0.023567 76 153 0
0.406632 0.282756 -0.239896 153 0 76
0.005644 -0.366612 -0.052777 204 51 127
-0.182261 0.094474 0.402662 153 76 0
0.445466 -0.060994 0.051073 76 0 153
0.019584 -0.665032 -0.592503 0 127 127
-0.389153 0.032041 0.537840 153 76 0
-0.005033 -0.609884 -0.602183 204 51 127
-0.413892 0.015900 -0.033696 153 76 0
-0.311510 0.848850 -0.350425 153 0 76
0.483044 0.027168 -0.143202 153 76 0
-0.063606 -0.146694 -0.000402 76 0 153
-0.084039 0.074804 0.116116 153 76 0
0.031909 0.536526 -0.320337 153 0 76
-0.618743 -0.619481 -0.138356 76 153 0
0.052550 -0.350306 0.004819 76 153 0
0.192834 0.035161 0.541579 153 76 0
0.057525 -0.005514 -0.033289 153 76 0
-0.169603 0.286643 -0.280454 153 0 76
-0.074782 0.778531 -0.370015 153 0 76
0.177571 0.046381 0.518111 153 76 0
0.140494 0.081281 0.232352 153 76 0
0.080968 0.669430 -0.334055 153 0 76
-0.036652 -0.664620 -0.609105 76 153 0
0.287679 0.095564 0.316232 153 76 0
-0.339428 -0.651559 0.495122 0 255 0
0.019517 0.777016 -0.359152 153 0 76
0.285060 0.089091 0.213038 153 76 0
0.398489 -0.106293 0.134391 76 0 153
0.404531 -0.474774 -0.087920 153 0 76
-0.087789 0.048374 0.478348 153 76 0
0.134681 0.069076 -0.119497 153 76 0
0.262464 0.643783 -0.302979 153 0 76
0.009815 0.071836 0.080196 153 76 0
-0.051316 0.229358 -0.322030 153 0 76
-0.372341 0.082858 0.012892 153 76 0
0.631822 -0.666917 -0.196405 76 0 153
0.313700 -0.503795 -0.074750 153 0 76
0.245290 0.587643 -0.295188 153 0 76
-0.430187 0.140741 -0.159490 153 0 76
0.296737 -0.088360 0.216918 76 0 153
0.020710 -0.607677 -0.562073 204 51 127
0.071760 0.711064 -0.355264 153 0 76
-0.394224 0.087431 0.538230 153 76 0
-0.175489 0.480178 -0.297235 153 0 76
0.252886 0.370908 -0.273376 153 0 76
0.235839 0.075539 -0.027425 153 76 0
-0.042092 0.048939 -0.312526 153 76 0
0.439738 0.097038 0.462634 153 76 0
-0.085799 0.068362 -0.147940 153 76 0
0.419250 0.058947 0.336654 153 76 0
0.149252 -0.382999 -0.000518 153 0 76
-0.397558 0.073290 -0.037802 153 76 0
0.432742 0.082724 0.249489 153 76 0
0.127392 0.755761 -0.361068 153 0 76
0.424640 -0.027932 -0.093904 76 0 153
0.010493 -0.556779 -0.379772 76 153 0
-0.428193 0.609101 -0.270716 153 0 76
-0.047476 0.000642 -0.099338 153 76 0
-0.143502 0.199675 -0.305070 153 0 76
-0.094803 0.498556 -0.308106 153 0 76
0.051362 0.374453 -0.302622 153 0 76
-0.179572 -0.513022 0.348936 153 76 0
0.179921 0.083947 0.233437 153 76 0
-0.007726 0.032740 0.539891 153 76 0
-0.298166 -0.133179 0.031839 76 0 153
0.338927 0.108095 0.436363 153 76 0
0.092052 0.038034 0.374654 153 76 0
0.231422 0.087595 0.243905 153 76 0
0.336900 0.083152 -0.012037 153 76 0
0.046462 0.491441 -0.297703 153 0 76
0.303561 0.494473 -0.276651 153 0 76
-0.102745 -0.000043 -0.065917 153 76 0
0.095024 0.083789 0.290244 153 76 0
-0.227991 -0.010861 0.340057 76 0 153
-0.616477 -0.584535 -0.153760 76 153 0
0.127630 0.054299 -0.303151 153 76 0
0.164489 -0.484068 -0.030498 153 0 76
-0.488756 -0.519353 -0.129204 76 0 153
-0.073743 0.042006 0.529084 153 76 0
-0.424759 0.350488 -0.196610 153 0 76
0.003830 -0.542333 -0.569336 204 51 127
0.294408 0.086626 0.160590 153 76 0
0.206493 0.289687 -0.271557 153 0 76
0.095527 -0.365838 -0.002624 153 0 76
0.470983 0.253664 -0.191538 153 0 76
-0.083536 0.079872 0.214103 153 76 0
0.017438 0.008242 -0.176231 153 76 0
-0.277933 0.019572 0.545211 153 76 0
-0.115819 0.002466 0.555958 153 76 0
0.020625 0.028835 0.312740 153 76 0
0.274082 -0.520403 0.456371 76 153 0
0.190416 -0.432798 0.287538 76 0 153
0.034721 -0.423281 0.141298 76 153 0
-0.319017 0.106624 0.413273 153 76 0
-0.048911 0.013673 0.556329 153 76 0
0.308781 0.672997 -0.309479 153 0 76
-0.322756 0.031466 -0.101659 153 76 0
-0.232745 0.374903 -0.264377 153 0 76
0.412793 0.847173 -0.322590 153 0 76
-0.285255 0.707023 -0.306501 153 0 76
0.105803 -0.447681 0.141067 76 0 153
-0.453647 0.372508 -0.220318 153 0 76
-0.191680 0.022210 0.185113 153 76 0
0.136886 0.392953 -0.294790 153 0 76
-0.008134 -0.683247 -0.637423 0 127 127
0.087628 -0.153156 0.065913 76 0 153
0.441843 0.587996 -0.267122 153 0 76
0.052023 0.008412 0.157675 153 76 0
0.237544 0.013836 0.044020 153 76 0
-0.159098 0.769634 -0.357972 153 0 76
-0.465737 0.031649 0.013884 153 76 0
-0.015119 -0.638455 -0.596451 76 153 0
-0.400348 0.197144 -0.202938 153 0 76
0.173652 0.685656 -0.327899 153 0 76
-0.151360 0.034304 -0.291901 153 76 0
-0.025223 0.611419 -0.323550 153 0 76
-0.278289 0.018945 -0.265435 153 76 0
0.384143 0.695453 -0.277942 153 0 76
0.275307 0.047539 0.566323 153 76 0
0.535089 -0.561226 -0.098624 153 0 76
0.276438 0.542327 -0.291729 153 0 76
0.181761 0.024826 0.226765 153 76 0
0.037625 0.432358 -0.302763 153 0 76
-0.166958 0.850758 -0.375590 153 0 76
-0.143039 0.015834 0.166153 153 76 0
0.057995 0.010913 0.554375 153 76 0
0.166537 0.058184 0.557838 153 76 0
-0.371452 0.060606 0.559625 153 76 0
-0.276866 0.734263 -0.326565 153 0 76
0.112601 -0.127207 -0.030782 76 0 153
-0.179513 0.071433 -0.136429 153 76 0
0.272884 -0.136574 0.065014 76 0 153
-0.022996 -0.731992 -0.579241 76 153 0
0.112769 0.560590 -0.321015 153 0 76
-0.011287 0.553853 -0.323574 153 0 76
0.197564 0.029675 0.429540 76 0 153
-0.096157 0.699391 -0.350743 153 0 76
-0.375971 0.031672 -0.217289 153 76 0
0.300698 -0.133880 0.019550 76 0 153
0.462078 0.423605 -0.230719 153 0 76
0.162062 0.074416 0.067463 153 76 0
-0.212168 -0.543622 0.345336 153 76 0
0.047944 0.068407 -0.247273 153 76 0
-0.056158 0.072387 0.073120 153 76 0
0.178501 0.086264 0.276028 153 76 0
0.030111 -0.526390 -0.332741 204 51 127
0.653602 -0.662524 -0.167311 153 76 0
-0.202926 0.050990 0.486824 153 76 0
0.426841 -0.121739 0.079045 76 0 153
-0.203592 0.029503 0.240964 153 76 0
0.214839 -0.131316 0.111118 76 0 153
-0.060506 -0.471412 -0.011622 76 0 153
0.098165 0.055217 -0.306928 153 76 0
-0.142968 -0.495751 0.035685 76 0 153
-0.226560 0.038679 0.304997 153 76 0
-0.037581 0.067080 -0.182473 153 76 0
0.165859 0.431799 -0.293039 153 0 76
0.444524 0.670278 -0.276910 153 0 76
-0.021924 0.174301 -0.334173 153 0 76
-0.122869 0.078473 0.166343 153 76 0
-0.033047 0.019875 0.246789 153 76 0
-0.411234 -0.651316 0.539707 127 127 0
0.366245 -0.674208 0.527502 153 0 76
-0.267891 0.850536 -0.360372 153 0 76
0.028936 -0.003536 0.046842 153 76 0
-0.066093 0.006565 -0.150402 153 76 0
0.026048 -0.561396 -0.517192 204 51 127
-0.452848 0.054182 0.194485 153 76 0
-0.411648 -0.557821 -0.081360 76 0 153
0.005422 0.152519 -0.357761 153 0 76
0.046498 -0.002400 -0.072553 153 76 0
0.087467 -0.141136 0.117394 76 0 153
0.285876 -0.124692 0.110332 76 0 153
0.081173 -0.421219 0.089548 76 153 0
-0.285543 0.226431 -0.251165 153 0 76
0.395720 0.101708 0.308077 153 76 0
0.197029 -0.080693 -0.058908 76 0 153
-0.321369 0.104089 0.374002 153 76 0
0.429728 0.049750 0.102635 153 76 0
-0.312699 -0.119951 0.113300 76 0 153
0.310413 0.055072 0.442692 153 76 0
-0.247115 0.019845 0.577219 153 76 0
-0.017707 -0.471561 -0.279629 204 51 127
0.290853 0.080842 -0.180433 153 76 0
0.320658 0.073098 -0.228874 153 76 0
-0.359467 0.094484 0.188939 153 76 0
-0.398923 0.232173 -0.208305 153 0 76
-0.069437 0.071684 0.038602 153 76 0
0.009734 0.014201 0.204749 153 76 0
0.054047 -0.189116 0.045471 76 0 153
0.080347 0.067719 -0.134922 153 76 0
-0.387391 0.850570 -0.331875 153 0 76
-0.579407 -0.702721 -0.147015 76 153 0
0.478900 0.002323 0.012655 153 76 0
0.338729 -0.585220 0.518350 76 0 153
0.388148 0.077279 -0.177186 153 76 0
0.327412 -0.131526 0.040056 76 0 153
0.140154 0.525423 -0.298801 153 0 76
-0.264227 0.316921 -0.250149 153 0 76
-0.443873 0.514868 -0.220181 153 0 76
-0.321474 0.656190 -0.299960 153 0 76
-0.106881 0.020852 0.577500 153 76 0
0.314028 0.324775 -0.249053 153 0 76
-0.643189 -0.708350 -0.193141 0 127 127
-0.397015 0.065068 -0.143425 153 76 0
-0.285384 -0.567018 0.489008 153 76 0
0.346826 0.045980 0.223990 153 76 0
-0.287971 -0.118397 -0.019843 76 0 153
-0.233034 0.074953 -0.075638 153 76 0
0.288382 -0.567385 0.445362 76 153 0
0.381084 0.047762 0.169082 153 76 0
-0.396819 -0.706639 0.593944 127 127 0
-0.254040 -0.075276 0.260079 76 0 153
0.253021 0.034171 0.543387 153 76 0
-0.405019 -0.123941 0.061679 76 0 153
-0.338610 -0.129954 0.072505 76 0 153
-0.221618 0.041651 0.343597 153 76 0
-0.354863 -0.721296 0.520387 255 0 0
0.073963 0.071782 0.046512 153 76 0
-0.363846 -0.532051 -0.093723 76 153 0
0.138015 0.041598 0.396948 153 76 0
0.048902 -0.657240 -0.605028 153 0 76
-0.332859 -0.102523 0.160360 76 0 153
-0.448688 0.462079 -0.234827 153 0 76
0.449763 0.121511 -0.153104 153 0 76
0.029857 -0.470910 -0.247591 76 153 0
0.376956 0.790824 -0.309490 153 0 76
-0.208554 0.076024 0.036331 153 76 0
-0.409176 0.709507 -0.265314 153 0 76
0.240343 -0.093425 0.215405 76 0 153
-0.014982 -0.673585 -0.580755 0 127 127
-0.071548 0.015249 0.199669 153 76 0
0.440776 0.039254 0.328986 76 0 153
-0.131610 -0.412207 0.034576 76 153 0
-0.564400 -0.644607 -0.207189 76 153 0
0.569086 -0.657502 -0.168993 76 0 153
0.331194 0.087982 0.535957 153 76 0
-0.250491 -0.457135 -0.005633 76 153 0
0.266155 0.053190 0.486230 153 76 0
-0.267317 0.653898 -0.300375 153 0 76
0.135813 0.701556 -0.348616 153 0 76
0.434880 0.072109 0.202272 153 76 0
-0.188994 -0.432925 0.015105 76 0 153
-0.299588 0.090579 0.206543 153 76 0
-0.111260 0.791087 -0.370675 153 0 76
0.444664 0.170376 -0.162816 153 0 76
-0.165734 0.745934 -0.339913 153 0 76
-0.237666 -0.094977 0.210083 76 0 153
-0.134252 -0.520095 0.256676 153 76 0
-0.450703 0.422933 -0.223838 153 0 76
0.238860 0.049959 0.505889 153 76 0
0.251766 0.043151 -0.275917 153 76 0
0.266824 -0.457557 -0.007597 153 0 76
-0.578149 -0.557378 -0.157067 76 153 0
0.160199 0.004454 0.553028 153 76 0
-0.002673 -0.004624 0.032344 153 76 0
-0.094609 -0.397013 0.146031 153 76 0
0.082179 0.017378 -0.241239 153 76 0
0.420138 0.020479 0.540261 153 76 0
0.187598 0.099395 0.499868 153 76 0
-0.273572 -0.517360 0.398238 76 153 0
-0.446748 0.137553 -0.211304 153 0 76
0.073224 0.003893 -0.125788 153 76 0
0.342826 0.032306 -0.050971 153 76 0
0.568711 -0.708541 -0.142780 76 0 153
0.231568 0.092440 0.323782 153 76 0
0.507914 -0.508842 -0.094961 153 0 76
-0.244048 0.600403 -0.295542 153 0 76
0.030482 -0.440695 -0.176366 204 51 127
-0.251702 0.478142 -0.269881 153 0 76
-0.387241 -0.552797 0.564229 153 76 0
-0.303856 0.056829 0.457729 153 76 0
-0.055406 0.077364 0.184451 153 76 0
0.400110 -0.051336 -0.131887 76 0 153
-0.327307 0.091438 0.185265 153 76 0
0.149368 0.010335 0.130236 153 76 0
0.337910 -0.705616 0.575222 204 51 127
0.019538 0.017608 -0.308534 153 76 0
-0.392031 -0.103929 0.135668 76 0 153
-0.013899 0.078663 0.227340 153 76 0
-0.151826 0.087797 0.319534 153 76 0
-0.446049 0.059016 0.302490 153 76 0
0.431394 0.508938 -0.238588 153 0 76
-0.020957 0.090384 0.428924 153 76 0
-0.430730 0.787274 -0.288827 153 0 76
-0.051724 -0.495539 0.040686 76 153 0
-0.578930 -0.735881 -0.140686 76 153 0
-0.023366 -0.507047 -0.131041 204 51 127
0.393664 -0.675920 0.555255 153 0 76
0.378507 0.080336 -0.093791 153 76 0
0.256278 -0.016607 -0.085984 76 0 153
0.597346 -0.716068 -0.132421 76 0 153
-0.368142 0.014075 0.124101 76 0 153
0.151196 0.003245 -0.075978 153 76 0
0.032781 0.036807 0.370996 153 76 0
0.243696 -0.000669 0.370818 76 0 153
-0.215444 0.080005 0.132851 153 76 0
0.445592 0.034608 0.295791 76 0 153
-0.008891 0.001255 0.584036 153 76 0
-0.296100 0.533813 -0.283164 153 0 76
-0.132662 0.069981 -0.184908 153 76 0
0.030267 -0.484445 -0.002114 76 153 0
0.304407 -0.551624 0.498414 76 0 153
-0.240332 -0.121993 -0.019676 76 0 153
-0.445793 0.054718 0.504050 153 76 0
0.118237 -0.150531 0.071265 76 0 153
0.291585 0.078902 -0.054135 153 76 0
0.429203 0.075665 0.143646 153 76 0
-0.461983 0.217619 -0.187967 153 0 76
0.382444 0.059167 0.502582 153 76 0
-0.421065 0.052217 0.159527 153 76 0
0.114089 0.069234 -0.062689 153 76 0
0.239159 0.318075 -0.274954 153 0 76
-0.353259 0.447152 -0.239026 153 0 76
-0.201287 0.012153 -0.289885 153 76 0
0.386986 -0.487960 -0.049356 153 0 76
-0.313255 -0.569005 0.451502 153 76 0
0.631822 -0.714467 -0.186911 153 76 0
-0.270575 0.411596 -0.270449 153 0 76
-0.087714 0.004496 0.101193 153 76 0
-0.391372 0.096065 0.268243 153 76 0
-0.022185 -0.481600 -0.164816 204 51 127
0.231625 0.212046 -0.279890 153 0 76
0.107758 0.715158 -0.340925 153 0 76
0.395353 -0.116744 0.102799 76 0 153
-0.636948 -0.661309 -0.123911 0 127 127
0.238517 0.409176 -0.279888 153 0 76
-0.245657 0.103385 0.487298 153 76 0
-0.311413 -0.526693 0.519408 153 76 0
-0.020861 0.411287 -0.292175 153 0 76
-0.369867 -0.560544 0.535881 153 76 0
-0.000774 -0.503207 -0.454492 204 51 127
0.410641 0.181766 -0.225713 153 0 76
0.252725 -0.008940 0.059386 76 0 153
0.264044 0.020353 -0.107654 153 76 0
-0.432127 0.240216 -0.227662 153 0 76
0.061859 -0.551901 0.060723 76 153 0
0.003046 -0.541440 -0.303995 204 51 127
0.332437 -0.540835 0.465785 76 153 0
-0.102133 0.872515 -0.410791 153 0 76
-0.296349 0.081151 0.004638 153 76 0
-0.105778 0.342634 -0.285328 153 0 76
-0.191063 -0.484072 0.017614 76 0 153
-0.227298 0.682532 -0.315899 153 0 76
-0.069598 0.025205 0.276654 153 76 0
0.061073 0.037825 -0.304920 153 76 0
0.322981 0.038112 -0.218784 153 76 0
-0.158690 0.054190 0.561045 153 76 0
0.446277 -0.084387 -0.005264 76 0 153
0.381832 -0.549481 -0.067259 153 0 76
-0.307674 -0.087661 -0.076897 76 0 153
0.150739 0.014613 -0.297067 153 76 0
0.396411 0.052032 0.218214 153 76 0
0.318591 0.025249 -0.015063 153 76 0
-0.392292 0.314513 -0.203196 153 0 76
0.016902 0.041809 0.409721 153 76 0
-0.376037 -0.126522 0.015422 76 0 153
-0.039360 0.094836 0.499029 153 76 0
0.061878 -0.330122 0.062297 76 153 0
-0.323239 0.031477 0.424663 76 0 153
-0.262892 0.101488 0.417275 153 76 0
0.211619 -0.515064 -0.038854 153 0 76
-0.175372 0.029630 0.264147 153 76 0
0.209471 0.461045 -0.289603 153 0 76
-0.224699 0.074869 -0.172711 153 76 0
0.299266 0.569172 -0.292179 153 0 76
-0.197814 -0.125275 0.130539 76 0 153
0.312988 0.358900 -0.255081 153 0 76
0.606011 -0.631128 -0.164144 76 153 0
0.377850 0.583080 -0.260178 153 0 76
0.260221 0.017615 -0.075855 153 76 0
-0.344124 -0.454874 -0.053974 76 0 153
-0.334078 0.036918 -0.152372 153 76 0
0.034604 0.083261 0.298776 153 76 0
0.199283 0.780980 -0.357665 153 0 76
0.227492 0.065481 0.554025 153 76 0
-0.359353 0.081484 -0.098721 153 76 0
-0.558186 -0.640885 -0.153552 76 153 0
-0.224987 -0.006304 -0.158357 76 0 153
0.332705 0.032274 -0.135208 153 76 0
-0.471202 -0.017861 -0.062351 153 76 0
-0.125895 0.001347 0.047799 153 76 0
0.203696 0.031899 -0.282476 153 76 0
-0.260565 0.821322 -0.352038 153 0 76
-0.586068 -0.659630 -0.178019 127 0 127
-0.158997 -0.105238 0.159525 76 0 153
0.152008 -0.440987 0.033071 76 153 0
-0.327526 -0.582729 0.499149 153 76 0
0.412995 0.117542 -0.220682 153 0 76
-0.236819 -0.422081 -0.051228 76 0 153
-0.327700 0.101194 0.324626 153 76 0
-0.390351 0.510139 -0.250702 153 0 76
0.254472 0.038598 0.287420 153 76 0
0.570152 -0.652067 -0.128478 76 0 153
-0.116126 -0.374693 0.011638 76 153 0
0.475682 0.019804 0.073324 153 76 0
-0.314653 0.110649 0.490405 153 76 0
0.330578 0.709322 -0.297895 153 0 76
-0.389688 0.759859 -0.295391 153 0 76
0.000966 0.067083 -0.238306 153 76 0
-0.291291 -0.066084 -0.122395 76 0 153
-0.085428 0.404780 -0.299765 153 0 76
0.455918 0.535680 -0.249868 153 0 76
-0.080831 -0.406496 0.060988 76 153 0
0.079253 0.612195 -0.333929 153 0 76
0.373462 -0.486667 -0.091025 76 153 0
-0.055225 0.092286 0.448013 153 76 0
0.351086 0.093929 0.202255 153 76 0
-0.341748 0.038827 -0.210448 153 76 0
-0.217312 0.015987 0.578529 153 76 0
-0.136588 0.012635 -0.182684 153 76 0
0.465311 0.033283 0.346620 153 76 0
-0.427983 0.025655 -0.203828 153 76 0
0.305046 0.029220 0.098665 153 76 0
-0.387779 0.040146 -0.018179 153 76 0
-0.329110 -0.587343 0.532292 153 76 0
0.353389 0.269558 -0.225629 153 0 76
-0.055357 0.331064 -0.290215 153 0 76
-0.011697 -0.558960 0.000181 76 153 0
-0.111786 0.038312 -0.307970 153 76 0
-0.208997 -0.005274 0.415435 76 0 153
-0.217435 0.570234 -0.306352 153 0 76
0.414593 0.686152 -0.263387 153 0 76
0.327256 0.822797 -0.334218 153 0 76
-0.184038 0.011103 0.550845 153 76 0
0.485153 0.021173 -0.184224 153 76 0
0.059066 -0.272372 0.049837 76 153 0
0.314968 -0.086248 -0.080444 76 0 153
0.310751 0.242173 -0.254470 153 0 76
0.017769 0.695380 -0.354141 153 0 76
-0.109382 0.211961 -0.322163 153 0 76
-0.110093 0.018337 -0.236161 153 76 0
-0.337196 0.734187 -0.296708 153 0 76
0.021600 -0.290882 -0.000183 76 153 0
-0.099292 0.085334 0.304519 153 76 0
0.351579 -0.109275 0.137805 76 0 153
-0.092998 -0.411083 -0.008938 76 0 153
0.271375 0.176007 -0.277507 153 0 76
0.573126 -0.717731 -0.220634 76 0 153
-0.304603 0.035991 0.169292 153 76 0
-0.120262 0.387583 -0.296557 153 0 76
0.026302 -0.731344 -0.585610 153 0 76
-0.237587 0.076385 -0.006148 153 76 0
-0.001137 0.313732 -0.292652 153 0 76
0.145384 -0.438832 0.200353 76 153 0
0.322700 0.031578 0.069851 153 76 0
-0.008339 -0.517893 -0.185710 76 153 0
0.090002 -0.390326 0.123630 76 153 0
0.011029 -0.195027 0.074470 76 0 153
-0.642176 -0.690350 -0.144284 0 127 127
0.267817 -0.096687 0.199588 76 0 153
-0.174226 0.582921 -0.317004 153 0 76
-0.296297 0.082996 0.067950 153 76 0
-0.162175 0.071596 -0.050370 153 76 0
0.474247 0.045421 -0.027285 153 76 0
0.425137 -0.123263 0.008972 76 0 153
0.038114 0.073751 0.125878 153 76 0
-0.026554 0.799567 -0.378463 153 0 76
-0.567458 -0.741625 -0.188596 76 153 0
-0.271863 -0.053871 0.272086 76 0 153
0.049703 0.246690 -0.316724 153 0 76
-0.413051 -0.027388 -0.113002 76 0 153
0.353543 -0.544922 -0.087880 153 0 76
-0.316782 0.292749 -0.243516 153 0 76
-0.166254 0.073702 -0.231008 153 76 0
0.376092 0.426578 -0.244915 153 0 76
-0.050485 -0.553942 0.045267 76 153 0
0.042095 0.080233 0.242030 153 76 0
-0.028866 -0.515144 0.095597 76 153 0
0.010392 -0.422109 -0.215969 204 51 127
-0.203737 -0.069644 0.208328 76 0 153
-0.000018 0.081982 0.286555 153 76 0
0.272865 -0.054811 0.302759 76 0 153
0.375692 0.037620 -0.009956 153 76 0
-0.365369 0.042015 0.076879 153 76 0
-0.112867 -0.395007 0.199015 153 76 0
-0.395712 0.655873 -0.262400 153 0 76
-0.348042 -0.693449 0.497205 0 255 0
0.273461 0.597820 -0.291600 153 0 76
0.294948 0.034409 0.200299 153 76 0
-0.146402 0.172357 -0.317028 153 0 76
-0.033960 -0.292433 0.087979 76 153 0
-0.185592 -0.129540 -0.013079 76 0 153
0.324011 -0.577441 0.482779 76 0 153
-0.389235 -0.712932 0.527241 255 0 0
0.210121 0.025339 -0.228775 153 76 0
0.091693 0.068321 -0.204104 153 76 0
-0.104856 -0.002980 -0.005691 153 76 0
0.440918 0.048649 0.073717 153 76 0
0.152645 0.595580 -0.311408 153 0 76
-0.297165 -0.511867 0.489570 153 76 0
-0.175516 -0.093291 -0.051253 76 0 153
-0.213872 0.094901 0.375883 153 76 0
0.040541 -0.311919 0.093871 76 153 0
0.265538 -0.526582 -0.061601 153 0 76
0.409711 0.049807 0.134993 153 76 0
-0.025759 -0.473429 -0.045196 76 153 0
0.188354 -0.441295 0.318887 76 0 153
0.390742 0.022275 0.126927 76 0 153
0.004232 -0.383931 -0.103796 204 51 127
-0.220190 -0.062923 0.261129 76 0 153
0.385334 0.056921 0.351952 153 76 0
0.055735 0.566680 -0.325484 153 0 76
-0.473980 0.011362 -0.176501 153 76 0
-0.380898 0.103464 0.334013 153 76 0
-0.328144 -0.633184 0.542979 0 255 0
-0.320220 0.052654 0.379536 153 76 0
0.341424 -0.117118 -0.016959 76 0 153
0.371821 -0.094189 -0.055505 76 0 153
0.053770 -0.462284 -0.018479 204 51 127
-0.296465 -0.019750 -0.136354 76 0 153
-0.472414 0.042162 -0.187478 153 76 0
0.545186 -0.583822 -0.127848 153 0 76
0.362978 0.105778 0.513658 153 76 0
-0.030588 0.019457 0.578287 153 76 0
0.413712 0.083757 0.544950 153 76 0
-0.000669 -0.411366 -0.184702 204 51 127
0.170500 -0.145848 0.070761 76 0 153
0.082801 0.512294 -0.312393 153 0 76
-0.293886 0.039528 -0.242350 153 76 0
-0.002680 0.009691 -0.212192 153 76 0
-0.021054 0.001573 -0.117097 153 76 0
0.048476 -0.666563 -0.639261 153 0 76
0.202751 0.005342 -0.008172 153 76 0
0.432784 0.330081 -0.241714 153 0 76
-0.386781 0.084858 0.098571 153 76 0
0.241724 -0.112578 0.158395 76 0 153
-0.468324 0.027247 -0.045743 153 76 0
0.198982 0.731395 -0.345528 153 0 76
0.022382 -0.189085 0.032516 76 0 153
0.310996 0.446379 -0.266413 153 0 76
-0.436537 -0.060755 0.029004 76 0 153
-0.262952 0.022379 0.081224 153 76 0
0.394060 0.778136 -0.289137 153 0 76
-0.330967 -0.715811 0.588371 0 255 0
0.162932 0.091482 0.389805 153 76 0
0.292918 0.027453 0.574726 153 76 0
-0.169841 0.023402 -0.238526 153 76 0
-0.611054 -0.642040 -0.185828 127 0 127
-0.200346 0.632839 -0.322795 153 0 76
0.034828 0.067461 -0.102997 153 76 0
0.253703 -0.137935 0.009539 76 0 153
0.453703 -0.107474 0.020364 76 0 153
-0.421355 0.196747 -0.172114 153 0 76
0.196238 0.073058 -0.205285 153 76 0
0.363686 0.009789 0.549367 153 76 0
-0.365163 -0.092348 -0.058033 76 0 153
-0.643017 -0.682228 -0.203108 0 127 127
0.161451 0.073911 -0.265266 153 76 0
-0.445306 0.526032 -0.251477 153 0 76
-0.333655 0.054164 0.517754 153 76 0
0.186560 0.089512 0.323871 153 76 0
0.048674 0.067974 -0.079174 153 76 0
0.006184 -0.009050 -0.018619 153 76 0
0.212491 -0.508715 0.292183 76 0 153
0.199548 -0.510158 0.016132 76 153 0
0.373623 -0.551340 0.584546 76 0 153
0.439073 -0.102921 -0.029560 76 0 153
-0.462099 0.195267 -0.157716 153 0 76
0.033185 -0.503418 -0.194026 204 51 127
0.083222 -0.385905 0.067237 76 153 0
0.396896 0.303393 -0.216587 153 0 76
0.283434 -0.448691 -0.062818 153 0 76
-0.124072 0.016639 0.186074 153 76 0
0.336506 -0.070652 0.216508 76 0 153
0.240933 -0.037531 0.387010 76 0 153
0.482273 -0.023533 -0.148764 153 76 0
-0.107467 0.074757 0.093552 153 76 0
-0.210616 0.098535 0.441317 153 76 0
0.429715 -0.504848 -0.063831 153 0 76
-0.030409 -0.001632 0.063245 153 76 0
0.011903 -0.117730 -0.037461 76 0 153
0.302556 0.628421 -0.290457 153 0 76
-0.183705 0.382257 -0.286934 153 0 76
-0.345233 0.089174 0.130272 153 76 0
-0.230064 -0.434300 0.000312 76 0 153
0.567688 -0.736535 -0.167695 76 0 153
-0.297126 0.080416 -0.028644 153 76 0
0.420416 0.027802 -0.091635 153 76 0
-0.240664 -0.469846 0.379811 76 153 0
-0.356220 -0.639765 0.539463 255 0 0
-0.109085 0.292565 -0.289162 153 0 76
-0.209149 0.476257 -0.278260 153 0 76
-0.620625 -0.732717 -0.168059 0 127 127
