-0.297948 -0.003988 -0.204719 0.300000 0.000000 0.600000
-0.460754 0.312889 -0.311868 1.000000 0.000000 0.000000
0.099467 0.259867 -0.378132 1.000000 0.000000 0.000000
-0.533450 0.140961 0.204162 0.600000 0.000000 0.300000
-0.205697 -0.822861 0.188771 0.600000 0.000000 0.300000
0.136675 -0.191838 0.501377 0.600000 0.300000 0.000000
0.235590 0.090288 -0.238494 1.000000 0.000000 0.000000
0.452818 0.043005 0.088134 0.800000 0.200000 0.500000
0.327203 0.001840 0.521770 0.300000 0.000000 0.600000
0.223655 0.188924 -0.270748 1.000000 0.000000 0.000000
0.452818 0.230433 0.384769 0.800000 0.200000 0.500000
-0.015909 -0.037291 0.521770 0.300000 0.000000 0.600000
-0.325703 -0.132238 -0.198325 0.300000 0.000000 0.600000
-0.453363 -0.261826 0.210391 0.600000 0.300000 0.000000
-0.507683 0.349986 0.276282 0.600000 0.000000 0.300000
-0.533450 0.157725 -0.094273 0.600000 0.000000 0.300000
0.207784 0.349668 -0.393229 1.000000 0.000000 0.000000
0.010605 -0.135608 -0.236896 0.300000 0.000000 0.600000
-0.471372 -0.261826 0.228472 0.600000 0.300000 0.000000
-0.533450 0.252896 0.191227 0.600000 0.000000 0.300000
-0.247014 -0.821432 0.246218 0.600000 0.000000 0.300000
0.452818 0.234381 -0.208350 0.800000 0.200000 0.500000
-0.459098 0.006747 -0.212734 1.000000 0.000000 0.000000
0.347664 0.673865 -0.391405 1.000000 0.000000 0.000000
0.317233 -0.055947 -0.277026 1.000000 0.000000 0.000000
0.099601 0.286574 -0.315511 1.000000 0.000000 0.000000
0.408463 -0.130762 -0.127777 1.000000 0.000000 0.000000
0.217784 0.484402 -0.432639 1.000000 0.000000 0.000000
0.321792 0.390680 -0.384012 1.000000 0.000000 0.000000
-0.354206 0.296701 -0.276536 1.000000 0.000000 0.000000
-0.368254 -0.189866 -0.252865 0.600000 0.300000 0.000000
0.310312 -0.261826 0.180055 0.600000 0.300000 0.000000
0.420144 -0.085285 -0.168826 0.300000 0.000000 0.600000
-0.044488 0.348348 -0.337680 1.000000 0.000000 0.000000
0.370199 0.284706 -0.344985 1.000000 0.000000 0.000000
-0.049986 0.764698 -0.509576 1.000000 0.000000 0.000000
0.132528 -0.099119 -0.194811 1.000000 0.000000 0.000000
-0.149643 0.047406 0.331405 0.300000 0.000000 0.600000
-0.065756 0.047406 -0.043280 0.300000 0.000000 0.600000
0.525154 0.010725 0.163030 0.800000 0.200000 0.500000
-0.505029 -0.261234 -0.022912 0.600000 0.300000 0.000000
-0.146540 -0.261826 -0.042608 0.600000 0.300000 0.000000
-0.533450 0.180367 -0.240996 0.600000 0.000000 0.300000
0.024871 -0.191979 -0.074289 0.300000 0.000000 0.600000
-0.461785 -0.077793 -0.006234 0.600000 0.000000 0.300000
-0.026291 0.039814 -0.167296 0.300000 0.000000 0.600000
-0.344989 0.781083 -0.455951 1.000000 0.000000 0.000000
0.292983 0.047406 0.301431 0.300000 0.000000 0.600000
-0.533450 0.076606 0.313389 0.600000 0.000000 0.300000
0.267576 0.232486 -0.275418 1.000000 0.000000 0.000000
-0.533450 -0.102537 0.320384 0.600000 0.000000 0.300000
-0.461069 0.148660 0.262880 0.600000 0.000000 0.300000
-0.463603 0.018538 0.294770 0.300000 0.000000 0.600000
-0.533450 0.166991 0.237030 0.600000 0.000000 0.300000
0.010953 -0.779100 0.009908 0.300000 0.600000 0.000000
-0.020471 -0.267775 -0.044245 0.600000 0.000000 0.300000
-0.461465 0.114430 0.162569 0.600000 0.000000 0.300000
-0.014028 0.208094 -0.295702 1.000000 0.000000 0.000000
-0.459559 -0.147530 0.270930 0.600000 0.000000 0.300000
-0.533450 -0.021905 0.270135 0.600000 0.000000 0.300000
-0.019880 -0.620076 0.034733 0.600000 0.000000 0.300000
-0.460783 0.176510 -0.218322 0.600000 0.000000 0.300000
0.292289 0.531476 -0.361735 1.000000 0.000000 0.000000
-0.533450 0.077770 -0.066738 0.600000 0.000000 0.300000
-0.182372 -0.111644 -0.267054 1.000000 0.000000 0.000000
-0.041682 -0.387189 -0.025391 0.600000 0.000000 0.300000
0.237980 0.047406 -0.062972 0.300000 0.000000 0.600000
0.157299 0.047406 0.086764 0.300000 0.000000 0.600000
0.441104 0.218076 -0.243735 1.000000 0.000000 0.000000
-0.043920 -0.047546 -0.236166 0.300000 0.000000 0.600000
0.429212 0.032660 0.131056 0.300000 0.000000 0.600000
0.525486 0.130729 0.331028 0.800000 0.200000 0.500000
-0.396514 0.041584 -0.186943 1.000000 0.000000 0.000000
0.452818 -0.071203 0.019877 0.800000 0.200000 0.500000
-0.533450 0.057263 0.452795 0.600000 0.000000 0.300000
0.002520 -0.288536 -0.047070 0.600000 0.000000 0.300000
-0.533450 0.138078 0.010397 0.600000 0.000000 0.300000
-0.102604 0.045732 -0.314025 1.000000 0.000000 0.000000
-0.357259 0.351009 -0.367183 1.000000 0.000000 0.000000
0.453605 0.159655 0.491325 0.800000 0.200000 0.500000
0.185800 0.604082 -0.403084 1.000000 0.000000 0.000000
-0.055867 0.774357 -0.472033 1.000000 0.000000 0.000000
0.213811 -0.108126 -0.266327 1.000000 0.000000 0.000000
0.132945 0.034396 0.484927 0.300000 0.000000 0.600000
0.504829 0.070920 0.523028 0.800000 0.200000 0.500000
-0.194454 -0.261826 0.027631 0.600000 0.300000 0.000000
-0.086195 -0.191979 0.231971 0.300000 0.000000 0.600000
0.344452 -0.111469 -0.152291 1.000000 0.000000 0.000000
0.525486 0.172613 0.237390 0.800000 0.200000 0.500000
0.452818 0.219136 0.268489 0.800000 0.200000 0.500000
0.250027 -0.114602 -0.172943 1.000000 0.000000 0.000000
-0.181107 -0.191979 0.324019 0.300000 0.000000 0.600000
0.522850 0.335977 0.034730 0.800000 0.200000 0.500000
0.133492 -0.828597 0.140661 0.300000 0.600000 0.000000
0.518120 -0.251170 0.035423 0.800000 0.200000 0.500000
-0.258286 0.676590 -0.414637 1.000000 0.000000 0.000000
-0.192843 -0.189162 0.119135 0.600000 0.300000 0.000000
0.424281 -0.164129 -0.058493 0.300000 0.000000 0.600000
0.524795 0.320598 0.077105 0.800000 0.200000 0.500000
-0.523812 -0.253903 -0.144499 0.600000 0.300000 0.000000
-0.158137 -0.261826 -0.004259 0.600000 0.300000 0.000000
0.395223 -0.079195 -0.176966 0.300000 0.000000 0.600000
0.437419 -0.177247 0.075689 0.800000 0.200000 0.500000
-0.222740 -0.191979 -0.023645 0.300000 0.000000 0.600000
-0.185032 0.047406 0.357562 0.300000 0.000000 0.600000
0.312875 0.623933 -0.457195 1.000000 0.000000 0.000000
0.144881 0.047406 0.110560 0.300000 0.000000 0.600000
0.301462 0.031681 0.501222 0.300000 0.000000 0.600000
-0.443389 -0.160415 -0.042224 0.300000 0.000000 0.600000
-0.042283 -0.087616 0.521770 0.300000 0.000000 0.600000
0.180340 -0.185087 -0.128993 0.300000 0.000000 0.600000
-0.460783 0.261434 -0.126938 0.600000 0.000000 0.300000
-0.326551 0.047406 0.218200 0.300000 0.000000 0.600000
-0.059512 0.559902 -0.401889 1.000000 0.000000 0.000000
-0.301422 0.456127 -0.409882 1.000000 0.000000 0.000000
0.433544 -0.191979 -0.196986 1.000000 0.000000 0.000000
-0.131446 -0.137880 -0.183750 1.000000 0.000000 0.000000
0.173040 0.182713 -0.276180 1.000000 0.000000 0.000000
0.002765 -0.189398 0.014027 0.600000 0.300000 0.000000
0.288438 -0.093075 -0.205034 0.300000 0.000000 0.600000
-0.256673 0.034602 -0.302826 1.000000 0.000000 0.000000
-0.065085 0.047406 0.164006 0.300000 0.000000 0.600000
0.121017 0.301315 -0.388758 1.000000 0.000000 0.000000
0.065770 -0.219840 -0.342724 0.600000 0.300000 0.000000
-0.461704 0.170712 0.236714 0.600000 0.000000 0.300000
-0.183028 0.769899 -0.455306 1.000000 0.000000 0.000000
-0.151634 0.370366 -0.407627 1.000000 0.000000 0.000000
-0.436029 -0.162868 0.463457 0.300000 0.000000 0.600000
0.280255 0.527722 -0.434451 1.000000 0.000000 0.000000
0.221639 0.449380 -0.350624 1.000000 0.000000 0.000000
0.030061 -0.078218 0.521770 0.300000 0.000000 0.600000
0.455638 -0.146468 0.160473 0.300000 0.000000 0.600000
0.246172 -0.191979 0.356739 0.300000 0.000000 0.600000
-0.269219 0.777302 -0.468326 1.000000 0.000000 0.000000
-0.533450 0.100166 -0.090300 0.600000 0.000000 0.300000
0.452818 0.174715 0.403643 0.800000 0.200000 0.500000
0.525288 0.033379 -0.105728 0.800000 0.200000 0.500000
0.434843 -0.160609 0.250355 0.300000 0.000000 0.600000
-0.410076 -0.189267 0.208595 0.600000 0.300000 0.000000
0.090104 -0.261826 0.124838 0.600000 0.300000 0.000000
-0.046986 0.047406 0.326243 0.300000 0.000000 0.600000
-0.461355 0.081510 0.092989 0.600000 0.000000 0.300000
0.525486 0.084530 0.436225 0.800000 0.200000 0.500000
-0.533450 -0.069789 0.253158 0.600000 0.000000 0.300000
0.027277 -0.579648 0.024492 0.600000 0.000000 0.300000
0.340798 -0.818987 0.332825 0.300000 0.600000 0.000000
-0.352863 0.009069 -0.189004 1.000000 0.000000 0.000000
0.334356 0.021449 -0.291285 1.000000 0.000000 0.000000
0.525486 0.152680 0.434391 0.800000 0.200000 0.500000
-0.173563 -0.190160 -0.128001 0.600000 0.300000 0.000000
0.265127 0.123581 -0.242641 1.000000 0.000000 0.000000
-0.437121 0.114968 -0.196670 1.000000 0.000000 0.000000
0.451645 0.041844 -0.225170 1.000000 0.000000 0.000000
-0.039415 -0.191979 0.146709 0.300000 0.000000 0.600000
-0.460854 0.302841 -0.052551 0.600000 0.000000 0.300000
-0.523083 -0.254786 0.065276 0.600000 0.300000 0.000000
-0.347042 0.047406 0.343477 0.300000 0.000000 0.600000
-0.133222 -0.784972 -0.129553 0.500000 0.000000 0.500000
-0.078674 -0.261826 -0.085490 0.600000 0.300000 0.000000
0.455638 -0.133942 0.424119 0.300000 0.000000 0.600000
0.243091 -0.790484 0.238239 0.300000 0.600000 0.000000
-0.071339 0.047406 -0.000126 0.300000 0.000000 0.600000
0.157689 -0.191979 0.068455 0.300000 0.000000 0.600000
-0.049681 -0.261826 -0.188189 0.600000 0.300000 0.000000
0.325237 -0.261826 0.444989 0.600000 0.300000 0.000000
0.524872 -0.093432 0.486376 0.800000 0.200000 0.500000
0.116603 0.186764 -0.354623 1.000000 0.000000 0.000000
-0.233979 -0.261826 -0.065575 0.600000 0.300000 0.000000
-0.265487 -0.261826 -0.114906 0.600000 0.300000 0.000000
0.255707 -0.158224 0.508129 0.300000 0.000000 0.600000
0.315013 0.039079 0.456830 0.300000 0.000000 0.600000
0.153206 -0.060089 -0.204864 1.000000 0.000000 0.000000
0.051046 -0.147007 -0.235732 0.300000 0.000000 0.600000
-0.459945 0.490356 -0.363340 1.000000 0.000000 0.000000
-0.461156 -0.222366 0.524493 0.600000 0.300000 0.000000
-0.533450 -0.017464 0.349898 0.600000 0.000000 0.300000
0.369551 -0.112246 -0.145416 1.000000 0.000000 0.000000
0.198100 0.047406 0.053683 0.300000 0.000000 0.600000
0.379942 -0.052262 -0.181875 0.300000 0.000000 0.600000
-0.460783 0.155708 -0.113613 0.600000 0.000000 0.300000
-0.483732 0.122691 0.524120 0.600000 0.000000 0.300000
-0.461151 0.018122 0.097775 0.600000 0.000000 0.300000
-0.077590 -0.189721 0.024610 0.600000 0.300000 0.000000
0.427221 0.016796 0.521729 0.300000 0.000000 0.600000
-0.340006 0.122227 -0.226980 1.000000 0.000000 0.000000
-0.463603 0.003577 0.117876 0.300000 0.000000 0.600000
0.137968 0.228883 -0.365468 1.000000 0.000000 0.000000
-0.032831 -0.439587 -0.036538 0.600000 0.000000 0.300000
-0.037338 -0.545444 0.021760 0.600000 0.000000 0.300000
-0.282417 0.047406 0.194004 0.300000 0.000000 0.600000
0.524484 0.132566 -0.204773 0.800000 0.200000 0.500000
0.444226 -0.169181 0.463891 0.800000 0.200000 0.500000
-0.334808 -0.191979 0.401150 0.300000 0.000000 0.600000
-0.350907 0.751020 -0.488523 1.000000 0.000000 0.000000
-0.023611 -0.521752 -0.042944 0.600000 0.000000 0.300000
-0.320705 0.630575 -0.387413 1.000000 0.000000 0.000000
-0.143630 0.114368 -0.259771 1.000000 0.000000 0.000000
0.255237 -0.261492 0.493862 0.600000 0.300000 0.000000
0.403597 -0.261826 -0.254170 0.600000 0.300000 0.000000
-0.466832 0.323637 0.422133 0.600000 0.000000 0.300000
-0.010639 0.157818 -0.350742 1.000000 0.000000 0.000000
-0.264489 -0.005742 -0.290439 1.000000 0.000000 0.000000
-0.266742 -0.191979 0.369160 0.300000 0.000000 0.600000
0.213350 0.047454 -0.229013 1.000000 0.000000 0.000000
-0.143743 -0.826242 -0.152703 0.500000 0.000000 0.500000
0.521029 -0.241662 -0.304292 0.800000 0.200000 0.500000
0.088663 -0.191979 -0.015806 0.300000 0.000000 0.600000
0.497886 0.174533 0.524337 0.800000 0.200000 0.500000
0.354227 -0.261826 0.078011 0.600000 0.300000 0.000000
0.135456 -0.191979 0.313567 0.300000 0.000000 0.600000
0.430859 0.528895 -0.395450 1.000000 0.000000 0.000000
0.071473 0.046500 -0.244442 1.000000 0.000000 0.000000
0.452819 0.289176 0.233922 0.800000 0.200000 0.500000
-0.460783 -0.094820 0.444157 0.600000 0.000000 0.300000
0.324556 0.047406 0.171491 0.300000 0.000000 0.600000
0.524922 0.217328 -0.185153 0.800000 0.200000 0.500000
0.039812 -0.261826 -0.022984 0.600000 0.300000 0.000000
-0.089582 0.117673 -0.265459 1.000000 0.000000 0.000000
0.452824 0.276765 0.362340 0.800000 0.200000 0.500000
-0.395864 0.211027 -0.328797 1.000000 0.000000 0.000000
0.451696 -0.211278 -0.342819 0.800000 0.200000 0.500000
-0.506677 0.387464 -0.300643 0.600000 0.000000 0.300000
0.241089 0.555944 -0.451064 1.000000 0.000000 0.000000
-0.337813 -0.261826 0.384401 0.600000 0.300000 0.000000
0.452818 0.155662 0.005932 0.800000 0.200000 0.500000
0.482479 0.377022 -0.124668 0.800000 0.200000 0.500000
-0.394265 -0.191979 -0.173647 1.000000 0.000000 0.000000
0.404828 0.374483 -0.357518 1.000000 0.000000 0.000000
-0.223710 0.038429 -0.225909 1.000000 0.000000 0.000000
0.452818 0.048747 0.140607 0.800000 0.200000 0.500000
-0.127754 -0.164240 0.490081 0.300000 0.000000 0.600000
-0.203772 -0.161522 -0.198185 0.300000 0.000000 0.600000
-0.048623 -0.807943 -0.007455 0.600000 0.000000 0.300000
-0.458806 0.519924 -0.368561 1.000000 0.000000 0.000000
0.339377 0.630574 -0.452663 1.000000 0.000000 0.000000
0.429652 0.767121 -0.468636 1.000000 0.000000 0.000000
-0.533450 0.222560 0.370470 0.600000 0.000000 0.300000
-0.312046 -0.169697 -0.145082 1.000000 0.000000 0.000000
-0.461494 0.193440 0.293310 0.600000 0.000000 0.300000
-0.533450 0.006481 -0.182811 0.600000 0.000000 0.300000
-0.456194 -0.188287 -0.143419 1.000000 0.000000 0.000000
-0.365536 -0.091410 -0.267929 1.000000 0.000000 0.000000
0.057128 0.468225 -0.443829 1.000000 0.000000 0.000000
-0.027597 -0.189488 0.330170 0.600000 0.300000 0.000000
-0.533450 -0.023420 0.325364 0.600000 0.000000 0.300000
0.433110 -0.156504 0.509199 0.300000 0.000000 0.600000
-0.043604 -0.755081 0.010994 0.600000 0.000000 0.300000
-0.095582 -0.261826 -0.185512 0.600000 0.300000 0.000000
-0.410097 -0.189267 0.340725 0.600000 0.300000 0.000000
0.072150 -0.181402 0.438595 0.300000 0.000000 0.600000
-0.168938 0.047406 -0.101313 0.300000 0.000000 0.600000
-0.106854 -0.191979 0.371403 0.300000 0.000000 0.600000
0.525486 0.269678 -0.003560 0.800000 0.200000 0.500000
0.041178 -0.120749 -0.265625 1.000000 0.000000 0.000000
0.057873 -0.847800 0.051968 0.300000 0.600000 0.000000
0.307330 -0.163917 -0.169303 0.300000 0.000000 0.600000
0.261028 0.174128 -0.258922 1.000000 0.000000 0.000000
0.103968 -0.189162 -0.181860 0.600000 0.300000 0.000000
0.395675 -0.173665 -0.061109 0.300000 0.000000 0.600000
0.239044 0.047406 0.178005 0.300000 0.000000 0.600000
0.223435 0.404136 -0.407295 1.000000 0.000000 0.000000
-0.021739 -0.169147 -0.250836 1.000000 0.000000 0.000000
0.175814 0.045270 -0.121705 0.300000 0.000000 0.600000
-0.092226 0.156360 -0.277051 1.000000 0.000000 0.000000
0.481459 0.351411 0.260891 0.800000 0.200000 0.500000
0.045009 -0.802181 0.036048 0.300000 0.600000 0.000000
0.146480 -0.261826 -0.060436 0.600000 0.300000 0.000000
-0.157899 -0.072415 -0.278380 1.000000 0.000000 0.000000
-0.533450 0.003885 -0.120684 0.600000 0.000000 0.300000
-0.449301 -0.125194 -0.139625 1.000000 0.000000 0.000000
0.230892 0.047406 0.312963 0.300000 0.000000 0.600000
0.522169 -0.172539 -0.323551 0.800000 0.200000 0.500000
-0.095735 0.212107 -0.364751 1.000000 0.000000 0.000000
0.201664 -0.261576 -0.310014 0.600000 0.300000 0.000000
-0.077229 -0.092198 -0.235208 0.300000 0.000000 0.600000
-0.533450 -0.099475 0.099193 0.600000 0.000000 0.300000
0.444345 0.149088 -0.233504 1.000000 0.000000 0.000000
0.450870 -0.261826 0.390423 0.600000 0.300000 0.000000
0.222654 0.160300 -0.338247 1.000000 0.000000 0.000000
0.415555 -0.011361 -0.280592 1.000000 0.000000 0.000000
0.524484 0.166021 -0.269007 0.800000 0.200000 0.500000
-0.409065 -0.189258 0.368190 0.600000 0.300000 0.000000
-0.192900 0.047406 0.280868 0.300000 0.000000 0.600000
-0.533070 0.310231 0.078385 0.600000 0.000000 0.300000
0.304293 0.242107 -0.350949 1.000000 0.000000 0.000000
0.038665 -0.584044 -0.001833 0.600000 0.000000 0.300000
-0.015976 -0.189655 0.432379 0.600000 0.300000 0.000000
0.143143 0.180575 -0.279354 1.000000 0.000000 0.000000
0.252729 -0.261826 -0.216149 0.600000 0.300000 0.000000
0.350292 0.701550 -0.399169 1.000000 0.000000 0.000000
-0.180605 -0.138125 -0.259409 1.000000 0.000000 0.000000
-0.215403 -0.191979 -0.218282 1.000000 0.000000 0.000000
0.444477 0.488654 -0.337700 1.000000 0.000000 0.000000
0.240422 -0.180451 -0.246949 1.000000 0.000000 0.000000
0.524541 0.104743 -0.086696 0.800000 0.200000 0.500000
-0.272265 0.112153 -0.239318 1.000000 0.000000 0.000000
0.092314 -0.062593 -0.209452 1.000000 0.000000 0.000000
-0.054244 -0.173560 -0.249488 1.000000 0.000000 0.000000
0.364206 -0.191979 -0.127227 1.000000 0.000000 0.000000
0.027607 -0.193815 -0.325855 0.600000 0.300000 0.000000
-0.174182 0.512820 -0.378035 1.000000 0.000000 0.000000
-0.012263 -0.261826 0.047012 0.600000 0.300000 0.000000
0.419055 -0.188603 0.495983 0.600000 0.300000 0.000000
0.300406 -0.261826 0.225667 0.600000 0.300000 0.000000
-0.032867 0.151073 -0.277736 1.000000 0.000000 0.000000
0.261851 0.738696 -0.431262 1.000000 0.000000 0.000000
0.194505 0.047406 0.242325 0.300000 0.000000 0.600000
-0.239756 0.389803 -0.330787 1.000000 0.000000 0.000000
0.151010 0.700180 -0.507768 1.000000 0.000000 0.000000
-0.461783 0.241614 0.336168 0.600000 0.000000 0.300000
-0.345892 0.032893 0.493950 0.300000 0.000000 0.600000
-0.533450 -0.000849 0.482566 0.600000 0.000000 0.300000
0.141502 -0.174669 -0.166019 0.300000 0.000000 0.600000
0.525486 -0.150105 -0.020776 0.800000 0.200000 0.500000
0.164437 0.038703 -0.163169 0.300000 0.000000 0.600000
0.525486 -0.138923 -0.127417 0.800000 0.200000 0.500000
0.421339 -0.186194 0.381266 0.600000 0.300000 0.000000
0.455136 -0.067413 0.496855 0.300000 0.000000 0.600000
-0.423896 -0.261826 -0.072912 0.600000 0.300000 0.000000
-0.504700 0.104213 0.524438 0.600000 0.000000 0.300000
0.092030 0.518416 -0.457333 1.000000 0.000000 0.000000
0.077815 0.047406 -0.112074 0.300000 0.000000 0.600000
0.235256 -0.191979 -0.194261 1.000000 0.000000 0.000000
-0.060819 0.336492 -0.403816 1.000000 0.000000 0.000000
0.126160 -0.026156 0.521770 0.300000 0.000000 0.600000
0.525486 0.251629 0.165474 0.800000 0.200000 0.500000
-0.377539 0.701283 -0.466282 1.000000 0.000000 0.000000
0.314724 0.734670 -0.418696 1.000000 0.000000 0.000000
0.333628 -0.859938 0.325334 0.300000 0.600000 0.000000
0.525486 0.246458 0.421795 0.800000 0.200000 0.500000
0.456365 -0.065159 -0.326512 0.800000 0.200000 0.500000
0.453270 0.202903 0.488433 0.800000 0.200000 0.500000
0.030165 -0.189646 0.478241 0.600000 0.300000 0.000000
-0.461738 -0.043324 0.038115 0.600000 0.000000 0.300000
0.305158 -0.008364 -0.201624 0.300000 0.000000 0.600000
0.034508 -0.654164 -0.023480 0.600000 0.000000 0.300000
-0.460783 0.108433 -0.196562 0.600000 0.000000 0.300000
0.400156 -0.172171 0.305065 0.300000 0.000000 0.600000
0.486852 -0.261656 0.096483 0.600000 0.300000 0.000000
0.342653 0.103104 -0.308673 1.000000 0.000000 0.000000
0.403679 -0.189269 0.273315 0.600000 0.300000 0.000000
0.216680 -0.191979 -0.170782 1.000000 0.000000 0.000000
-0.305612 -0.860320 -0.305555 0.500000 0.000000 0.500000
0.287680 0.194395 -0.342856 1.000000 0.000000 0.000000
-0.425312 0.028253 0.521770 0.300000 0.000000 0.600000
-0.418538 -0.168699 -0.095427 0.300000 0.000000 0.600000
-0.462419 0.028453 0.016361 0.300000 0.000000 0.600000
-0.007932 -0.261826 -0.134166 0.600000 0.300000 0.000000
0.379832 -0.261826 0.269800 0.600000 0.300000 0.000000
-0.532346 -0.038193 -0.309764 0.600000 0.000000 0.300000
-0.461260 0.326074 -0.074915 0.600000 0.000000 0.300000
0.452818 0.019277 -0.270055 0.800000 0.200000 0.500000
0.037750 -0.033531 0.521770 0.300000 0.000000 0.600000
0.131752 -0.129608 -0.261867 1.000000 0.000000 0.000000
-0.456884 -0.161083 0.064693 0.600000 0.000000 0.300000
0.006240 -0.806444 -0.023165 0.000000 0.500000 0.500000
0.145389 0.475382 -0.439566 1.000000 0.000000 0.000000
-0.026752 -0.407399 -0.041203 0.600000 0.000000 0.300000
0.308272 0.047406 0.348383 0.300000 0.000000 0.600000
-0.403677 -0.173652 0.004507 0.300000 0.000000 0.600000
0.104406 -0.193648 -0.325573 0.600000 0.300000 0.000000
-0.227960 0.047406 0.325050 0.300000 0.000000 0.600000
-0.073617 0.761616 -0.519661 1.000000 0.000000 0.000000
-0.463603 -0.089261 -0.059320 0.300000 0.000000 0.600000
-0.201308 -0.080987 -0.222321 0.300000 0.000000 0.600000
0.448103 -0.161498 0.416647 0.800000 0.200000 0.500000
0.025737 -0.261826 0.250541 0.600000 0.300000 0.000000
-0.155974 -0.191979 0.091458 0.300000 0.000000 0.600000
0.363831 -0.261826 0.027964 0.600000 0.300000 0.000000
-0.163124 0.047406 0.006446 0.300000 0.000000 0.600000
-0.190358 0.047406 0.128548 0.300000 0.000000 0.600000
0.197460 0.047406 0.115866 0.300000 0.000000 0.600000
0.044320 0.004288 -0.303830 1.000000 0.000000 0.000000
-0.423097 0.499731 -0.391677 1.000000 0.000000 0.000000
-0.051798 -0.134018 0.521770 0.300000 0.000000 0.600000
0.398348 0.283127 -0.257547 1.000000 0.000000 0.000000
0.426727 0.523210 -0.321683 1.000000 0.000000 0.000000
-0.533450 -0.077542 -0.163197 0.600000 0.000000 0.300000
-0.152132 0.047406 -0.028197 0.300000 0.000000 0.600000
-0.460783 0.266505 -0.175040 0.600000 0.000000 0.300000
-0.305899 0.037741 -0.144696 0.300000 0.000000 0.600000
-0.466730 0.053290 -0.334525 0.600000 0.000000 0.300000
0.439807 0.101242 -0.203695 1.000000 0.000000 0.000000
-0.281835 0.453205 -0.341576 1.000000 0.000000 0.000000
-0.225774 0.615035 -0.401795 1.000000 0.000000 0.000000
-0.148549 -0.189164 0.462660 0.600000 0.300000 0.000000
-0.091351 0.047406 0.300426 0.300000 0.000000 0.600000
0.210278 0.025546 0.521770 0.300000 0.000000 0.600000
0.026152 -0.261826 0.058792 0.600000 0.300000 0.000000
-0.160100 0.047406 0.042150 0.300000 0.000000 0.600000
-0.461447 0.275013 0.491048 0.600000 0.000000 0.300000
-0.173645 0.764996 -0.508599 1.000000 0.000000 0.000000
0.145823 -0.261826 0.455113 0.600000 0.300000 0.000000
-0.183975 -0.053642 -0.224831 0.300000 0.000000 0.600000
0.006639 0.030961 -0.220775 0.300000 0.000000 0.600000
0.455638 -0.132192 0.233316 0.300000 0.000000 0.600000
-0.449452 -0.261826 0.007809 0.600000 0.300000 0.000000
-0.150558 -0.154793 -0.254596 1.000000 0.000000 0.000000
-0.366926 0.580415 -0.359863 1.000000 0.000000 0.000000
-0.533450 0.024558 -0.052228 0.600000 0.000000 0.300000
0.445896 0.352819 -0.340739 1.000000 0.000000 0.000000
0.407120 -0.261826 0.343993 0.600000 0.300000 0.000000
0.236776 -0.261826 -0.255084 0.600000 0.300000 0.000000
-0.227796 -0.165088 -0.183894 0.300000 0.000000 0.600000
0.102270 -0.801486 0.093309 0.300000 0.600000 0.000000
-0.350516 -0.261826 0.441105 0.600000 0.300000 0.000000
-0.533449 0.281931 0.269313 0.600000 0.000000 0.300000
0.508011 0.006934 -0.339970 0.800000 0.200000 0.500000
0.452818 0.268489 -0.084427 0.800000 0.200000 0.500000
0.452841 -0.133261 -0.078407 0.800000 0.200000 0.500000
-0.309693 0.018996 -0.202323 0.300000 0.000000 0.600000
-0.046973 0.535120 -0.394678 1.000000 0.000000 0.000000
-0.533450 0.245352 0.147181 0.600000 0.000000 0.300000
-0.444983 0.031359 0.384873 0.300000 0.000000 0.600000
0.177858 0.047406 0.309972 0.300000 0.000000 0.600000
0.004841 -0.259007 0.002164 0.600000 0.000000 0.300000
-0.329354 -0.261826 -0.238331 0.600000 0.300000 0.000000
-0.436773 -0.091126 -0.264370 1.000000 0.000000 0.000000
-0.213102 0.252189 -0.292761 1.000000 0.000000 0.000000
-0.267853 -0.857272 0.253321 0.600000 0.000000 0.300000
-0.461516 0.324226 0.043190 0.600000 0.000000 0.300000
0.524918 0.130999 -0.059165 0.800000 0.200000 0.500000
-0.460783 0.091279 -0.094250 0.600000 0.000000 0.300000
-0.463603 -0.000960 -0.093057 0.300000 0.000000 0.600000
-0.533450 0.270611 0.367756 0.600000 0.000000 0.300000
0.349741 0.587927 -0.436891 1.000000 0.000000 0.000000
0.147991 0.132053 -0.264109 1.000000 0.000000 0.000000
0.250984 0.003394 -0.208802 1.000000 0.000000 0.000000
0.452818 0.094897 0.089182 0.800000 0.200000 0.500000
-0.342675 -0.026561 -0.180811 1.000000 0.000000 0.000000
0.525486 -0.194548 0.275638 0.800000 0.200000 0.500000
-0.026907 -0.189824 -0.164213 0.600000 0.300000 0.000000
0.520341 0.329566 0.273056 0.800000 0.200000 0.500000
0.326995 0.244231 -0.265594 1.000000 0.000000 0.000000
0.074865 0.047406 -0.054880 0.300000 0.000000 0.600000
0.448698 -0.069110 -0.246752 1.000000 0.000000 0.000000
0.452818 0.285258 -0.226105 0.800000 0.200000 0.500000
0.148488 0.115732 -0.332701 1.000000 0.000000 0.000000
-0.439593 0.032257 0.176253 0.300000 0.000000 0.600000
-0.071812 -0.127177 -0.191594 1.000000 0.000000 0.000000
-0.343157 0.590413 -0.369204 1.000000 0.000000 0.000000
-0.533450 -0.099601 -0.073365 0.600000 0.000000 0.300000
-0.179520 -0.847121 0.162598 0.600000 0.000000 0.300000
-0.460785 0.207817 -0.288405 0.600000 0.000000 0.300000
-0.463603 -0.122332 0.297371 0.300000 0.000000 0.600000
0.525472 0.170815 -0.026992 0.800000 0.200000 0.500000
-0.145493 -0.261823 -0.289574 0.600000 0.300000 0.000000
-0.308781 0.660647 -0.470873 1.000000 0.000000 0.000000
0.452818 0.183979 0.080618 0.800000 0.200000 0.500000
-0.240706 -0.039281 0.521770 0.300000 0.000000 0.600000
-0.533450 0.100648 0.475602 0.600000 0.000000 0.300000
-0.080788 0.415809 -0.357248 1.000000 0.000000 0.000000
-0.455363 0.773416 -0.434491 1.000000 0.000000 0.000000
0.002377 -0.261826 0.122459 0.600000 0.300000 0.000000
-0.226883 -0.191979 0.348855 0.300000 0.000000 0.600000
-0.484796 -0.261824 0.316677 0.600000 0.300000 0.000000
-0.157819 -0.189162 0.348633 0.600000 0.300000 0.000000
-0.513874 -0.042930 -0.340872 0.600000 0.000000 0.300000
-0.125145 -0.191979 -0.223846 1.000000 0.000000 0.000000
-0.295229 0.197992 -0.260862 1.000000 0.000000 0.000000
0.205261 0.123537 -0.253432 1.000000 0.000000 0.000000
0.320375 0.047406 -0.019970 0.300000 0.000000 0.600000
-0.460783 0.092165 0.236852 0.600000 0.000000 0.300000
-0.409991 -0.189266 0.314324 0.600000 0.300000 0.000000
-0.430975 -0.261801 0.481903 0.600000 0.300000 0.000000
0.455638 0.018707 -0.013111 0.300000 0.000000 0.600000
0.525486 -0.141994 0.217683 0.800000 0.200000 0.500000
0.428493 0.355422 -0.270216 1.000000 0.000000 0.000000
0.203598 -0.219012 0.524369 0.600000 0.300000 0.000000
0.053791 0.047406 0.243536 0.300000 0.000000 0.600000
0.525486 -0.109946 0.139872 0.800000 0.200000 0.500000
0.383926 0.040207 -0.009171 0.300000 0.000000 0.600000
-0.168519 -0.191979 0.208057 0.300000 0.000000 0.600000
0.458746 -0.261816 0.469691 0.600000 0.300000 0.000000
0.188008 0.526860 -0.379169 1.000000 0.000000 0.000000
0.072851 -0.022040 -0.235104 0.300000 0.000000 0.600000
-0.413446 0.298629 -0.259954 1.000000 0.000000 0.000000
0.452818 -0.033494 -0.019385 0.800000 0.200000 0.500000
0.060307 0.037307 0.467463 0.300000 0.000000 0.600000
0.521267 -0.243134 0.198575 0.800000 0.200000 0.500000
-0.465297 0.324979 0.330467 0.600000 0.000000 0.300000
0.365231 0.198282 -0.325592 1.000000 0.000000 0.000000
-0.533329 0.325484 -0.288705 0.600000 0.000000 0.300000
0.106456 -0.261826 -0.111195 0.600000 0.300000 0.000000
-0.533450 -0.027704 0.401333 0.600000 0.000000 0.300000
0.244272 -0.261826 -0.091285 0.600000 0.300000 0.000000
0.423265 0.778626 -0.431226 1.000000 0.000000 0.000000
-0.272053 0.338367 -0.308482 1.000000 0.000000 0.000000
0.455638 0.011232 0.438534 0.300000 0.000000 0.600000
0.452818 0.049886 -0.048437 0.800000 0.200000 0.500000
-0.429751 -0.127250 -0.168290 0.300000 0.000000 0.600000
-0.101525 -0.821623 -0.110486 0.500000 0.000000 0.500000
-0.080213 0.030417 0.508806 0.300000 0.000000 0.600000
0.455638 -0.056288 -0.090524 0.300000 0.000000 0.600000
-0.381004 -0.052578 -0.162725 1.000000 0.000000 0.000000
0.525486 0.148478 0.286303 0.800000 0.200000 0.500000
0.279832 -0.792515 -0.288508 0.000000 0.500000 0.500000
-0.011460 -0.822521 -0.005465 0.600000 0.000000 0.300000
0.488257 0.363121 0.071158 0.800000 0.200000 0.500000
0.064143 0.047406 -0.013100 0.300000 0.000000 0.600000
0.023946 -0.191979 0.293112 0.300000 0.000000 0.600000
0.224838 0.703469 -0.498555 1.000000 0.000000 0.000000
0.524259 0.315178 0.205289 0.800000 0.200000 0.500000
0.021882 -0.619125 0.029071 0.600000 0.000000 0.300000
-0.159408 0.418406 -0.351306 1.000000 0.000000 0.000000
0.199579 -0.191979 0.406404 0.300000 0.000000 0.600000
0.338829 -0.176156 0.454333 0.300000 0.000000 0.600000
0.452818 0.249422 -0.177070 0.800000 0.200000 0.500000
0.430701 0.032412 -0.109152 0.300000 0.000000 0.600000
-0.327350 -0.036266 -0.197890 0.300000 0.000000 0.600000
-0.042333 -0.573668 -0.023818 0.600000 0.000000 0.300000
0.524796 0.219741 -0.301320 0.800000 0.200000 0.500000
-0.296799 0.759861 -0.503028 1.000000 0.000000 0.000000
0.452818 -0.017860 -0.119522 0.800000 0.200000 0.500000
-0.065389 0.607646 -0.416308 1.000000 0.000000 0.000000
0.033178 0.755331 -0.507462 1.000000 0.000000 0.000000
-0.011528 -0.189719 0.363185 0.600000 0.300000 0.000000
0.169430 0.473738 -0.365628 1.000000 0.000000 0.000000
0.452147 0.089759 -0.260247 1.000000 0.000000 0.000000
0.223299 -0.066247 -0.277548 1.000000 0.000000 0.000000
0.342946 -0.261826 0.212692 0.600000 0.300000 0.000000
0.464808 0.371418 -0.170358 0.800000 0.200000 0.500000
-0.030504 -0.189875 -0.215302 0.600000 0.300000 0.000000
0.525486 0.271549 -0.157645 0.800000 0.200000 0.500000
0.329575 0.038638 -0.130757 0.300000 0.000000 0.600000
-0.433159 -0.163825 0.062984 0.300000 0.000000 0.600000
0.391440 0.427741 -0.303991 1.000000 0.000000 0.000000
0.230873 -0.261822 0.464805 0.600000 0.300000 0.000000
0.285462 -0.191979 -0.187286 1.000000 0.000000 0.000000
-0.146273 -0.191979 0.061790 0.300000 0.000000 0.600000
-0.463603 -0.106627 0.385310 0.300000 0.000000 0.600000
0.408680 0.018303 -0.286624 1.000000 0.000000 0.000000
0.006117 -0.070921 -0.210445 1.000000 0.000000 0.000000
-0.400866 0.160423 -0.317221 1.000000 0.000000 0.000000
0.469291 0.367601 -0.049152 0.800000 0.200000 0.500000
0.033082 -0.501787 -0.026684 0.600000 0.000000 0.300000
0.204566 -0.189162 0.217136 0.600000 0.300000 0.000000
-0.202090 -0.213294 0.523556 0.600000 0.300000 0.000000
-0.360688 -0.261826 0.164698 0.600000 0.300000 0.000000
-0.151117 0.674575 -0.430298 1.000000 0.000000 0.000000
0.399409 -0.261826 -0.053327 0.600000 0.300000 0.000000
0.524286 -0.183917 0.491525 0.800000 0.200000 0.500000
-0.063989 -0.140914 -0.235589 0.300000 0.000000 0.600000
-0.222312 -0.096307 0.521770 0.300000 0.000000 0.600000
-0.533450 0.279481 -0.229598 0.600000 0.000000 0.300000
0.076951 -0.189162 -0.099275 0.600000 0.300000 0.000000
-0.455194 -0.045856 -0.183592 1.000000 0.000000 0.000000
-0.533450 -0.007493 0.173628 0.600000 0.000000 0.300000
-0.259992 -0.122155 -0.260571 1.000000 0.000000 0.000000
-0.452853 0.030048 0.215625 0.300000 0.000000 0.600000
0.525486 -0.049419 -0.026342 0.800000 0.200000 0.500000
-0.049824 -0.189169 0.340259 0.600000 0.300000 0.000000
0.455638 -0.101530 0.337744 0.300000 0.000000 0.600000
0.397906 -0.261826 0.058227 0.600000 0.300000 0.000000
0.052695 0.043906 -0.141743 0.300000 0.000000 0.600000
0.256067 0.551538 -0.375254 1.000000 0.000000 0.000000
0.525486 0.275656 0.179476 0.800000 0.200000 0.500000
0.250032 -0.064810 -0.188156 1.000000 0.000000 0.000000
-0.448210 0.365316 -0.344737 1.000000 0.000000 0.000000
0.472761 0.179001 0.522918 0.800000 0.200000 0.500000
-0.034847 -0.139119 -0.260012 1.000000 0.000000 0.000000
0.379606 0.242470 -0.251142 1.000000 0.000000 0.000000
-0.143733 -0.804757 0.126808 0.600000 0.000000 0.300000
-0.406104 0.021125 -0.287547 1.000000 0.000000 0.000000
0.398511 -0.044659 0.521770 0.300000 0.000000 0.600000
0.050431 -0.191979 0.044909 0.300000 0.000000 0.600000
-0.354139 0.046499 0.252429 0.300000 0.000000 0.600000
0.008088 -0.191979 0.248287 0.300000 0.000000 0.600000
0.263798 -0.189185 -0.286694 0.600000 0.300000 0.000000
-0.533450 -0.117118 0.461399 0.600000 0.000000 0.300000
-0.199149 -0.191979 0.080511 0.300000 0.000000 0.600000
-0.460783 0.226803 -0.023288 0.600000 0.000000 0.300000
0.055322 -0.261826 0.309995 0.600000 0.300000 0.000000
-0.461785 0.290874 0.306091 0.600000 0.000000 0.300000
0.274594 -0.182340 -0.120098 0.300000 0.000000 0.600000
0.017953 -0.027221 -0.236685 0.300000 0.000000 0.600000
0.452818 -0.119502 -0.148761 0.800000 0.200000 0.500000
-0.533450 -0.135918 0.045267 0.600000 0.000000 0.300000
-0.071566 -0.071489 -0.208617 1.000000 0.000000 0.000000
0.367850 -0.068807 0.521770 0.300000 0.000000 0.600000
0.452818 -0.114879 -0.240012 0.800000 0.200000 0.500000
-0.440674 0.400651 -0.284606 1.000000 0.000000 0.000000
0.245075 0.508955 -0.364485 1.000000 0.000000 0.000000
-0.009025 -0.217814 -0.342723 0.600000 0.300000 0.000000
0.525486 -0.187025 0.327701 0.800000 0.200000 0.500000
0.215442 -0.836689 0.222610 0.300000 0.600000 0.000000
0.173907 0.575284 -0.466763 1.000000 0.000000 0.000000
0.406607 0.495293 -0.319678 1.000000 0.000000 0.000000
-0.043391 -0.358904 0.011508 0.600000 0.000000 0.300000
-0.006240 0.047406 0.080728 0.300000 0.000000 0.600000
0.017687 0.729821 -0.454784 1.000000 0.000000 0.000000
0.349573 -0.261826 -0.103996 0.600000 0.300000 0.000000
0.377921 0.294031 -0.267342 1.000000 0.000000 0.000000
0.061947 -0.189162 -0.242874 0.600000 0.300000 0.000000
0.428187 -0.061681 -0.142802 1.000000 0.000000 0.000000
-0.420647 0.640578 -0.435513 1.000000 0.000000 0.000000
-0.460976 0.328041 -0.249595 0.600000 0.000000 0.300000
0.017553 0.019017 -0.308331 1.000000 0.000000 0.000000
0.097786 -0.190160 0.311863 0.600000 0.300000 0.000000
-0.460783 -0.017459 0.428188 0.600000 0.000000 0.300000
0.439906 0.292264 -0.331878 1.000000 0.000000 0.000000
-0.455693 -0.261826 0.459264 0.600000 0.300000 0.000000
-0.203979 0.455892 -0.356325 1.000000 0.000000 0.000000
-0.220129 -0.261819 -0.300074 0.600000 0.300000 0.000000
-0.460925 0.215461 0.054305 0.600000 0.000000 0.300000
0.390979 -0.134532 -0.255543 1.000000 0.000000 0.000000
0.260590 0.047406 0.164161 0.300000 0.000000 0.600000
0.219921 -0.191728 -0.318490 0.600000 0.300000 0.000000
-0.338611 -0.064618 -0.170257 1.000000 0.000000 0.000000
-0.279875 0.031432 -0.188959 0.300000 0.000000 0.600000
0.115638 -0.156773 -0.178656 1.000000 0.000000 0.000000
-0.107758 0.278547 -0.313042 1.000000 0.000000 0.000000
-0.533450 0.233220 -0.073164 0.600000 0.000000 0.300000
-0.209913 0.035719 -0.175827 0.300000 0.000000 0.600000
0.114148 -0.191979 0.112989 0.300000 0.000000 0.600000
-0.079792 0.042372 0.437073 0.300000 0.000000 0.600000
-0.425946 -0.187459 0.132021 0.600000 0.300000 0.000000
-0.533450 0.214480 0.131862 0.600000 0.000000 0.300000
-0.318383 0.413134 -0.321587 1.000000 0.000000 0.000000
-0.173604 -0.261826 -0.122317 0.600000 0.300000 0.000000
-0.527876 0.250368 0.512347 0.600000 0.000000 0.300000
-0.529348 0.065691 -0.325194 0.600000 0.000000 0.300000
-0.461812 -0.133731 -0.071902 0.600000 0.000000 0.300000
-0.381728 0.041901 0.308114 0.300000 0.000000 0.600000
-0.196780 0.028158 -0.307417 1.000000 0.000000 0.000000
-0.148870 0.214744 -0.361287 1.000000 0.000000 0.000000
0.237457 -0.119168 -0.263368 1.000000 0.000000 0.000000
0.452818 0.003856 0.220102 0.800000 0.200000 0.500000
-0.044908 -0.130927 -0.191223 1.000000 0.000000 0.000000
0.452818 0.124486 -0.225201 0.800000 0.200000 0.500000
-0.327718 -0.261826 0.016106 0.600000 0.300000 0.000000
0.246221 0.276017 -0.293076 1.000000 0.000000 0.000000
0.090560 0.111799 -0.334285 1.000000 0.000000 0.000000
0.448348 -0.160520 0.138955 0.800000 0.200000 0.500000
0.000351 -0.686686 0.037599 0.600000 0.000000 0.300000
-0.305969 -0.104379 0.521770 0.300000 0.000000 0.600000
-0.086798 0.564012 -0.472407 1.000000 0.000000 0.000000
-0.421876 -0.167586 -0.062216 0.300000 0.000000 0.600000
0.082766 0.367319 -0.411966 1.000000 0.000000 0.000000
0.040956 -0.261799 0.483527 0.600000 0.300000 0.000000
-0.069095 0.380253 -0.346720 1.000000 0.000000 0.000000
0.246657 -0.261826 0.253764 0.600000 0.300000 0.000000
-0.355120 0.046336 0.028816 0.300000 0.000000 0.600000
0.397938 0.786286 -0.438926 1.000000 0.000000 0.000000
0.230342 -0.038864 0.521770 0.300000 0.000000 0.600000
-0.378287 -0.261826 -0.040003 0.600000 0.300000 0.000000
-0.216034 -0.189162 0.054665 0.600000 0.300000 0.000000
0.291983 -0.191979 0.222570 0.300000 0.000000 0.600000
0.409793 0.102912 -0.198743 1.000000 0.000000 0.000000
0.452818 0.180706 -0.206455 0.800000 0.200000 0.500000
0.135052 -0.160257 -0.209975 0.300000 0.000000 0.600000
-0.394561 0.086700 -0.303848 1.000000 0.000000 0.000000
0.161218 0.047406 0.243472 0.300000 0.000000 0.600000
0.265248 -0.830027 0.256288 0.300000 0.600000 0.000000
-0.533450 0.206400 0.352011 0.600000 0.000000 0.300000
0.307196 -0.189162 -0.005332 0.600000 0.300000 0.000000
-0.463603 -0.081687 0.103592 0.300000 0.000000 0.600000
-0.533450 -0.069312 -0.250776 0.600000 0.000000 0.300000
0.525486 -0.189259 0.010345 0.800000 0.200000 0.500000
-0.463603 -0.018785 0.355844 0.300000 0.000000 0.600000
0.411478 0.035616 0.071161 0.300000 0.000000 0.600000
0.524011 -0.232037 0.392704 0.800000 0.200000 0.500000
-0.121939 -0.037826 0.521770 0.300000 0.000000 0.600000
-0.208722 0.296977 -0.307080 1.000000 0.000000 0.000000
-0.462103 0.346902 -0.196507 0.600000 0.000000 0.300000
-0.396538 0.615130 -0.434933 1.000000 0.000000 0.000000
0.525486 -0.192212 -0.052173 0.800000 0.200000 0.500000
0.302303 -0.261826 0.405270 0.600000 0.300000 0.000000
0.395063 -0.261826 0.303734 0.600000 0.300000 0.000000
-0.090155 -0.191979 0.320774 0.300000 0.000000 0.600000
0.520742 0.331390 0.230541 0.800000 0.200000 0.500000
0.237485 -0.002302 0.521770 0.300000 0.000000 0.600000
-0.298876 0.367583 -0.311938 1.000000 0.000000 0.000000
-0.263758 0.246970 -0.282247 1.000000 0.000000 0.000000
-0.366445 0.044448 0.182885 0.300000 0.000000 0.600000
-0.176949 -0.852924 -0.171357 0.500000 0.000000 0.500000
0.185960 -0.126046 -0.179966 1.000000 0.000000 0.000000
-0.318834 0.047406 0.385050 0.300000 0.000000 0.600000
0.516548 0.362583 -0.111368 0.800000 0.200000 0.500000
-0.201226 -0.024737 -0.209864 1.000000 0.000000 0.000000
0.328446 -0.815567 -0.330656 0.000000 0.500000 0.500000
0.029095 -0.288660 0.022123 0.600000 0.000000 0.300000
-0.007310 0.247453 -0.378131 1.000000 0.000000 0.000000
0.147658 -0.261826 0.227710 0.600000 0.300000 0.000000
-0.062204 0.543917 -0.467041 1.000000 0.000000 0.000000
0.277280 -0.261705 -0.306229 0.600000 0.300000 0.000000
0.525486 -0.026004 -0.062017 0.800000 0.200000 0.500000
-0.259822 -0.189162 0.341518 0.600000 0.300000 0.000000
0.195672 0.002305 -0.295915 1.000000 0.000000 0.000000
0.471322 -0.261825 -0.050054 0.600000 0.300000 0.000000
0.345466 0.046617 0.151685 0.300000 0.000000 0.600000
0.367024 0.043024 0.098301 0.300000 0.000000 0.600000
-0.094705 0.756943 -0.502186 1.000000 0.000000 0.000000
0.407595 -0.261826 -0.182122 0.600000 0.300000 0.000000
-0.128054 0.411106 -0.422116 1.000000 0.000000 0.000000
-0.453803 0.750736 -0.422340 1.000000 0.000000 0.000000
0.211159 -0.189212 -0.294618 0.600000 0.300000 0.000000
-0.212386 0.314644 -0.384710 1.000000 0.000000 0.000000
-0.146411 0.048340 -0.313244 1.000000 0.000000 0.000000
0.448480 0.620423 -0.417180 1.000000 0.000000 0.000000
-0.345956 0.043924 -0.300318 1.000000 0.000000 0.000000
0.345735 -0.064173 -0.166403 1.000000 0.000000 0.000000
0.159999 -0.191979 -0.235599 1.000000 0.000000 0.000000
-0.152657 -0.100173 -0.270366 1.000000 0.000000 0.000000
0.496033 0.365325 0.042752 0.800000 0.200000 0.500000
0.524959 0.056225 -0.258160 0.800000 0.200000 0.500000
-0.271418 0.039491 -0.141330 0.300000 0.000000 0.600000
-0.326659 0.163175 -0.243022 1.000000 0.000000 0.000000
-0.127829 0.207302 -0.289536 1.000000 0.000000 0.000000
-0.283834 -0.057030 -0.207598 0.300000 0.000000 0.600000
-0.463603 -0.127915 0.034652 0.300000 0.000000 0.600000
-0.290105 -0.066745 0.521770 0.300000 0.000000 0.600000
-0.002215 -0.812658 0.039869 0.600000 0.000000 0.300000
-0.141810 0.021845 -0.231658 1.000000 0.000000 0.000000
0.512385 0.335275 0.378576 0.800000 0.200000 0.500000
0.113763 0.010752 -0.302392 1.000000 0.000000 0.000000
-0.412547 -0.030172 -0.276766 1.000000 0.000000 0.000000
-0.460007 -0.152535 -0.319430 0.600000 0.000000 0.300000
-0.373323 -0.183770 0.114907 0.300000 0.000000 0.600000
-0.001819 -0.201415 0.518982 0.600000 0.300000 0.000000
0.400005 -0.189239 0.249458 0.600000 0.300000 0.000000
0.145631 -0.191979 0.142993 0.300000 0.000000 0.600000
-0.318077 0.081291 -0.309261 1.000000 0.000000 0.000000
-0.377216 -0.261826 -0.151237 0.600000 0.300000 0.000000
0.346232 0.046490 0.044528 0.300000 0.000000 0.600000
0.525486 -0.171182 0.256401 0.800000 0.200000 0.500000
0.270898 -0.056395 -0.208613 0.300000 0.000000 0.600000
0.226715 0.596541 -0.465611 1.000000 0.000000 0.000000
-0.106839 -0.783774 0.098494 0.600000 0.000000 0.300000
0.334093 0.047406 0.194133 0.300000 0.000000 0.600000
-0.533450 0.151585 -0.051993 0.600000 0.000000 0.300000
-0.491397 0.074548 -0.342699 0.600000 0.000000 0.300000
0.253906 -0.261826 0.071052 0.600000 0.300000 0.000000
-0.159990 -0.189162 0.166803 0.600000 0.300000 0.000000
-0.192599 -0.261826 0.255350 0.600000 0.300000 0.000000
-0.308931 -0.189162 -0.099678 0.600000 0.300000 0.000000
-0.185211 -0.191979 -0.188214 1.000000 0.000000 0.000000
0.199356 0.259165 -0.368314 1.000000 0.000000 0.000000
0.329795 -0.048608 0.521770 0.300000 0.000000 0.600000
0.282762 0.332250 -0.376833 1.000000 0.000000 0.000000
-0.533450 0.155931 -0.242879 0.600000 0.000000 0.300000
0.400172 0.477190 -0.389675 1.000000 0.000000 0.000000
-0.133047 -0.191979 0.166553 0.300000 0.000000 0.600000
-0.162466 0.042275 -0.142948 0.300000 0.000000 0.600000
0.126745 -0.191979 0.224991 0.300000 0.000000 0.600000
0.121109 0.332878 -0.327798 1.000000 0.000000 0.000000
0.175360 -0.065637 -0.224925 0.300000 0.000000 0.600000
-0.028254 -0.098007 -0.201761 1.000000 0.000000 0.000000
-0.143882 0.453782 -0.433786 1.000000 0.000000 0.000000
0.360034 -0.174221 -0.247471 1.000000 0.000000 0.000000
-0.187538 0.023731 -0.226656 1.000000 0.000000 0.000000
0.425780 0.592317 -0.343061 1.000000 0.000000 0.000000
-0.323588 -0.006529 -0.288243 1.000000 0.000000 0.000000
0.432560 0.004098 -0.283049 1.000000 0.000000 0.000000
0.032397 0.395879 -0.352322 1.000000 0.000000 0.000000
0.271392 0.248023 -0.358952 1.000000 0.000000 0.000000
0.136213 0.611882 -0.411742 1.000000 0.000000 0.000000
-0.401052 0.038681 0.215460 0.300000 0.000000 0.600000
0.106696 0.074436 -0.250077 1.000000 0.000000 0.000000
-0.357036 0.045358 0.404930 0.300000 0.000000 0.600000
0.303116 0.670848 -0.402112 1.000000 0.000000 0.000000
-0.392052 0.769383 -0.461475 1.000000 0.000000 0.000000
0.517850 -0.251494 -0.141257 0.800000 0.200000 0.500000
-0.369038 -0.189162 0.153278 0.600000 0.300000 0.000000
0.334987 0.540070 -0.426170 1.000000 0.000000 0.000000
0.328987 0.442109 -0.397824 1.000000 0.000000 0.000000
0.236294 -0.191979 0.401746 0.300000 0.000000 0.600000
-0.307820 0.531743 -0.360273 1.000000 0.000000 0.000000
-0.307788 -0.189162 0.356859 0.600000 0.300000 0.000000
-0.436214 0.530588 -0.323767 1.000000 0.000000 0.000000
0.137650 0.417240 -0.352144 1.000000 0.000000 0.000000
0.132581 -0.786175 -0.135083 0.000000 0.500000 0.500000
0.447855 0.312912 -0.295309 1.000000 0.000000 0.000000
0.399120 0.037675 0.168398 0.300000 0.000000 0.600000
-0.185161 -0.191979 0.247857 0.300000 0.000000 0.600000
0.525486 0.297320 0.134076 0.800000 0.200000 0.500000
0.031371 -0.190160 0.203365 0.600000 0.300000 0.000000
0.505647 0.334580 0.448330 0.800000 0.200000 0.500000
0.135179 0.022763 -0.231823 1.000000 0.000000 0.000000
0.062831 0.398530 -0.352256 1.000000 0.000000 0.000000
0.077731 0.761709 -0.486590 1.000000 0.000000 0.000000
-0.117632 -0.154104 0.520490 0.300000 0.000000 0.600000
0.111124 -0.261826 0.056062 0.600000 0.300000 0.000000
-0.363499 0.728145 -0.405909 1.000000 0.000000 0.000000
-0.341600 -0.167246 -0.249779 1.000000 0.000000 0.000000
-0.041704 -0.515916 0.015581 0.600000 0.000000 0.300000
-0.099711 -0.191979 -0.225466 1.000000 0.000000 0.000000
0.229206 0.047406 0.000186 0.300000 0.000000 0.600000
0.332957 0.047406 0.074743 0.300000 0.000000 0.600000
-0.269139 -0.191979 0.190020 0.300000 0.000000 0.600000
-0.242022 -0.096546 -0.216128 0.300000 0.000000 0.600000
-0.042789 -0.261826 -0.055722 0.600000 0.300000 0.000000
-0.533450 0.275469 -0.031958 0.600000 0.000000 0.300000
0.009133 0.547600 -0.399351 1.000000 0.000000 0.000000
-0.158204 -0.852378 -0.153192 0.500000 0.000000 0.500000
0.067052 0.556164 -0.400300 1.000000 0.000000 0.000000
-0.228400 0.354817 -0.393178 1.000000 0.000000 0.000000
-0.533450 0.072814 0.272667 0.600000 0.000000 0.300000
-0.080696 -0.143096 -0.258733 1.000000 0.000000 0.000000
0.525486 -0.076169 0.001910 0.800000 0.200000 0.500000
-0.425844 0.369490 -0.277556 1.000000 0.000000 0.000000
0.452853 -0.139942 0.378431 0.800000 0.200000 0.500000
-0.531305 0.111758 -0.316300 0.600000 0.000000 0.300000
0.152837 -0.261826 0.357398 0.600000 0.300000 0.000000
0.263297 -0.181172 0.439284 0.300000 0.000000 0.600000
0.166930 -0.191979 0.028705 0.300000 0.000000 0.600000
-0.447702 0.388635 -0.349693 1.000000 0.000000 0.000000
0.420697 -0.191979 -0.226073 1.000000 0.000000 0.000000
0.109960 0.036190 0.474165 0.300000 0.000000 0.600000
0.342374 -0.063415 -0.270006 1.000000 0.000000 0.000000
-0.117922 0.614843 -0.485246 1.000000 0.000000 0.000000
0.174678 0.115942 -0.255541 1.000000 0.000000 0.000000
0.361259 -0.851164 0.360477 0.300000 0.600000 0.000000
0.074161 0.041595 0.441730 0.300000 0.000000 0.600000
0.525486 -0.118789 -0.197851 0.800000 0.200000 0.500000
-0.296666 -0.261822 -0.291618 0.600000 0.300000 0.000000
-0.012432 -0.189412 0.079172 0.600000 0.300000 0.000000
0.521549 -0.242135 -0.255879 0.800000 0.200000 0.500000
0.401216 -0.261826 0.443539 0.600000 0.300000 0.000000
0.414091 -0.153633 -0.170803 0.300000 0.000000 0.600000
0.038537 0.047406 -0.096622 0.300000 0.000000 0.600000
0.095470 0.134303 -0.340641 1.000000 0.000000 0.000000
0.319562 0.410920 -0.318492 1.000000 0.000000 0.000000
0.524714 0.073232 -0.230295 0.800000 0.200000 0.500000
-0.128399 0.451940 -0.364237 1.000000 0.000000 0.000000
0.383582 -0.028739 -0.277057 1.000000 0.000000 0.000000
0.126470 -0.189162 -0.075191 0.600000 0.300000 0.000000
-0.533450 0.124191 0.165456 0.600000 0.000000 0.300000
0.525486 -0.155505 -0.212980 0.800000 0.200000 0.500000
0.448581 0.444123 -0.363252 1.000000 0.000000 0.000000
0.452818 -0.091667 0.091003 0.800000 0.200000 0.500000
0.525486 0.249076 -0.078134 0.800000 0.200000 0.500000
-0.065572 -0.175938 -0.176875 1.000000 0.000000 0.000000
0.524692 0.242920 -0.257912 0.800000 0.200000 0.500000
0.452818 0.234188 0.460434 0.800000 0.200000 0.500000
0.351169 -0.159378 -0.135875 1.000000 0.000000 0.000000
0.038913 0.345905 -0.336865 1.000000 0.000000 0.000000
-0.422477 -0.167386 0.099763 0.300000 0.000000 0.600000
0.303949 -0.261826 0.019972 0.600000 0.300000 0.000000
-0.455835 -0.005953 -0.259943 1.000000 0.000000 0.000000
-0.231824 0.220174 -0.356613 1.000000 0.000000 0.000000
0.158112 -0.120088 0.521770 0.300000 0.000000 0.600000
0.345428 0.456569 -0.325600 1.000000 0.000000 0.000000
0.294455 -0.261826 0.365400 0.600000 0.300000 0.000000
0.119174 0.047406 0.293267 0.300000 0.000000 0.600000
0.141567 0.000315 -0.229225 0.300000 0.000000 0.600000
0.196586 -0.191979 0.300552 0.300000 0.000000 0.600000
0.204663 -0.804503 0.211832 0.300000 0.600000 0.000000
-0.025846 0.044111 -0.141511 0.300000 0.000000 0.600000
0.427880 0.330927 -0.342528 1.000000 0.000000 0.000000
0.407923 0.662733 -0.370410 1.000000 0.000000 0.000000
0.070886 0.047277 -0.316150 1.000000 0.000000 0.000000
0.443194 -0.073706 -0.161574 1.000000 0.000000 0.000000
0.452822 -0.121571 0.475929 0.800000 0.200000 0.500000
0.314505 0.163989 -0.330208 1.000000 0.000000 0.000000
0.414137 -0.167511 0.124461 0.300000 0.000000 0.600000
-0.533450 0.072062 -0.191420 0.600000 0.000000 0.300000
0.135028 0.502478 -0.448742 1.000000 0.000000 0.000000
-0.255992 -0.189162 0.225004 0.600000 0.300000 0.000000
0.038323 -0.696937 0.000761 0.600000 0.000000 0.300000
-0.097440 0.047406 0.257402 0.300000 0.000000 0.600000
-0.022292 -0.383126 -0.043490 0.600000 0.000000 0.300000
0.430367 0.085892 -0.187709 1.000000 0.000000 0.000000
