ply
format ascii 1.0
element vertex 1271
property float x
property float y
property float z
property uchar red
property uchar green
property uchar blue
end_header
0.522667 0.113157 0.203521 204 51 127
-0.088706 0.042420 0.436782 76 0 153
0.199151 0.368503 -0.329168 255 0 0
-0.267038 -0.259008 0.068748 153 76 0
-0.530630 -0.171314 0.253236 153 0 76
-0.530630 0.211350 0.210069 153 0 76
0.433512 -0.055122 -0.271691 255 0 0
0.237914 -0.259008 0.246712 153 76 0
0.455639 0.308482 -0.305093 255 0 0
0.522667 0.225334 -0.290586 204 51 127
0.455639 0.270066 -0.024318 204 51 127
0.098940 0.654155 -0.427884 255 0 0
0.036637 0.527607 -0.392450 255 0 0
-0.032564 -0.001203 -0.231215 76 0 153
0.052412 -0.259008 0.349278 153 76 0
-0.463602 -0.189256 0.122053 76 0 153
-0.188390 -0.032964 -0.209209 255 0 0
0.372552 -0.259008 -0.150312 153 76 0
0.522667 -0.075100 0.159584 204 51 127
-0.097500 0.146055 -0.273445 255 0 0
0.080150 -0.060488 0.521771 76 0 153
0.379675 0.213828 -0.242372 255 0 0
0.015115 -0.191980 0.454518 153 76 0
0.522667 0.309702 -0.005365 204 51 127
0.235064 0.405724 -0.406096 255 0 0
0.006810 -0.191980 0.089262 76 0 153
0.522667 0.005120 0.500517 204 51 127
-0.209972 -0.803710 -0.204098 127 0 127
-0.415459 0.381837 -0.284720 255 0 0
-0.197455 0.518651 -0.447202 255 0 0
-0.525513 -0.109705 0.521771 153 0 76
0.462810 -0.165778 -0.337810 204 51 127
-0.400106 -0.040664 -0.177972 76 0 153
0.102480 -0.191980 0.341509 76 0 153
-0.392850 -0.177262 0.415322 76 0 153
-0.402774 -0.170066 -0.249104 255 0 0
-0.307205 0.655611 -0.469655 255 0 0
0.349229 0.045990 0.237340 76 0 153
-0.401002 -0.174545 -0.041732 76 0 153
-0.524559 0.345335 -0.335807 153 0 76
-0.176873 -0.081842 -0.275657 255 0 0
0.455639 0.070198 -0.010715 204 51 127
-0.530630 -0.051127 0.143745 153 0 76
0.038456 -0.528964 -0.009517 153 0 76
0.052686 -0.785285 0.058561 76 153 0
-0.433776 -0.191980 0.406787 153 76 0
-0.455644 -0.229340 0.521771 153 76 0
-0.370778 -0.191980 -0.132707 255 0 0
0.481190 0.131131 -0.340018 204 51 127
0.308861 0.256310 -0.274080 255 0 0
-0.454454 0.723429 -0.416176 255 0 0
0.187257 -0.259008 0.167649 153 76 0
-0.192745 -0.259008 0.111230 153 76 0
0.020191 -0.607437 -0.040126 153 0 76
-0.100664 0.034399 0.484906 76 0 153
-0.118086 -0.259008 0.163004 153 76 0
0.455639 -0.072668 -0.207966 204 51 127
-0.530630 0.162838 0.061568 153 0 76
-0.200547 -0.121436 -0.264226 255 0 0
-0.253253 0.525101 -0.440783 255 0 0
-0.530630 -0.029871 -0.280767 153 0 76
0.455639 0.045061 0.005273 204 51 127
0.522667 -0.011066 -0.182736 204 51 127
0.019645 -0.191980 0.490446 153 76 0
-0.463602 -0.096217 0.161905 76 0 153
0.393907 -0.096552 -0.142984 255 0 0
-0.463602 -0.118189 -0.282667 153 0 76
-0.463602 -0.015236 -0.315126 153 0 76
0.137494 -0.259008 -0.263777 153 76 0
-0.221663 -0.259008 0.397385 153 76 0
-0.401937 -0.213618 0.521771 153 76 0
0.121940 0.688902 -0.436511 255 0 0
-0.463602 -0.029151 0.127306 76 0 153
-0.060319 -0.183610 -0.145861 153 76 0
0.357611 0.044593 0.129968 76 0 153
0.522667 0.312506 0.147288 204 51 127
0.338192 0.584054 -0.438762 255 0 0
-0.469986 -0.187640 0.521771 153 0 76
0.522667 0.158517 -0.021106 204 51 127
0.522667 -0.233904 0.105828 204 51 127
0.263627 0.672104 -0.410552 255 0 0
0.422682 0.778795 -0.463439 255 0 0
-0.334889 0.047406 0.065102 76 0 153
0.029787 -0.191980 0.285234 76 0 153
-0.360003 -0.110342 -0.263397 255 0 0
0.455639 -0.089665 0.254870 204 51 127
-0.284285 -0.804366 -0.278410 127 0 127
0.001883 0.451116 -0.370078 255 0 0
-0.354047 0.046514 -0.074586 76 0 153
0.455930 0.320163 0.324034 204 51 127
0.522667 -0.223172 -0.013187 204 51 127
-0.226390 -0.223440 -0.340018 153 76 0
-0.049004 -0.191980 0.069439 76 0 153
-0.443882 0.031542 -0.090370 76 0 153
-0.350389 0.454223 -0.325677 255 0 0
-0.457467 -0.135493 -0.223136 255 0 0
0.081569 -0.008696 0.521771 76 0 153
0.255071 0.356723 -0.315930 255 0 0
-0.233798 -0.191980 0.462138 153 76 0
-0.012436 -0.552680 0.037057 153 0 76
-0.522439 0.324381 0.500608 153 0 76
0.455639 0.156408 0.022278 204 51 127
0.235897 0.264848 -0.366258 255 0 0
-0.014817 -0.582786 0.036744 153 0 76
-0.464999 0.350144 -0.066327 153 0 76
-0.417043 -0.191980 -0.203356 255 0 0
0.136108 -0.191980 -0.003700 153 76 0
0.045425 -0.058669 -0.213057 255 0 0
-0.090187 0.090788 -0.257191 255 0 0
0.455639 -0.057020 -0.316788 204 51 127
0.198352 -0.191980 -0.164737 153 76 0
0.037991 -0.281904 -0.013046 153 0 76
-0.020942 -0.280921 -0.044049 153 0 76
-0.295419 -0.259008 0.161523 153 76 0
-0.413987 0.307589 -0.345269 255 0 0
0.011825 -0.191980 0.044138 76 0 153
-0.316245 -0.191980 0.073085 76 0 153
0.031768 -0.191980 -0.268385 153 76 0
-0.358826 -0.259008 -0.274375 153 76 0
-0.212492 0.224329 -0.284336 255 0 0
-0.194107 -0.259008 -0.234030 153 76 0
-0.269310 0.409826 -0.330876 255 0 0
-0.530630 0.200712 -0.316847 153 0 76
0.401401 -0.171757 0.347162 76 0 153
0.522667 -0.218906 0.066270 204 51 127
0.230163 -0.115106 -0.216922 76 0 153
0.037848 -0.366748 0.004377 153 0 76
-0.006705 0.595951 -0.484538 255 0 0
-0.246613 0.047406 0.151002 76 0 153
0.092244 -0.191980 0.069602 76 0 153
-0.412847 -0.170596 0.165004 76 0 153
-0.512561 -0.209718 0.521771 153 0 76
-0.040325 -0.102369 -0.236269 76 0 153
0.011692 -0.621779 0.034826 153 0 76
-0.434691 -0.163315 -0.024674 76 0 153
0.522667 -0.122746 0.397123 204 51 127
-0.447151 0.030997 0.394688 76 0 153
0.455639 0.152131 0.084368 204 51 127
0.415884 -0.191980 0.058076 153 76 0
0.243415 -0.259008 0.499951 153 76 0
-0.229600 0.048367 -0.228092 255 0 0
-0.394235 -0.259008 -0.122540 153 76 0
-0.443200 0.031655 0.045885 76 0 153
0.455639 0.218174 0.178515 204 51 127
0.394335 0.681500 -0.453689 255 0 0
0.455639 -0.116972 0.385764 76 0 153
0.522667 -0.170082 0.503626 204 51 127
-0.530630 0.010640 -0.027493 153 0 76
-0.129122 0.047406 0.260890 76 0 153
0.364814 0.065775 -0.201064 255 0 0
0.398499 0.037778 0.046247 76 0 153
-0.151511 0.047406 0.170159 76 0 153
0.293270 0.127918 -0.238225 255 0 0
-0.530630 0.298121 0.374658 153 0 76
-0.530180 -0.242119 0.122638 153 0 76
0.396775 0.574776 -0.420434 255 0 0
0.455639 0.123627 0.455469 204 51 127
0.094491 -0.259008 -0.220979 153 76 0
-0.059604 0.047406 0.366089 76 0 153
0.436583 0.031431 0.195844 76 0 153
0.285168 -0.191980 -0.259113 255 0 0
-0.530630 -0.015655 0.083272 153 0 76
0.311352 0.043273 0.431663 76 0 153
0.056871 0.751102 -0.460158 255 0 0
-0.425322 -0.259008 0.404769 153 76 0
-0.530630 0.122118 -0.049699 153 0 76
0.455639 0.203315 0.411715 204 51 127
-0.525884 -0.252106 0.417534 153 0 76
-0.463602 0.300324 -0.175535 153 0 76
-0.339158 -0.259008 0.392005 153 76 0
-0.206638 -0.842870 0.204549 153 0 76
0.455639 0.198983 0.252918 204 51 127
0.147599 0.359205 -0.403905 255 0 0
0.292648 0.032407 0.496862 76 0 153
-0.175787 0.564729 -0.464419 255 0 0
0.522667 0.008185 -0.224851 204 51 127
0.365344 -0.183776 0.132879 76 0 153
0.455639 0.297646 0.195929 204 51 127
-0.033249 0.594827 -0.413316 255 0 0
0.052556 0.075095 -0.253724 255 0 0
-0.214330 0.552501 -0.384344 255 0 0
0.032123 -0.493937 0.018180 153 0 76
-0.530630 0.305380 0.167658 153 0 76
0.522667 0.023821 0.241049 204 51 127
-0.105933 0.604453 -0.483108 255 0 0
0.522667 -0.201328 -0.165556 204 51 127
0.406958 0.036369 0.360374 76 0 153
-0.307897 -0.859639 -0.315564 127 0 127
0.299112 -0.185394 0.426621 76 0 153
0.522667 -0.159629 -0.201902 204 51 127
-0.078091 0.464055 -0.372067 255 0 0
-0.358862 -0.259008 0.050930 153 76 0
0.024719 -0.191980 -0.033721 76 0 153
-0.130708 0.260746 -0.376384 255 0 0
0.522667 -0.037725 0.380831 204 51 127
-0.503377 0.367614 0.016191 153 0 76
0.522667 -0.061967 0.432458 204 51 127
-0.008755 -0.642753 0.037542 153 0 76
0.522667 0.336596 -0.002547 204 51 127
-0.214564 0.022247 0.521771 76 0 153
-0.328470 0.656319 -0.393225 255 0 0
-0.290748 -0.857463 0.275118 153 0 76
0.522667 0.281223 0.163128 204 51 127
0.020803 -0.545578 0.029901 153 0 76
0.455639 -0.137513 -0.313676 204 51 127
-0.215014 -0.259008 0.154123 153 76 0
-0.103274 -0.155874 -0.226614 76 0 153
0.329328 0.326033 -0.365485 255 0 0
0.212090 -0.854956 0.207085 76 153 0
-0.463602 -0.167878 -0.108684 153 0 76
0.522667 -0.070914 0.256979 204 51 127
0.464360 -0.098254 -0.340018 204 51 127
0.455639 0.058273 -0.292652 255 0 0
0.205997 0.306769 -0.381101 255 0 0
-0.279295 0.240125 -0.276986 255 0 0
-0.463602 0.306531 -0.215317 153 0 76
-0.260070 -0.007471 -0.290867 255 0 0
0.400830 0.053011 -0.293682 255 0 0
-0.148958 -0.191980 -0.108754 76 0 153
0.522667 -0.082627 -0.279147 204 51 127
0.152374 0.047406 -0.048365 76 0 153
-0.463602 -0.132499 -0.034092 153 0 76
-0.435423 0.032952 -0.021666 76 0 153
0.422209 0.203881 -0.321766 255 0 0
0.436635 -0.191980 0.120508 153 76 0
-0.045506 -0.762872 -0.016157 153 0 76
0.248969 0.054021 -0.224683 255 0 0
-0.173006 -0.259008 0.354652 153 76 0
0.379890 0.247036 -0.333454 255 0 0
0.519206 -0.250183 -0.281333 204 51 127
0.205116 0.220866 -0.356426 255 0 0
0.333714 -0.259008 0.029780 153 76 0
-0.500602 0.296680 0.521771 153 0 76
0.019673 0.396199 -0.422900 255 0 0
0.488137 -0.259008 -0.115814 153 76 0
0.401567 0.397809 -0.291537 255 0 0
0.010799 -0.790697 0.037269 153 0 76
0.198354 -0.168691 0.476732 76 0 153
0.522667 -0.176607 -0.083527 204 51 127
0.164923 0.047406 0.255423 76 0 153
-0.396259 0.039479 0.187795 76 0 153
0.522667 -0.130852 0.342682 204 51 127
-0.291288 -0.034916 -0.281449 255 0 0
0.522667 -0.092629 0.005282 204 51 127
0.376413 0.022187 -0.182808 255 0 0
0.197832 -0.259008 0.214604 153 76 0
-0.463602 -0.078340 0.031293 153 0 76
0.037611 -0.585063 0.006180 153 0 76
0.178690 -0.817359 -0.180778 0 127 127
-0.296000 0.060297 -0.304236 255 0 0
-0.192532 -0.259008 -0.110502 153 76 0
0.425010 -0.259008 -0.073029 153 76 0
-0.530630 0.244421 -0.124582 153 0 76
-0.444624 -0.158566 0.493347 76 0 153
-0.196276 -0.035500 -0.289037 255 0 0
-0.140535 -0.167326 -0.188906 76 0 153
-0.463602 0.027229 -0.187311 255 0 0
-0.467858 0.346100 0.091593 153 0 76
-0.530630 -0.073882 0.180769 153 0 76
0.183013 0.092040 -0.322418 255 0 0
0.212872 0.034769 0.482689 76 0 153
-0.238176 0.444362 -0.418605 255 0 0
0.067616 -0.191980 0.505306 153 76 0
0.494540 0.008857 -0.340018 204 51 127
-0.317986 0.047406 -0.024552 76 0 153
0.273305 0.232408 -0.274226 255 0 0
-0.237388 -0.079285 -0.275580 255 0 0
-0.463602 -0.076544 0.300289 153 0 76
-0.036337 0.662650 -0.433951 255 0 0
-0.184660 0.047406 0.210275 76 0 153
-0.482320 0.373684 -0.115976 153 0 76
0.522667 0.282271 0.069033 204 51 127
0.455639 0.185572 0.019800 204 51 127
-0.507919 -0.193871 -0.340018 153 0 76
-0.230740 0.228893 -0.359104 255 0 0
-0.463602 -0.115930 0.450951 76 0 153
0.278764 -0.191980 -0.314480 153 76 0
0.296260 -0.258432 0.507503 153 76 0
-0.530630 -0.228226 0.342540 153 0 76
-0.207524 -0.259008 -0.071904 153 76 0
0.018291 0.392289 -0.351631 255 0 0
-0.463602 -0.056057 -0.020428 76 0 153
0.001227 0.252273 -0.309339 255 0 0
0.042671 0.038294 0.461538 76 0 153
0.147747 -0.810897 0.153621 76 153 0
0.407500 -0.259008 0.443357 153 76 0
0.522667 0.298776 0.495758 204 51 127
-0.415450 -0.169728 -0.073779 76 0 153
0.136185 0.562077 -0.466853 255 0 0
0.082091 0.045437 0.418682 76 0 153
0.267013 0.047406 -0.090055 76 0 153
0.522667 -0.180786 0.166752 204 51 127
-0.024982 0.280974 -0.388118 255 0 0
-0.295521 -0.259008 -0.284282 153 76 0
0.390874 -0.175266 0.219277 76 0 153
0.062437 -0.191980 0.301030 153 76 0
0.522667 0.222600 -0.230607 204 51 127
0.279638 0.047406 0.223762 76 0 153
-0.299717 -0.136260 -0.157813 255 0 0
-0.025565 -0.768814 0.034451 153 0 76
-0.145265 0.771959 -0.461017 255 0 0
-0.366594 -0.191980 0.182316 76 0 153
-0.463602 -0.083853 -0.202048 153 0 76
-0.463602 0.092840 0.478590 153 0 76
0.110300 -0.817494 0.116175 76 153 0
-0.487138 -0.081254 0.521771 153 0 76
-0.103492 0.767972 -0.498859 255 0 0
0.156782 -0.191980 0.311637 76 0 153
-0.530630 -0.070862 0.385108 153 0 76
0.452820 0.274342 -0.308358 255 0 0
-0.463602 0.016689 -0.077578 76 0 153
-0.337110 -0.861126 0.333822 153 0 76
-0.530630 0.075104 -0.066455 153 0 76
-0.476850 0.373647 -0.167571 153 0 76
0.332826 -0.259008 -0.159943 153 76 0
0.286421 0.027394 -0.208907 76 0 153
0.023409 -0.501010 -0.037657 153 0 76
0.522667 0.071904 0.420964 204 51 127
-0.460958 0.417201 -0.348216 255 0 0
0.410165 -0.259008 0.359884 153 76 0
-0.418822 -0.247325 -0.340018 153 76 0
0.295385 0.690473 -0.409686 255 0 0
0.157022 -0.191980 -0.224949 255 0 0
0.297691 0.323219 -0.296999 255 0 0
-0.052305 -0.191980 0.014023 76 0 153
0.455639 0.038697 -0.077745 204 51 127
-0.154089 0.047406 0.243602 76 0 153
0.377098 -0.244795 -0.340018 153 76 0
-0.119830 -0.034848 -0.216236 255 0 0
-0.463602 -0.163049 -0.144624 153 0 76
-0.045763 -0.511529 0.004744 153 0 76
-0.264929 0.047406 0.124027 76 0 153
0.522667 0.292379 0.439495 204 51 127
-0.032336 0.092753 -0.259931 255 0 0
-0.094869 -0.259008 -0.269838 153 76 0
0.455639 0.198596 0.350390 204 51 127
0.119301 -0.144056 -0.257695 255 0 0
-0.040943 -0.185908 0.425082 76 0 153
-0.328970 -0.218400 0.521771 153 76 0
0.439555 0.030936 -0.039636 76 0 153
-0.107556 -0.191980 0.009199 153 76 0
-0.342296 -0.191980 0.420144 76 0 153
0.179730 -0.083727 -0.272864 255 0 0
-0.530630 0.297500 -0.283201 153 0 76
0.308312 -0.259008 0.191759 153 76 0
0.458490 0.231693 0.511686 204 51 127
0.182289 0.409381 -0.414857 255 0 0
0.087624 -0.055740 -0.211951 255 0 0
-0.154638 0.530092 -0.385845 255 0 0
0.360701 0.001266 -0.283159 255 0 0
0.522667 -0.214027 0.123538 204 51 127
-0.126301 -0.786909 0.124213 153 0 76
-0.530630 -0.049590 -0.145083 153 0 76
0.424252 -0.191980 -0.049601 153 76 0
-0.463602 0.119429 0.233393 153 0 76
-0.170232 -0.191980 0.248763 76 0 153
0.089336 -0.808875 -0.104966 0 127 127
-0.046043 -0.648384 -0.012372 153 0 76
0.522667 -0.020977 0.429427 204 51 127
0.265212 -0.259008 -0.008099 153 76 0
0.204632 -0.191980 0.283840 76 0 153
-0.530630 -0.079561 0.071469 153 0 76
0.294017 0.110891 -0.321602 255 0 0
-0.483986 -0.259008 0.445172 153 76 0
-0.232496 -0.058351 -0.195064 255 0 0
0.468387 0.333614 0.428203 204 51 127
0.292421 -0.858847 -0.294509 0 127 127
0.448126 -0.259008 0.063186 153 76 0
-0.530630 0.284599 0.116441 153 0 76
-0.530630 -0.051111 0.098013 153 0 76
-0.291296 0.190344 -0.259327 255 0 0
-0.223099 -0.191980 -0.303615 153 76 0
0.014482 -0.259008 0.506038 153 76 0
0.522667 0.019402 0.410905 204 51 127
-0.343465 0.785759 -0.432325 255 0 0
0.043573 -0.803893 -0.045662 0 127 127
-0.247416 0.211079 -0.274614 255 0 0
0.522667 0.244561 0.039256 204 51 127
-0.395012 -0.259008 0.319346 153 76 0
0.253448 0.287180 -0.371916 255 0 0
-0.288194 -0.259008 -0.312997 153 76 0
0.522667 0.079041 -0.095885 204 51 127
0.522667 -0.102365 0.065724 204 51 127
-0.067081 0.331347 -0.331834 255 0 0
-0.530630 -0.039306 -0.243014 153 0 76
-0.415683 -0.169643 0.445326 76 0 153
-0.463602 0.174300 0.473383 153 0 76
-0.377103 -0.259008 -0.094056 153 76 0
0.002325 0.319430 -0.400123 255 0 0
-0.519459 -0.257115 0.364561 153 76 0
0.339780 -0.191980 -0.237912 255 0 0
0.254015 0.533173 -0.370061 255 0 0
-0.530626 -0.239879 0.463593 153 0 76
0.455639 -0.172889 0.271977 76 0 153
-0.005282 0.307837 -0.326430 255 0 0
0.522667 0.004071 0.347447 204 51 127
0.059052 0.047406 -0.037074 76 0 153
0.319866 0.047406 0.296816 76 0 153
0.153182 -0.030736 -0.213835 255 0 0
0.284986 0.168246 -0.337137 255 0 0
-0.397102 -0.067398 -0.271856 255 0 0
0.362628 0.716139 -0.472659 255 0 0
0.187566 -0.141958 -0.223157 76 0 153
-0.290883 -0.227767 0.521771 153 76 0
0.388680 -0.065515 -0.179103 76 0 153
-0.463602 -0.096177 0.011755 76 0 153
-0.493159 0.169004 -0.340018 153 0 76
0.455639 0.256966 0.229709 204 51 127
0.375515 -0.191980 0.469008 153 76 0
-0.384077 0.144203 -0.222039 255 0 0
0.353225 -0.848514 -0.368855 0 127 127
-0.456101 0.495832 -0.352145 255 0 0
0.452836 0.223937 -0.292755 255 0 0
-0.415159 0.707578 -0.384350 255 0 0
0.051297 0.040373 -0.162985 76 0 153
0.091484 0.047406 0.094478 76 0 153
-0.118822 0.043699 0.429105 76 0 153
0.017105 -0.191980 0.231250 153 76 0
0.522667 -0.069141 0.386547 204 51 127
0.148248 -0.118872 -0.187414 255 0 0
0.047473 -0.155984 -0.228913 76 0 153
0.345192 -0.259008 0.332371 153 76 0
0.522667 0.100195 -0.004276 204 51 127
0.455639 -0.037277 0.060502 204 51 127
0.350617 -0.053084 -0.272106 255 0 0
0.522667 0.173123 -0.188946 204 51 127
-0.530630 0.123813 0.030526 153 0 76
-0.528417 0.350312 -0.026745 153 0 76
-0.246600 0.511520 -0.366582 255 0 0
-0.266969 0.047406 0.281485 76 0 153
-0.530630 -0.188970 -0.302812 153 0 76
-0.243378 -0.191980 0.033188 76 0 153
0.522667 0.051003 0.122413 204 51 127
0.110719 0.194123 -0.286299 255 0 0
0.522667 0.188858 0.186823 204 51 127
0.397751 0.158315 -0.219605 255 0 0
-0.156069 -0.070675 -0.228658 76 0 153
-0.530630 -0.041908 0.040768 153 0 76
-0.361309 -0.230241 -0.340018 153 76 0
-0.505795 0.056689 0.521771 153 0 76
-0.448500 0.201919 -0.315645 255 0 0
0.454869 -0.019077 0.498895 76 0 153
-0.530630 0.329293 -0.180869 153 0 76
0.221534 -0.259008 -0.230597 153 76 0
-0.012804 0.218927 -0.299046 255 0 0
0.207311 -0.258245 -0.326092 153 76 0
-0.001994 -0.592570 -0.047664 153 0 76
0.211546 -0.794604 0.217420 76 153 0
0.171059 -0.259008 -0.213205 153 76 0
-0.183525 0.047406 0.276930 76 0 153
0.142128 -0.259008 0.347436 153 76 0
-0.530630 -0.221086 -0.096860 153 0 76
-0.260860 -0.792032 0.258694 153 0 76
-0.500496 0.371450 -0.036255 153 0 76
-0.097215 -0.259008 -0.030937 153 76 0
0.455639 -0.039069 0.155020 76 0 153
-0.530630 0.013741 0.179967 153 0 76
0.471270 -0.259008 0.313674 153 76 0
-0.032278 -0.259008 0.126513 153 76 0
-0.411822 -0.259008 0.057694 153 76 0
-0.444247 0.768037 -0.399288 255 0 0
-0.078051 -0.259008 0.128382 153 76 0
0.331327 -0.191980 0.479803 153 76 0
-0.196841 -0.191980 0.505702 153 76 0
0.172436 -0.062922 0.521771 76 0 153
0.455639 0.097354 0.321364 204 51 127
0.151178 0.208546 -0.359497 255 0 0
0.485880 0.384767 -0.339406 204 51 127
0.210491 -0.795605 -0.212579 0 127 127
-0.033585 0.390657 -0.421035 255 0 0
0.406254 -0.191980 0.493541 153 76 0
-0.244007 0.780194 -0.458037 255 0 0
-0.139522 -0.039985 0.521771 76 0 153
0.212588 -0.191980 -0.130204 76 0 153
-0.403062 0.515514 -0.402769 255 0 0
0.248052 -0.163517 0.492253 76 0 153
-0.148544 0.047406 -0.086857 76 0 153
-0.463602 0.304606 0.454896 153 0 76
-0.093181 -0.167282 -0.193137 76 0 153
0.522667 -0.149257 0.483332 204 51 127
0.329096 -0.860976 -0.338601 0 127 127
0.233858 -0.076703 0.521771 76 0 153
-0.388729 -0.178635 0.336996 76 0 153
0.522667 -0.203414 -0.225345 204 51 127
-0.367125 0.277440 -0.349686 255 0 0
0.254533 0.603353 -0.462808 255 0 0
0.171508 0.041192 -0.309396 255 0 0
-0.530630 -0.128539 0.194650 153 0 76
0.095752 0.311114 -0.393895 255 0 0
0.455639 0.174978 -0.028264 204 51 127
0.455639 0.029117 -0.175563 204 51 127
-0.272771 0.028413 -0.208887 255 0 0
-0.408296 -0.125026 -0.175297 76 0 153
-0.285393 -0.259008 0.105392 153 76 0
-0.244087 0.047406 0.393735 76 0 153
-0.424149 -0.259008 0.465754 153 76 0
0.274748 0.457668 -0.414169 255 0 0
-0.310222 0.440323 -0.331848 255 0 0
0.315445 -0.259008 0.065155 153 76 0
0.201044 -0.029574 -0.207259 255 0 0
-0.347719 0.145481 -0.232045 255 0 0
0.522667 0.145885 -0.256930 204 51 127
0.513129 -0.256024 0.151826 153 76 0
-0.375866 0.624422 -0.443239 255 0 0
0.187996 0.047406 0.350400 76 0 153
0.231983 -0.259008 0.441451 153 76 0
-0.078876 0.757588 -0.527204 255 0 0
-0.039987 0.252192 -0.379014 255 0 0
0.024379 0.166692 -0.282523 255 0 0
0.108568 -0.259008 0.189546 153 76 0
-0.530630 0.224589 -0.267187 153 0 76
0.522667 0.278018 -0.224822 204 51 127
0.291281 0.542196 -0.436625 255 0 0
-0.485665 0.116698 0.521771 153 0 76
-0.017152 -0.693218 0.035863 153 0 76
-0.160687 -0.083656 0.521771 76 0 153
0.455639 0.161234 0.448197 204 51 127
0.302781 -0.132238 -0.156793 255 0 0
-0.530630 0.175348 0.114807 153 0 76
-0.450305 -0.259008 0.378230 153 76 0
0.006983 -0.040248 -0.290222 255 0 0
0.455639 0.241730 0.131320 204 51 127
0.193746 0.665422 -0.420676 255 0 0
0.143174 0.498698 -0.446882 255 0 0
-0.098190 -0.191980 -0.271529 153 76 0
0.126688 -0.259008 0.282104 153 76 0
0.522667 0.131197 -0.038916 204 51 127
-0.190368 -0.191980 -0.263186 153 76 0
0.402154 0.482096 -0.390527 255 0 0
0.137420 0.047406 0.030338 76 0 153
-0.343837 -0.130108 0.521771 76 0 153
0.103876 -0.259008 -0.087651 153 76 0
-0.096305 0.661608 -0.431079 255 0 0
-0.463602 -0.008066 0.423359 153 0 76
0.225983 0.047406 -0.012315 76 0 153
0.338541 0.047406 -0.043582 76 0 153
-0.530630 -0.138593 -0.221474 153 0 76
-0.069873 -0.259008 0.319621 153 76 0
-0.340112 0.503361 -0.415703 255 0 0
0.455639 0.192012 -0.007578 204 51 127
-0.274913 -0.191980 -0.140701 153 76 0
-0.479921 -0.259008 -0.298404 153 76 0
0.106532 0.047406 0.277766 76 0 153
0.199277 -0.191980 0.069013 153 76 0
-0.463602 0.089986 0.333872 153 0 76
-0.245866 -0.852925 0.243777 153 0 76
0.114890 0.263651 -0.377939 255 0 0
-0.396558 0.218013 -0.330039 255 0 0
-0.426183 -0.191980 -0.082382 153 76 0
-0.206272 -0.789693 0.204184 153 0 76
-0.195025 -0.183460 -0.132952 153 76 0
0.001070 -0.461581 -0.047261 153 0 76
-0.024063 0.520289 -0.460919 255 0 0
-0.463602 0.000524 0.132705 76 0 153
-0.487009 0.335152 0.488330 153 0 76
-0.241920 0.308547 -0.305517 255 0 0
0.347443 0.188247 -0.243080 255 0 0
0.522667 -0.082653 -0.224137 204 51 127
-0.530630 -0.134702 -0.102904 153 0 76
-0.355741 -0.259008 -0.241136 153 76 0
0.107489 0.031162 -0.214666 76 0 153
0.455639 -0.005426 0.148260 204 51 127
-0.223019 -0.191980 0.487224 153 76 0
-0.007072 0.059495 -0.320699 255 0 0
0.015350 0.047406 0.177981 76 0 153
0.495744 0.351628 0.255517 204 51 127
0.134763 0.628326 -0.487219 255 0 0
-0.009448 0.015561 -0.237003 255 0 0
0.371881 -0.191980 -0.154883 153 76 0
-0.463602 0.071077 -0.294751 153 0 76
-0.463602 -0.063619 -0.275006 153 0 76
-0.013810 -0.094158 -0.273749 255 0 0
0.522667 0.346653 -0.282096 204 51 127
0.408664 0.574456 -0.343195 255 0 0
0.375778 0.298032 -0.346726 255 0 0
0.455639 0.245090 0.086694 204 51 127
-0.077769 0.698312 -0.443655 255 0 0
-0.463602 0.248662 -0.192618 153 0 76
0.281774 0.047406 0.162522 76 0 153
0.328998 0.162887 -0.326525 255 0 0
0.162144 0.698848 -0.435466 255 0 0
-0.437256 -0.191980 -0.319868 153 76 0
-0.200021 0.718226 -0.437055 255 0 0
-0.494889 -0.259008 0.255709 153 76 0
-0.009021 -0.143703 -0.188351 255 0 0
-0.172633 -0.259008 0.190356 153 76 0
-0.269550 -0.191980 -0.315066 153 76 0
0.455639 0.139656 -0.102840 204 51 127
-0.463602 -0.086797 0.264887 153 0 76
0.097822 0.066875 -0.320120 255 0 0
-0.330054 0.038081 0.462813 76 0 153
-0.215499 -0.259008 0.243201 153 76 0
-0.280409 0.047406 0.315877 76 0 153
-0.463602 0.120050 0.203763 153 0 76
-0.360006 -0.191980 0.266421 76 0 153
0.238427 0.047406 0.013597 76 0 153
0.522667 0.015618 0.201380 204 51 127
-0.263732 -0.259008 0.267550 153 76 0
0.430391 -0.162094 0.418774 76 0 153
0.495474 -0.023338 0.521771 204 51 127
0.259221 0.047406 0.146800 76 0 153
0.332144 -0.259008 0.128589 153 76 0
0.326141 -0.198866 -0.337289 153 76 0
-0.246740 -0.799475 -0.240866 127 0 127
0.455639 -0.189999 0.427824 204 51 127
-0.530630 0.265036 0.246997 153 0 76
-0.098423 -0.017735 -0.233647 76 0 153
-0.282705 -0.259008 -0.231465 153 76 0
-0.519423 0.003792 0.521771 153 0 76
0.448761 -0.129343 -0.231273 255 0 0
-0.530630 0.220499 0.161338 153 0 76
0.455639 -0.081129 0.224276 204 51 127
0.292916 -0.191980 0.376528 76 0 153
-0.446851 0.210858 -0.234106 255 0 0
-0.277332 -0.259008 0.400472 153 76 0
0.455639 0.280064 0.142729 204 51 127
0.418529 -0.259008 0.287413 153 76 0
-0.046521 -0.333617 -0.001014 153 0 76
0.522667 0.237667 0.170654 204 51 127
-0.530630 0.193973 -0.141249 153 0 76
0.290611 -0.259008 -0.162141 153 76 0
0.117225 -0.259008 0.442267 153 76 0
0.022169 -0.191980 -0.302811 153 76 0
-0.337383 0.024904 -0.295765 255 0 0
0.206598 -0.259008 -0.187343 153 76 0
-0.180281 0.339649 -0.396009 255 0 0
-0.000058 -0.520559 0.037654 153 0 76
0.144352 -0.221343 0.521771 153 76 0
-0.397614 -0.175674 0.221195 76 0 153
-0.463602 0.191225 -0.116218 153 0 76
0.455639 -0.027851 -0.207327 255 0 0
-0.004588 -0.259008 0.452278 153 76 0
-0.463602 -0.129302 0.174060 76 0 153
-0.463602 -0.010092 0.179138 76 0 153
0.455639 0.076218 0.464440 204 51 127
0.522667 -0.065856 -0.202046 204 51 127
-0.452175 -0.224886 -0.340018 153 76 0
-0.078203 0.283429 -0.316872 255 0 0
-0.463602 0.266054 0.235754 153 0 76
-0.457811 -0.044312 -0.192825 255 0 0
-0.468520 -0.259008 -0.101131 153 76 0
0.448071 0.029517 0.115337 76 0 153
0.264165 -0.191980 0.467130 153 76 0
0.075773 0.036608 0.471654 76 0 153
-0.530630 0.105904 0.390059 153 0 76
-0.025330 -0.138709 0.521771 76 0 153
0.522667 0.294072 0.019327 204 51 127
0.317530 0.397953 -0.387195 255 0 0
0.522667 0.295956 0.324654 204 51 127
0.075307 0.408770 -0.425139 255 0 0
0.249336 -0.070061 -0.186694 255 0 0
-0.463602 0.074755 0.236828 153 0 76
-0.016534 -0.259008 -0.094051 153 76 0
0.320236 -0.191980 0.014378 76 0 153
-0.375162 0.486228 -0.401199 255 0 0
0.522667 0.045366 -0.210202 204 51 127
-0.463602 -0.084688 -0.230819 255 0 0
-0.257705 -0.163244 0.493072 76 0 153
0.432417 -0.161419 0.326225 76 0 153
-0.312795 -0.794266 -0.306952 127 0 127
0.287066 -0.259008 -0.131479 153 76 0
0.006150 -0.226602 0.521771 153 76 0
0.037363 -0.259008 0.320564 153 76 0
0.283315 0.047406 0.317044 76 0 153
0.472190 0.070877 -0.340018 204 51 127
0.269398 0.047406 -0.033251 76 0 153
-0.113123 -0.065286 -0.207517 255 0 0
-0.466059 -0.032615 0.513950 153 0 76
0.161894 -0.259008 0.001563 153 76 0
0.441531 -0.093880 -0.149839 76 0 153
-0.079335 0.004409 -0.303218 255 0 0
-0.463602 0.294704 0.099917 153 0 76
-0.199223 -0.259008 0.449453 153 76 0
0.516696 0.369716 -0.216586 204 51 127
-0.463602 0.263022 0.448481 153 0 76
0.149954 0.005215 -0.225182 76 0 153
-0.397847 -0.162835 -0.149691 76 0 153
0.027267 0.123219 -0.269157 255 0 0
0.518900 0.338216 0.196705 204 51 127
-0.530630 0.096247 0.057026 153 0 76
-0.278017 -0.857932 -0.273308 127 0 127
0.522667 0.183049 0.246174 204 51 127
-0.287806 -0.191980 0.466691 153 76 0
-0.373079 -0.259008 0.096755 153 76 0
0.136956 -0.130202 -0.229623 76 0 153
-0.223856 -0.191980 0.321319 76 0 153
0.265409 0.040535 0.448094 76 0 153
0.455639 0.214328 -0.061206 204 51 127
-0.155230 0.344681 -0.399557 255 0 0
0.071219 -0.259008 0.061293 153 76 0
-0.160601 0.245341 -0.298271 255 0 0
0.434703 0.743601 -0.390487 255 0 0
-0.002551 0.642391 -0.428651 255 0 0
0.371660 -0.116553 -0.259198 255 0 0
0.145313 0.228519 -0.293816 255 0 0
0.464461 -0.259008 0.227999 153 76 0
0.118527 0.040860 0.446139 76 0 153
0.173505 0.047406 0.000297 76 0 153
0.219418 0.708764 -0.430201 255 0 0
0.416627 0.695106 -0.377459 255 0 0
-0.154151 0.036733 -0.177750 76 0 153
0.319582 0.003479 0.521771 76 0 153
0.455639 -0.171472 -0.091928 76 0 153
-0.530630 0.067564 -0.213692 153 0 76
-0.341926 -0.191980 0.218262 153 76 0
-0.078458 0.537226 -0.394414 255 0 0
0.343847 -0.191980 -0.269191 153 76 0
-0.214798 -0.099995 -0.184903 255 0 0
0.002293 -0.191980 0.202322 76 0 153
-0.273189 0.047406 0.378282 76 0 153
-0.450040 -0.131174 -0.140273 255 0 0
-0.295305 0.032064 -0.181934 76 0 153
-0.179561 0.185974 -0.352980 255 0 0
0.455639 0.113016 -0.204180 204 51 127
-0.463602 0.331227 -0.095167 153 0 76
-0.217958 0.047406 0.354242 76 0 153
0.455639 0.212440 -0.178492 204 51 127
-0.100871 0.754816 -0.459164 255 0 0
0.291545 -0.067063 -0.277328 255 0 0
-0.288923 -0.139850 0.521771 76 0 153
0.111548 -0.191980 0.103095 76 0 153
0.079367 0.552864 -0.468955 255 0 0
0.522667 -0.151606 -0.318327 204 51 127
-0.463602 -0.157550 -0.323799 153 0 76
-0.530630 0.058874 0.149381 153 0 76
-0.452806 0.716191 -0.448112 255 0 0
-0.427347 0.487234 -0.313042 255 0 0
0.522667 0.275686 0.205513 204 51 127
-0.530630 0.338188 -0.274114 153 0 76
0.397921 -0.259008 0.156823 153 76 0
-0.530630 -0.159303 0.489985 153 0 76
0.089084 0.046315 -0.125002 76 0 153
-0.463602 -0.126735 0.027260 76 0 153
0.208496 -0.011542 -0.292204 255 0 0
-0.214716 0.047406 -0.014803 76 0 153
0.455639 0.018330 0.420056 76 0 153
-0.441961 0.167053 -0.213725 255 0 0
0.455639 -0.086383 0.174759 76 0 153
-0.497898 -0.259008 0.394999 153 76 0
0.107535 -0.136290 -0.185615 255 0 0
-0.089650 0.719143 -0.519562 255 0 0
-0.510529 0.372316 -0.087765 153 0 76
-0.471728 -0.259008 0.421838 153 76 0
0.212623 -0.218795 -0.340018 153 76 0
-0.275531 -0.066218 -0.273957 255 0 0
-0.484012 -0.100216 -0.340018 153 0 76
0.267543 0.047406 0.291971 76 0 153
-0.150795 -0.191980 0.304459 76 0 153
0.126313 -0.259008 -0.174418 153 76 0
-0.463602 0.159667 0.245197 153 0 76
0.054453 -0.085182 -0.235633 76 0 153
-0.025893 0.688560 -0.512282 255 0 0
0.102678 -0.191980 0.016065 76 0 153
0.137429 0.125548 -0.335534 255 0 0
-0.373574 0.358667 -0.364548 255 0 0
-0.336837 -0.259008 -0.314426 153 76 0
-0.257408 -0.259008 0.123282 153 76 0
0.272847 -0.130272 -0.260393 255 0 0
-0.488749 -0.259008 0.155533 153 76 0
0.522667 0.176684 0.086975 204 51 127
0.515760 -0.170849 -0.337328 204 51 127
0.002419 -0.191980 0.360151 153 76 0
-0.003098 -0.846939 0.036725 153 0 76
-0.411731 0.036900 0.322933 76 0 153
-0.340346 0.047406 0.371876 76 0 153
0.522667 0.249827 0.281390 204 51 127
0.455639 0.314423 -0.275154 204 51 127
0.113465 0.047406 0.080346 76 0 153
-0.530630 -0.160736 -0.253387 153 0 76
0.455639 0.305190 -0.092577 204 51 127
0.076251 -0.259008 0.500337 153 76 0
-0.440187 0.119522 -0.303640 255 0 0
-0.499254 -0.134566 0.521771 153 0 76
0.177362 -0.191980 0.089454 153 76 0
-0.344672 -0.048692 -0.193308 76 0 153
0.369023 -0.082242 0.521771 76 0 153
-0.498078 0.355806 0.202841 153 0 76
0.522667 0.170747 -0.299205 204 51 127
-0.527094 0.328614 0.334574 153 0 76
-0.306736 0.047406 0.108925 76 0 153
-0.080442 0.047406 0.139172 76 0 153
0.522667 0.226997 0.094490 204 51 127
-0.277598 -0.259008 -0.196530 153 76 0
-0.160066 -0.259008 -0.262929 153 76 0
0.336945 -0.191980 -0.113784 76 0 153
0.437361 -0.191980 -0.270723 204 51 127
-0.463602 -0.050119 0.341426 153 0 76
-0.530630 0.248863 0.069289 153 0 76
0.154634 -0.787505 -0.156722 0 127 127
-0.412041 -0.192579 -0.325793 153 76 0
0.472721 -0.259008 -0.283375 153 76 0
0.037081 -0.044475 -0.236134 76 0 153
-0.211228 0.528112 -0.377342 255 0 0
-0.214809 -0.259008 0.067934 153 76 0
0.522667 -0.178278 0.081791 204 51 127
0.522667 0.321187 -0.093628 204 51 127
0.180999 0.046626 0.411547 76 0 153
-0.437344 -0.162430 0.247895 76 0 153
0.427370 0.700484 -0.449021 255 0 0
-0.258066 -0.259008 -0.240507 153 76 0
-0.530630 -0.108924 0.152557 153 0 76
0.455639 0.021526 -0.057345 204 51 127
-0.239907 0.264796 -0.292559 255 0 0
0.327929 0.045111 -0.091020 76 0 153
0.522667 0.230692 -0.141818 204 51 127
0.232695 0.047406 0.196440 76 0 153
0.522667 0.137404 0.253890 204 51 127
0.118421 -0.191980 0.135665 76 0 153
0.151806 -0.191980 -0.187832 255 0 0
-0.132898 0.009351 0.521771 76 0 153
-0.246363 -0.259008 0.029534 153 76 0
-0.463602 -0.124095 0.370084 76 0 153
0.336528 -0.259008 -0.194747 153 76 0
0.087186 -0.035683 -0.233930 255 0 0
0.008354 0.000940 -0.302807 255 0 0
-0.055709 0.600190 -0.484422 255 0 0
-0.304694 0.293076 -0.287984 255 0 0
-0.443862 -0.051875 -0.163680 255 0 0
-0.127875 -0.259008 -0.272528 153 76 0
0.102385 -0.097971 -0.197770 255 0 0
-0.104911 -0.847115 0.089281 153 0 76
-0.282835 -0.198623 -0.336844 153 76 0
-0.530630 0.272067 -0.018093 153 0 76
-0.163379 0.615596 -0.481542 255 0 0
-0.331633 -0.045949 -0.278808 255 0 0
0.442443 0.767669 -0.416142 255 0 0
0.522667 0.193598 -0.271311 204 51 127
-0.411298 0.214756 -0.235027 255 0 0
-0.530630 -0.167077 0.428858 153 0 76
0.456673 0.313153 0.469255 204 51 127
0.349239 0.499408 -0.337682 255 0 0
-0.006453 -0.191980 -0.064532 76 0 153
0.075321 -0.131830 -0.262052 255 0 0
0.522667 -0.233885 0.036158 204 51 127
0.455639 -0.018483 0.314792 76 0 153
-0.463602 0.230395 -0.090026 153 0 76
0.401452 -0.171740 0.139381 76 0 153
-0.381098 0.597773 -0.361418 255 0 0
-0.463602 0.255761 0.186264 153 0 76
0.455639 -0.161754 -0.042554 76 0 153
-0.530630 -0.026068 0.261118 153 0 76
0.200868 0.309201 -0.310799 255 0 0
0.025597 0.452641 -0.439975 255 0 0
0.057113 -0.191980 -0.120005 153 76 0
-0.463602 -0.012550 -0.150144 76 0 153
-0.089754 0.047406 0.340537 76 0 153
-0.463602 -0.123042 0.414224 76 0 153
0.522667 -0.128614 0.286047 204 51 127
-0.530630 -0.076134 0.498086 153 0 76
-0.334452 -0.169061 -0.148275 255 0 0
0.109773 -0.002273 -0.226371 255 0 0
0.187779 0.498541 -0.370549 255 0 0
0.213962 0.157065 -0.262417 255 0 0
0.293044 0.759706 -0.431318 255 0 0
-0.530630 0.305630 0.271420 153 0 76
0.257517 -0.259008 0.398189 153 76 0
-0.086475 -0.027538 0.521771 76 0 153
-0.452418 -0.259008 0.179347 153 76 0
-0.135122 -0.259008 0.096437 153 76 0
-0.530630 0.064426 0.240560 153 0 76
0.325873 0.459759 -0.331746 255 0 0
-0.347085 -0.191980 0.128311 153 76 0
0.423511 -0.128102 0.521771 76 0 153
-0.529987 0.338244 0.071631 153 0 76
0.085865 0.326258 -0.328825 255 0 0
0.034499 -0.285944 0.013750 153 0 76
-0.398488 -0.259008 0.239846 153 76 0
0.345379 -0.247513 0.521771 153 76 0
-0.463602 0.026763 0.419372 153 0 76
-0.360872 0.244470 -0.258813 255 0 0
-0.417349 -0.191980 0.089002 153 76 0
-0.042774 -0.259008 0.385727 153 76 0
0.455639 -0.122014 0.198322 76 0 153
-0.359202 0.004673 0.521771 76 0 153
-0.259629 -0.175006 0.457785 76 0 153
-0.530630 0.246665 0.224712 153 0 76
0.329261 0.031035 -0.178024 76 0 153
-0.530630 -0.024579 0.430056 153 0 76
0.425679 -0.259008 -0.321832 153 76 0
-0.507357 -0.259008 0.313398 153 76 0
0.124878 -0.191980 0.391863 153 76 0
0.304429 -0.191980 0.278357 76 0 153
0.290585 -0.259008 0.107515 153 76 0
-0.262746 0.047406 0.177939 76 0 153
-0.436005 0.592942 -0.342842 255 0 0
0.287395 0.462918 -0.341785 255 0 0
0.455639 0.130983 0.187322 204 51 127
-0.450882 0.301711 -0.332606 255 0 0
-0.530630 -0.082694 -0.091634 153 0 76
-0.448386 0.581131 -0.408288 255 0 0
-0.026966 -0.191980 0.252316 153 76 0
-0.264361 0.568724 -0.380438 255 0 0
0.049156 -0.191980 0.190501 153 76 0
-0.277235 -0.835186 0.275146 153 0 76
-0.242866 -0.016224 -0.215956 76 0 153
0.231489 -0.244295 0.521771 153 76 0
0.478625 0.006357 0.521771 204 51 127
0.522667 -0.118339 -0.038399 204 51 127
0.351563 0.622213 -0.446885 255 0 0
0.373182 -0.181164 0.308983 153 76 0
0.522667 -0.189358 0.132027 204 51 127
-0.313373 -0.191980 -0.169462 153 76 0
0.252049 -0.191980 0.425523 76 0 153
-0.463602 0.074236 -0.032424 153 0 76
-0.463602 -0.016435 0.314098 76 0 153
0.522667 -0.195796 0.501486 204 51 127
-0.463602 0.046481 -0.114397 153 0 76
-0.492456 0.223842 -0.340018 153 0 76
0.401605 0.630203 -0.435961 255 0 0
-0.389273 -0.029666 0.521771 76 0 153
-0.460738 0.340528 -0.320215 255 0 0
0.347154 0.046336 0.154116 76 0 153
-0.312464 -0.191980 -0.243252 255 0 0
0.224932 0.616510 -0.401214 255 0 0
0.455639 0.145717 0.138979 204 51 127
-0.322572 -0.178356 0.447735 76 0 153
0.233639 -0.818412 0.225972 76 153 0
-0.326116 0.416170 -0.392635 255 0 0
-0.463602 0.049917 0.079399 153 0 76
-0.251958 -0.191980 0.373774 76 0 153
-0.241946 -0.259008 0.292936 153 76 0
-0.006827 -0.702523 -0.047551 153 0 76
-0.013895 -0.167860 0.479223 76 0 153
0.522667 -0.177368 0.309922 204 51 127
-0.155186 0.002813 -0.300099 255 0 0
-0.053269 0.029943 -0.311662 255 0 0
0.443168 0.434678 -0.316825 255 0 0
0.022389 0.036735 -0.242871 255 0 0
-0.112174 0.213285 -0.363685 255 0 0
0.455639 -0.041123 -0.002709 76 0 153
0.054426 -0.191980 0.427536 76 0 153
0.206982 -0.259008 -0.113065 153 76 0
0.522667 0.212933 0.342658 204 51 127
-0.463602 -0.185706 0.298525 153 0 76
-0.256887 0.074954 -0.313593 255 0 0
-0.084085 0.047406 0.006166 76 0 153
0.122195 -0.050467 -0.230901 76 0 153
-0.186683 -0.185050 0.427655 76 0 153
-0.428532 0.034100 0.106346 76 0 153
-0.262892 -0.191980 -0.011527 153 76 0
0.251671 -0.191980 -0.048591 153 76 0
0.455583 -0.191980 -0.117993 255 0 0
-0.463602 0.009579 0.254043 153 0 76
0.128377 -0.172461 -0.172759 76 0 153
-0.244274 -0.191980 -0.098949 76 0 153
-0.471638 -0.259008 -0.259756 153 76 0
-0.030670 0.031932 0.499713 76 0 153
0.345229 -0.191980 -0.168261 255 0 0
0.522667 -0.050752 0.333796 204 51 127
-0.000811 0.624610 -0.493282 255 0 0
-0.006917 0.088021 -0.259217 255 0 0
0.522667 -0.062064 -0.261856 204 51 127
0.298802 0.738643 -0.495116 255 0 0
0.029660 -0.140965 -0.188365 255 0 0
-0.530630 0.271051 0.299163 153 0 76
-0.092122 0.047406 0.051205 76 0 153
0.399232 -0.166845 -0.119767 255 0 0
-0.358259 0.087688 -0.310791 255 0 0
-0.350385 0.638162 -0.454176 255 0 0
0.335803 -0.817535 -0.337891 0 127 127
-0.198532 -0.171541 0.468182 76 0 153
0.370306 -0.191980 0.185290 76 0 153
0.158530 0.521466 -0.381789 255 0 0
-0.028523 -0.259008 0.185276 153 76 0
0.189229 0.047406 -0.095423 76 0 153
-0.138547 -0.048732 -0.230175 76 0 153
0.442238 0.588706 -0.360772 255 0 0
0.441314 -0.042683 0.517892 76 0 153
0.099471 -0.174390 -0.248938 255 0 0
-0.530630 0.136014 -0.254576 153 0 76
-0.049625 -0.158270 -0.222219 76 0 153
-0.048280 -0.191980 0.484190 153 76 0
0.520878 0.322763 0.365745 204 51 127
-0.364726 -0.850742 0.362638 153 0 76
-0.530630 0.036722 -0.201086 153 0 76
0.455639 0.093392 0.224835 204 51 127
-0.463602 0.126317 -0.174576 153 0 76
0.455639 -0.048989 0.185881 76 0 153
-0.463602 0.170384 -0.095873 153 0 76
0.455639 -0.125362 -0.156233 204 51 127
0.485286 -0.185739 0.521771 204 51 127
0.224650 0.013714 -0.298971 255 0 0
0.277314 -0.259008 0.146020 153 76 0
-0.210917 0.660430 -0.417817 255 0 0
0.141857 -0.259008 0.129610 153 76 0
-0.133532 0.764874 -0.508998 255 0 0
-0.026932 0.329621 -0.402721 255 0 0
0.086199 -0.785967 0.092074 76 153 0
0.455639 0.096120 0.078636 204 51 127
0.522667 0.054265 0.049533 204 51 127
-0.091526 -0.191980 0.036958 76 0 153
-0.055603 -0.191980 -0.239062 255 0 0
-0.232973 0.698264 -0.426183 255 0 0
0.247800 -0.127246 -0.261203 255 0 0
-0.446151 0.249114 -0.243911 255 0 0
-0.424634 0.261802 -0.333789 255 0 0
0.190171 -0.259008 0.128861 153 76 0
0.266187 0.073502 -0.227123 255 0 0
-0.394976 0.271641 -0.341351 255 0 0
-0.450093 0.324520 -0.279691 255 0 0
-0.530630 -0.092064 0.287486 153 0 76
-0.363727 0.044901 0.150044 76 0 153
-0.456015 0.029520 0.347953 76 0 153
0.020185 -0.223651 -0.340018 153 76 0
-0.530630 -0.223467 -0.165088 153 0 76
-0.436350 -0.191980 -0.003844 153 76 0
-0.209775 0.353299 -0.324137 255 0 0
0.361516 -0.191980 -0.316266 153 76 0
-0.414313 0.562270 -0.340227 255 0 0
-0.316346 -0.191980 -0.268654 153 76 0
0.522667 -0.140961 0.120566 204 51 127
0.136495 -0.189492 -0.121818 153 76 0
-0.020654 -0.728191 -0.044168 153 0 76
-0.420348 0.425334 -0.369841 255 0 0
0.455639 0.122513 -0.004010 204 51 127
-0.530630 -0.232926 0.402052 153 0 76
-0.463602 0.056688 0.380588 153 0 76
-0.358660 0.567829 -0.358202 255 0 0
0.522667 -0.181304 -0.118813 204 51 127
-0.424366 -0.259008 -0.299297 153 76 0
0.087334 -0.191980 0.472769 153 76 0
-0.078406 0.114242 -0.336341 255 0 0
-0.042749 0.156190 -0.350006 255 0 0
0.190294 0.353131 -0.396750 255 0 0
-0.163091 0.699825 -0.507303 255 0 0
-0.400619 -0.191980 -0.116799 153 76 0
0.447296 0.091725 -0.284382 204 51 127
0.108446 0.037758 -0.174863 76 0 153
-0.530630 -0.145680 0.132792 153 0 76
0.455639 0.298542 0.167994 204 51 127
-0.211289 -0.825831 -0.218957 127 0 127
0.016180 -0.191980 -0.243104 153 76 0
-0.530630 -0.192218 -0.199499 153 0 76
0.455639 0.169526 -0.224207 204 51 127
0.355801 0.514184 -0.412755 255 0 0
-0.092547 -0.191980 0.198648 76 0 153
0.292119 -0.191980 0.052517 76 0 153
0.000745 -0.386471 0.037548 153 0 76
-0.198160 0.032387 -0.197723 76 0 153
0.034913 -0.416466 -0.022505 153 0 76
-0.530630 0.061685 -0.302633 153 0 76
-0.039468 -0.259008 -0.005530 153 0 76
-0.381225 -0.071387 -0.156919 255 0 0
-0.098215 0.495441 -0.380140 255 0 0
-0.047681 0.392683 -0.351134 255 0 0
0.522667 0.230860 0.382847 204 51 127
-0.530630 0.172438 0.452184 153 0 76
-0.463602 0.198366 0.437781 153 0 76
0.222599 0.468883 -0.427200 255 0 0
-0.441687 0.549890 -0.330519 255 0 0
-0.208689 0.740960 -0.513502 255 0 0
0.522667 -0.111756 0.419643 204 51 127
0.455639 0.098101 0.018762 204 51 127
-0.053748 0.039065 -0.170997 76 0 153
-0.110653 -0.191980 -0.314103 153 76 0
0.350353 -0.191980 0.231771 153 76 0
-0.035185 -0.666845 -0.034321 153 0 76
0.148248 -0.163226 -0.199895 76 0 153
0.455639 -0.191307 -0.223965 255 0 0
0.495305 -0.259008 -0.032142 153 76 0
0.257722 0.330785 -0.381496 255 0 0
0.014935 0.047406 0.267903 76 0 153
-0.436233 -0.191980 -0.155770 153 76 0
-0.195706 0.626629 -0.409692 255 0 0
-0.530374 0.340124 0.022569 153 0 76
0.021003 0.176440 -0.356432 255 0 0
-0.389181 -0.259008 -0.180229 153 76 0
0.154489 -0.117185 -0.265453 255 0 0
-0.395397 -0.118773 0.521771 76 0 153
-0.082856 -0.170798 0.470412 76 0 153
-0.041955 -0.597294 -0.024728 153 0 76
0.140086 -0.191980 0.466740 153 76 0
0.174872 -0.191980 -0.092159 153 76 0
0.054980 -0.001794 -0.230160 255 0 0
-0.385902 0.771763 -0.453686 255 0 0
0.522667 0.220968 -0.114222 204 51 127
-0.023769 -0.191980 -0.096281 76 0 153
0.521623 0.341929 0.037961 204 51 127
0.353503 -0.029751 -0.174866 255 0 0
0.522667 -0.128753 0.195871 204 51 127
-0.080236 0.038554 0.459979 76 0 153
0.389872 -0.175600 -0.084822 153 76 0
0.340003 -0.168158 -0.147503 76 0 153
0.217807 -0.191980 -0.233375 255 0 0
0.320366 -0.191980 -0.144541 255 0 0
-0.526088 -0.023326 0.520295 153 0 76
0.031878 -0.557425 -0.028254 153 0 76
-0.292690 0.623831 -0.462905 255 0 0
-0.417224 -0.259008 0.372859 153 76 0
-0.219197 -0.259008 -0.032829 153 76 0
0.522667 0.072872 0.505873 204 51 127
-0.530630 0.050131 -0.158274 153 0 76
-0.357031 -0.073538 -0.162660 255 0 0
0.048532 0.424596 -0.360632 255 0 0
0.098507 0.047406 0.227641 76 0 153
0.101021 0.047406 0.394519 76 0 153
-0.530630 -0.037704 0.470406 153 0 76
-0.463602 -0.043028 -0.061936 76 0 153
-0.122434 -0.100955 -0.231569 76 0 153
-0.195701 0.057337 -0.235742 255 0 0
0.352992 -0.191980 0.359147 153 76 0
-0.530630 0.247178 -0.031416 153 0 76
-0.337362 0.590665 -0.443107 255 0 0
-0.530630 0.122714 0.442972 153 0 76
0.522667 -0.186997 -0.281665 204 51 127
-0.530630 0.034312 0.485998 153 0 76
0.455639 -0.145621 0.409388 76 0 153
0.455639 0.220346 -0.139158 204 51 127
0.098481 0.355442 -0.336650 255 0 0
-0.055008 -0.823339 -0.062675 127 0 127
0.238320 0.016408 0.521771 76 0 153
0.144550 0.476079 -0.369525 255 0 0
-0.285785 0.076987 -0.225814 255 0 0
-0.386742 0.041065 0.402323 76 0 153
0.145734 0.047406 0.100993 76 0 153
0.522667 0.249289 -0.166948 204 51 127
0.522667 0.061376 0.325851 204 51 127
-0.530630 0.020230 -0.229158 153 0 76
-0.463602 0.088435 -0.087882 153 0 76
-0.001773 -0.259008 -0.291513 153 76 0
0.022355 0.047406 0.371014 76 0 153
-0.415114 -0.075280 0.521771 76 0 153
-0.530630 0.291485 -0.100247 153 0 76
0.391604 -0.030670 0.521771 76 0 153
-0.530630 -0.014725 0.397523 153 0 76
0.455639 -0.075176 0.409785 76 0 153
-0.530630 0.135855 0.090720 153 0 76
0.522667 0.092794 0.152431 204 51 127
0.289481 0.272722 -0.361241 255 0 0
0.240607 -0.191980 0.390864 153 76 0
0.092008 -0.115198 0.521771 76 0 153
0.522667 0.114001 0.401802 204 51 127
-0.356373 -0.129956 -0.190214 76 0 153
0.310791 -0.022540 -0.286310 255 0 0
0.455639 0.234257 -0.225635 204 51 127
0.312250 0.372928 -0.380664 255 0 0
-0.530630 -0.121557 0.429465 153 0 76
0.475382 0.340940 0.381132 204 51 127
-0.312567 0.701666 -0.411225 255 0 0
-0.223545 -0.191980 -0.052711 153 76 0
0.103889 0.590144 -0.407897 255 0 0
0.345912 -0.259008 0.420096 153 76 0
0.069270 -0.102417 0.521771 76 0 153
0.065797 -0.826276 -0.067885 0 127 127
0.392470 -0.259008 -0.231996 153 76 0
0.055411 0.128283 -0.269894 255 0 0
-0.383949 -0.180229 0.145689 76 0 153
-0.508411 0.162096 0.521771 153 0 76
0.301083 -0.177535 0.450200 153 76 0
0.334417 0.616663 -0.377430 255 0 0
-0.023143 -0.744118 0.033382 153 0 76
0.522667 -0.165284 -0.258582 204 51 127
-0.010266 0.727013 -0.524482 255 0 0
0.522667 0.089251 -0.278182 204 51 127
0.347703 0.236005 -0.257604 255 0 0
-0.032211 -0.324718 0.027257 153 0 76
-0.530630 0.068302 0.448697 153 0 76
-0.014380 -0.171707 -0.179640 255 0 0
-0.530630 0.198607 -0.002852 153 0 76
0.124659 -0.787142 0.130534 76 153 0
-0.463602 -0.168638 0.348344 76 0 153
-0.499226 -0.259008 0.074623 153 76 0
-0.530630 0.165141 0.376008 153 0 76
-0.357039 -0.259008 -0.151168 153 76 0
0.048467 -0.191980 0.089912 76 0 153
-0.190009 0.305048 -0.385345 255 0 0
-0.401862 -0.015957 -0.281094 255 0 0
0.005545 -0.191980 0.020052 153 76 0
-0.463602 -0.082764 -0.148717 153 0 76
0.082065 0.403039 -0.352615 255 0 0
0.334641 -0.191980 -0.015852 76 0 153
-0.469497 0.355622 -0.007114 153 0 76
-0.530630 0.269439 0.476482 153 0 76
0.048588 0.047406 0.168411 76 0 153
-0.366376 -0.186086 0.236465 76 0 153
-0.088581 0.068422 -0.322073 255 0 0
-0.268302 -0.117213 -0.261753 255 0 0
0.288297 0.194248 -0.259507 255 0 0
-0.530630 0.005555 0.444070 153 0 76
0.514720 0.227064 0.520983 204 51 127
0.050382 -0.258723 -0.325218 153 76 0
0.521921 0.353656 -0.154092 204 51 127
0.070808 0.038487 -0.313503 255 0 0
0.396801 0.038061 -0.010125 76 0 153
0.275702 -0.165583 -0.250932 255 0 0
-0.082560 -0.259008 -0.188714 153 76 0
-0.523731 -0.254260 0.182114 153 76 0
0.455639 -0.166403 -0.274767 204 51 127
0.392770 0.312915 -0.268471 255 0 0
0.455639 -0.125337 0.253728 76 0 153
0.369366 -0.259008 0.362343 153 76 0
-0.311154 0.047406 0.366453 76 0 153
0.382644 -0.178009 0.275161 76 0 153
-0.019572 -0.337022 -0.044616 153 0 76
-0.506916 -0.259008 -0.220614 153 76 0
-0.383161 0.704193 -0.393390 255 0 0
0.455639 0.029796 0.270136 76 0 153
0.073365 -0.191980 0.379956 76 0 153
0.455639 -0.057531 -0.259866 255 0 0
0.197290 -0.259008 -0.035856 153 76 0
-0.530630 0.150099 0.182124 153 0 76
-0.118458 0.425113 -0.427226 255 0 0
0.445633 0.206677 -0.255406 204 51 127
0.522667 0.187112 -0.323447 204 51 127
0.376453 0.541808 -0.415735 255 0 0
-0.320365 -0.191980 -0.059267 76 0 153
-0.530630 0.304288 -0.180462 153 0 76
0.249258 -0.180480 -0.130964 153 76 0
0.130380 -0.191980 0.244611 76 0 153
-0.463602 -0.159798 -0.185787 255 0 0
-0.026948 -0.191980 0.188298 76 0 153
0.074800 -0.099203 -0.235002 76 0 153
-0.136592 0.030253 -0.218313 255 0 0
0.006162 -0.259008 0.237211 153 76 0
-0.214800 -0.259008 -0.280376 153 76 0
0.522667 0.135237 -0.319196 204 51 127
0.110625 -0.170918 0.470052 76 0 153
-0.153585 0.047406 -0.017699 76 0 153
0.302811 0.062901 -0.216412 255 0 0
0.060513 0.175861 -0.284284 255 0 0
-0.042935 -0.191980 0.346436 153 76 0
-0.034920 -0.156744 -0.183621 255 0 0
0.372434 0.039769 0.448652 76 0 153
-0.530630 0.034322 0.200567 153 0 76
-0.463602 -0.112526 0.343663 153 0 76
0.115578 -0.826440 -0.131208 0 127 127
0.196835 -0.075663 -0.221815 76 0 153
-0.530630 -0.025186 0.139657 153 0 76
0.065654 0.179283 -0.356077 255 0 0
0.382931 0.040373 0.226195 76 0 153
-0.463602 0.013803 -0.235708 153 0 76
0.402357 0.039729 -0.181866 255 0 0
-0.191023 -0.144464 -0.257578 255 0 0
0.506124 0.118022 0.521771 204 51 127
0.271537 -0.102893 -0.172133 255 0 0
0.455639 0.171126 0.165411 204 51 127
-0.112844 0.026178 0.521771 76 0 153
0.522667 0.315862 -0.118489 204 51 127
0.457501 0.359139 -0.176246 204 51 127
0.455639 0.226116 0.470499 204 51 127
0.522667 -0.045684 0.065000 204 51 127
-0.216730 -0.002860 -0.298461 255 0 0
0.274419 -0.054038 -0.186473 255 0 0
0.491969 -0.060136 -0.340018 204 51 127
-0.463602 0.169441 0.215898 153 0 76
-0.302991 -0.006546 -0.196780 76 0 153
-0.530630 -0.110792 -0.193168 153 0 76
-0.463602 -0.083590 0.103542 76 0 153
-0.155058 -0.008264 -0.228746 255 0 0
-0.232156 -0.174038 -0.159765 255 0 0
0.522667 -0.073174 0.044443 204 51 127
0.455639 0.176610 -0.162722 204 51 127
0.216374 -0.259008 -0.079191 153 76 0
0.244596 -0.847937 0.250470 76 153 0
0.243197 0.047406 0.395237 76 0 153
-0.035800 -0.191980 0.226180 76 0 153
-0.410810 -0.191980 0.177051 76 0 153
0.522667 0.170884 -0.074040 204 51 127
0.322953 -0.259008 -0.073132 153 76 0
-0.202055 0.047406 0.189605 76 0 153
0.258565 -0.222029 0.521771 153 76 0
-0.458301 0.514538 -0.383361 255 0 0
-0.048844 -0.781456 -0.052157 127 0 127
0.403354 -0.259008 -0.127028 153 76 0
0.035089 -0.308670 -0.022080 153 0 76
-0.030751 -0.259008 0.046515 153 76 0
-0.179671 -0.259008 -0.021523 153 76 0
-0.083334 -0.259008 0.099235 153 76 0
0.291264 0.624933 -0.461909 255 0 0
0.522667 0.261644 0.021550 204 51 127
0.131155 0.356028 -0.334002 255 0 0
