ply
format ascii 1.0
element vertex 1258
property float x
property float y
property float z
property uchar red
property uchar green
property uchar blue
end_header
-0.063500 0.309292 -0.302235 204 51 127
0.413939 -0.023240 -0.372006 76 0 153
-0.484953 0.191335 -0.044491 153 0 76
0.169947 0.460111 -0.331555 204 51 127
-0.381989 -0.049431 -0.152732 153 76 0
0.168274 0.416823 -0.300574 204 51 127
-0.200940 0.489283 -0.314659 204 51 127
0.432058 0.186671 -0.111012 0 0 255
0.227290 -0.231116 -0.212344 153 0 76
-0.052009 0.475011 -0.334453 204 51 127
0.438267 0.123570 0.426558 204 51 127
-0.190911 -0.036275 0.035383 153 76 0
-0.436000 0.216264 -0.164381 153 0 76
0.363710 -0.133809 0.391374 0 127 127
-0.085299 -0.173458 -0.196740 153 0 76
0.322891 0.304202 -0.278681 204 51 127
-0.400640 -0.096295 -0.369100 76 153 0
-0.404687 0.650110 -0.345922 204 51 127
-0.440532 0.208561 0.420531 153 0 76
-0.349227 -0.017789 0.535634 153 76 0
0.252711 -0.055998 -0.246731 153 76 0
-0.377022 -0.233016 -0.239321 76 153 0
0.079392 -0.042679 0.501446 153 76 0
-0.400642 -0.182010 0.408901 76 0 153
-0.367407 -0.098579 0.163095 76 153 0
0.303471 -0.074025 -0.259216 153 0 76
-0.417356 -0.545058 0.473313 153 0 76
0.463408 -0.386010 0.440350 76 0 153
-0.449763 -0.454819 0.467003 153 0 76
-0.483291 0.211488 -0.232665 153 0 76
0.402496 0.262641 -0.270598 204 51 127
-0.467107 -0.455875 -0.353626 76 0 153
0.134491 -0.127167 -0.199977 153 0 76
-0.427755 0.320426 -0.281829 204 51 127
0.396965 -0.051008 0.134177 0 127 127
-0.260170 0.514767 -0.319613 204 51 127
0.332518 0.529005 -0.344948 204 51 127
-0.458534 0.220697 0.375449 153 0 76
0.434982 -0.453446 -0.327986 153 76 0
0.441526 0.185346 -0.129936 0 0 255
0.463407 -0.477352 0.463115 76 0 153
-0.276674 -0.036054 0.038546 153 76 0
0.297630 -0.046788 0.202566 153 76 0
-0.262295 -0.012807 0.370977 153 76 0
-0.003247 -0.037140 0.022970 153 76 0
-0.246532 -0.076487 -0.222110 153 76 0
-0.314877 0.519089 -0.343020 204 51 127
-0.467108 -0.663852 0.460714 153 0 76
-0.356071 -0.039158 -0.005823 153 76 0
0.111879 -0.030823 0.430884 76 0 153
-0.422375 0.196708 0.032426 153 0 76
0.463771 0.184557 -0.141212 0 0 255
0.381664 0.522646 -0.321146 204 51 127
0.396948 -0.188634 0.081928 0 127 127
-0.450482 0.169256 -0.110608 153 0 76
-0.467108 -0.639912 -0.388267 76 0 153
0.363710 -0.090287 0.392169 0 127 127
-0.121171 -0.006980 0.527578 153 76 0
0.454793 0.599134 -0.336014 204 51 127
0.210855 0.535085 -0.323563 204 51 127
0.396944 -0.159523 0.285864 0 127 127
-0.426039 0.191732 -0.037007 153 0 76
0.289255 -0.003569 0.503021 153 76 0
-0.201590 -0.113946 -0.200901 153 0 76
0.483295 0.547273 -0.348500 204 51 127
-0.457889 0.323996 -0.305092 153 0 76
0.463412 0.149439 -0.297271 76 0 153
0.197352 -0.044710 0.232298 153 76 0
0.164196 0.313501 -0.280490 204 51 127
-0.347729 -0.101256 -0.235078 153 0 76
-0.400640 -0.216277 -0.122604 76 153 0
-0.011259 -0.069168 -0.117452 153 76 0
-0.336492 -0.065226 -0.061070 153 76 0
0.418175 0.098871 0.428286 204 51 127
-0.450482 0.170831 0.105510 153 0 76
0.396963 0.010409 -0.331374 76 0 153
0.397006 -0.720942 -0.367117 153 76 0
-0.395109 0.244118 0.234705 153 0 76
-0.490350 0.216276 0.312170 153 0 76
0.081196 -0.040885 0.287008 153 76 0
-0.467106 0.091122 -0.307673 153 0 76
-0.415299 0.243682 0.227695 153 0 76
0.463422 -0.181733 -0.343122 0 127 127
0.328864 -0.034665 0.058325 153 76 0
-0.409242 0.210984 -0.239902 153 0 76
0.338993 -0.038057 0.327416 153 76 0
-0.400635 0.123501 0.377144 76 0 153
-0.332311 0.424271 -0.324587 204 51 127
-0.400640 -0.131584 -0.040954 76 153 0
-0.467107 -0.353988 -0.353988 76 0 153
-0.400640 -0.125629 -0.232753 76 153 0
0.019649 -0.065100 -0.059278 153 76 0
0.357064 -0.038339 0.005776 153 76 0
0.396975 0.236368 -0.299655 204 51 127
0.247452 -0.070116 -0.131009 153 76 0
-0.500876 0.238438 0.152725 153 0 76
0.282882 -0.190420 -0.228844 153 0 76
-0.221275 0.398062 -0.319492 204 51 127
-0.244993 0.306669 -0.279157 204 51 127
-0.380144 0.498465 -0.339010 204 51 127
0.443759 -0.522070 -0.331581 153 76 0
-0.467104 -0.493019 0.423689 153 0 76
0.396959 -0.174111 -0.235505 0 127 127
-0.360658 0.469004 -0.333283 204 51 127
0.463393 -0.145179 0.445350 0 127 127
-0.467108 -0.752190 -0.373177 76 0 153
-0.387922 -0.034187 0.382805 153 76 0
-0.024247 -0.048624 0.176338 153 76 0
0.449060 -0.029018 0.456671 0 127 127
-0.029044 0.427587 -0.325234 204 51 127
-0.166868 -0.204938 -0.227828 153 0 76
0.195881 -0.024401 0.205117 153 76 0
-0.303684 -0.103993 -0.234887 153 0 76
0.445232 0.121506 -0.090003 0 0 255
0.391430 0.231573 0.242729 0 0 255
-0.367407 -0.157768 -0.193279 153 0 76
0.463424 -0.285205 -0.342786 153 76 0
-0.330507 -0.007864 0.441676 153 76 0
-0.387536 -0.057289 0.052429 76 153 0
0.325505 -0.068656 -0.110137 153 76 0
0.369929 0.555742 -0.327579 204 51 127
-0.186394 0.339484 -0.285537 204 51 127
-0.382163 -0.023286 0.221143 153 76 0
0.097623 -0.067661 -0.095899 153 76 0
0.065325 -0.030075 0.124003 153 76 0
0.247442 0.297948 -0.300033 204 51 127
-0.020740 -0.063885 -0.041900 153 76 0
-0.077607 -0.029938 0.443545 76 0 153
-0.400642 -0.072220 0.224957 76 153 0
0.413611 0.134159 -0.146572 0 0 255
-0.459461 -0.684396 0.483056 153 0 76
-0.458069 -0.084573 -0.375220 76 153 0
0.396971 -0.049175 -0.307084 76 0 153
-0.161231 -0.074252 -0.190153 153 0 76
0.214916 -0.200137 -0.194874 153 0 76
-0.450482 0.139520 0.165276 153 0 76
0.414708 -0.044787 -0.306577 76 0 153
-0.411171 0.214234 0.283184 153 0 76
0.215478 0.325620 -0.305413 204 51 127
0.243295 -0.018391 0.291066 153 76 0
0.414416 -0.177612 -0.313536 0 127 127
0.058861 -0.046967 0.471796 153 76 0
-0.324214 -0.014736 0.343409 153 76 0
0.396997 -0.289233 -0.367915 153 76 0
-0.400641 -0.135885 0.242429 76 153 0
-0.421021 -0.414226 -0.392488 76 0 153
-0.143630 -0.035077 0.052498 153 76 0
-0.188606 -0.016924 0.312104 153 76 0
-0.354860 -0.066153 0.473139 153 76 0
0.465704 0.381867 -0.293775 204 51 127
0.010930 -0.160890 0.446449 76 0 153
0.158674 -0.164075 0.446671 76 0 153
-0.367407 -0.076896 0.299012 76 153 0
-0.445808 -0.416617 -0.392613 76 0 153
-0.136313 -0.053173 -0.206273 153 76 0
0.463407 -0.468857 0.434166 76 0 153
-0.197623 -0.124833 -0.233430 153 0 76
0.397001 -0.474903 -0.347369 153 76 0
0.195574 -0.162597 -0.230790 153 0 76
0.306232 -0.139525 -0.199113 153 0 76
0.256488 -0.048380 0.438581 76 0 153
-0.155636 0.263401 -0.293313 204 51 127
-0.063151 -0.079036 -0.258587 153 0 76
-0.400640 -0.066575 0.068555 76 153 0
0.293877 -0.013654 0.358795 153 76 0
0.398150 0.034587 -0.302420 76 0 153
-0.467108 -0.207877 0.439145 153 0 76
0.032858 -0.051650 -0.184525 153 76 0
0.396937 -0.097508 -0.358507 76 0 153
0.438728 -0.392185 0.395994 76 0 153
-0.409112 -0.369004 0.394375 153 0 76
0.434098 0.174712 -0.282021 0 0 255
0.422609 0.219015 -0.124972 0 0 255
0.446785 0.154705 0.031232 0 0 255
-0.194216 -0.019798 0.271002 153 76 0
-0.073254 -0.163845 -0.230702 153 0 76
0.271344 -0.005794 0.471216 153 76 0
0.413060 -0.029443 0.450574 0 127 127
0.432747 -0.621237 0.478639 76 0 153
-0.367408 -0.145719 -0.359301 76 153 0
-0.407311 0.344489 -0.286507 204 51 127
0.385003 -0.200300 0.229755 0 127 127
0.451571 -0.363658 -0.323282 153 76 0
0.036236 -0.034841 0.373436 153 76 0
-0.366284 -0.054142 -0.220106 153 76 0
0.183968 -0.076960 -0.228883 153 0 76
-0.126196 0.423768 -0.324490 204 51 127
-0.359689 -0.043392 0.502441 153 76 0
0.146148 -0.041996 -0.046482 153 76 0
-0.453141 0.225114 0.438508 153 0 76
-0.366971 -0.049903 0.158070 153 76 0
-0.440914 -0.344842 0.392685 153 0 76
0.396942 -0.177471 0.383880 0 127 127
0.414562 0.217815 0.352027 0 0 255
-0.411038 0.216158 0.310714 153 0 76
0.230461 -0.041476 -0.039063 153 76 0
0.396964 -0.073465 -0.003846 0 127 127
-0.112720 -0.023457 0.218676 153 76 0
0.396950 -0.216883 -0.010519 0 127 127
0.396963 -0.069217 -0.161256 0 127 127
0.446779 0.137142 -0.112630 0 0 255
0.446330 -0.276418 0.454527 76 0 153
-0.400631 0.194924 0.406800 153 0 76
0.440961 -0.295701 -0.386279 153 76 0
0.233426 -0.184084 0.460244 76 0 153
0.396960 -0.035332 0.257059 0 127 127
-0.288139 -0.034329 0.380778 153 76 0
0.023486 0.372159 -0.291892 204 51 127
-0.400640 -0.245652 -0.332300 76 153 0
0.219398 -0.046412 0.207947 153 76 0
-0.367408 -0.126611 -0.276512 76 153 0
-0.420688 0.227692 0.467773 153 0 76
0.396950 -0.195129 0.013552 0 127 127
0.463408 -0.656007 0.424233 76 0 153
-0.352305 -0.173183 0.480623 76 0 153
0.169320 -0.074473 -0.193316 153 0 76
0.427524 0.242701 -0.282802 204 51 127
-0.289576 0.334446 -0.307124 204 51 127
0.303333 -0.076263 -0.218920 153 76 0
0.355956 -0.063880 -0.041841 153 76 0
-0.253461 -0.052223 0.124888 153 76 0
0.084285 0.417186 -0.300645 204 51 127
0.363711 -0.101385 0.072995 0 127 127
-0.011080 0.623715 -0.363360 204 51 127
-0.464015 0.208992 -0.268354 153 0 76
-0.154954 -0.116447 -0.234016 153 0 76
-0.411009 -0.184019 0.461190 76 0 153
0.259700 -0.230683 -0.206162 153 0 76
0.379741 -0.225345 -0.129481 0 127 127
-0.088710 0.654859 -0.391535 204 51 127
0.437693 0.141169 0.191199 0 0 255
0.208526 -0.184836 0.449493 76 0 153
0.459622 0.193112 -0.018875 0 0 255
-0.395111 0.243682 0.443153 153 0 76
0.396966 -0.038429 0.231410 0 127 127
0.327929 -0.065083 0.439749 76 0 153
0.363712 -0.165370 -0.169169 0 127 127
0.126766 -0.065134 -0.059767 153 76 0
0.446523 -0.214570 0.383574 76 0 153
-0.478565 0.187969 -0.092623 153 0 76
0.446775 0.163421 -0.229642 0 0 255
-0.214020 0.242003 -0.286388 204 51 127
0.469777 0.227504 -0.003370 0 0 255
0.255082 -0.003684 0.501382 153 76 0
0.396959 0.121482 -0.331781 76 0 153
-0.454611 0.419200 -0.301031 204 51 127
-0.004013 -0.019091 0.281091 153 76 0
-0.110430 -0.040894 -0.030692 153 76 0
-0.015184 -0.039388 0.497920 153 76 0
-0.419078 0.184426 0.355611 153 0 76
0.396973 0.154794 -0.300100 0 0 255
0.357915 0.421920 -0.301565 204 51 127
-0.450482 0.157525 -0.179102 153 0 76
-0.395108 0.233581 0.092699 153 0 76
0.440604 0.256710 0.446097 0 0 255
-0.488698 0.230344 0.036976 153 0 76
0.396947 -0.178899 0.118127 0 127 127
0.077247 -0.097045 -0.202083 153 0 76
-0.467107 -0.516636 -0.350022 76 0 153
-0.240833 -0.069468 -0.121738 153 76 0
-0.325400 -0.019554 0.274502 153 76 0
0.182886 0.611758 -0.338468 204 51 127
0.256272 -0.050659 -0.170393 153 76 0
-0.467099 0.026955 0.423047 76 0 153
0.236683 -0.118037 -0.200615 153 0 76
-0.337248 -0.040705 0.289602 153 76 0
0.363710 -0.174477 0.277508 0 127 127
0.379147 -0.056151 0.068675 0 127 127
0.407451 0.207882 0.192222 0 0 255
0.100573 0.480564 -0.335531 204 51 127
0.446794 0.169036 0.250813 0 0 255
-0.467096 0.207081 0.359230 153 0 76
0.037310 -0.085463 -0.202893 153 0 76
0.425822 0.675161 -0.377864 204 51 127
0.330530 0.432328 -0.326154 204 51 127
-0.106610 0.617323 -0.339549 204 51 127
0.396999 -0.385099 -0.371724 153 76 0
0.502201 0.220122 0.268803 0 0 255
-0.417320 0.212163 -0.223036 153 0 76
0.397033 -0.039973 0.530964 153 76 0
0.446450 0.222823 0.436168 0 0 255
-0.350227 -0.030611 0.116393 153 76 0
-0.164584 0.472868 -0.311468 204 51 127
-0.367407 -0.179433 -0.102842 76 153 0
-0.208261 -0.073673 -0.181868 153 0 76
-0.206044 0.499504 -0.339213 204 51 127
-0.205958 -0.057721 0.046251 153 76 0
0.263722 -0.011754 0.385982 153 76 0
0.397008 -0.773944 -0.349018 153 76 0
0.399806 0.296825 -0.277244 204 51 127
-0.404462 -0.375869 -0.390478 76 0 153
-0.023677 -0.099564 -0.201907 153 0 76
-0.111232 0.458864 -0.331314 204 51 127
-0.402544 0.162580 0.357145 76 0 153
0.413608 0.134214 -0.217492 0 0 255
0.290034 -0.177700 0.480938 76 0 153
0.447252 -0.318841 -0.320934 153 76 0
0.067200 -0.138335 -0.232486 153 0 76
-0.395109 0.228352 0.205270 153 0 76
0.397522 -0.336912 -0.388443 153 76 0
-0.346356 0.353533 -0.310835 204 51 127
0.108926 0.502896 -0.317306 204 51 127
0.243686 -0.055252 0.081542 153 76 0
0.095501 0.381100 -0.316198 204 51 127
-0.111679 -0.012564 0.374445 153 76 0
-0.326943 -0.047912 0.186542 153 76 0
0.402125 -0.100231 0.442207 76 0 153
-0.467108 -0.627436 -0.347610 76 0 153
0.355040 -0.004717 0.486602 153 76 0
-0.400642 -0.076528 0.386413 76 0 153
0.410410 -0.000569 0.435240 204 51 127
0.157266 -0.004968 0.483039 153 76 0
-0.107779 -0.045621 -0.098288 153 76 0
-0.161956 -0.004298 0.522603 153 76 0
0.413613 0.172318 -0.074300 0 0 255
-0.450535 0.518351 -0.320307 204 51 127
0.434630 0.145820 0.257716 0 0 255
-0.029713 -0.016186 0.322632 153 76 0
-0.040775 -0.047392 -0.123630 153 76 0
0.436370 0.013456 -0.303525 76 0 153
-0.457279 0.177424 -0.243385 153 0 76
-0.130908 -0.111223 -0.201091 153 0 76
0.268572 0.651076 -0.346111 204 51 127
-0.077981 -0.040317 0.295133 153 76 0
-0.400643 -0.610760 0.426648 153 0 76
-0.050523 -0.041162 0.499633 153 76 0
-0.359050 -0.046190 0.211167 153 76 0
0.145610 -0.050660 0.147214 153 76 0
-0.464427 0.422287 -0.348668 153 0 76
-0.012853 0.651295 -0.391264 204 51 127
0.396949 -0.195159 0.048700 0 127 127
-0.380192 -0.042418 -0.052442 153 76 0
0.396959 -0.140215 -0.027503 0 127 127
-0.474769 0.179810 -0.209283 153 0 76
-0.026901 -0.046883 0.511640 153 76 0
-0.408484 0.200558 0.087539 153 0 76
-0.477133 0.233079 0.076084 153 0 76
-0.324177 0.439519 -0.304983 204 51 127
0.231246 -0.061168 -0.003049 153 76 0
0.340030 -0.040702 0.289597 153 76 0
0.098422 -0.032904 0.401132 153 76 0
0.381760 0.471096 -0.333689 76 0 153
0.089156 0.509161 -0.341090 204 51 127
0.029367 0.505658 -0.317843 204 51 127
0.129746 -0.018058 0.295854 153 76 0
0.412224 -0.627894 -0.337125 153 76 0
0.176673 -0.059892 0.015201 153 76 0
-0.300834 0.338325 -0.285310 204 51 127
0.015229 0.446749 -0.328959 204 51 127
0.162782 -0.077778 -0.240589 153 0 76
0.408028 0.087656 -0.366197 76 0 153
-0.034397 -0.010226 0.407860 153 76 0
0.202840 0.537234 -0.346547 204 51 127
-0.450482 0.180060 0.121142 153 0 76
0.324654 -0.016834 0.313304 153 76 0
0.379978 -0.023061 0.224250 153 76 0
-0.316159 -0.060229 -0.260180 153 76 0
-0.031517 -0.030839 0.113095 153 76 0
0.181151 -0.050138 0.154670 153 76 0
-0.157768 -0.162847 -0.197481 153 0 76
0.379793 -0.208964 0.105449 0 127 127
-0.310210 -0.027539 0.160324 153 76 0
0.161297 -0.088906 0.474729 76 0 153
0.396945 -0.128664 0.256839 0 127 127
-0.413669 0.229220 0.020881 153 0 76
-0.321126 0.254419 -0.268998 204 51 127
-0.030213 -0.029849 0.536276 153 76 0
-0.108135 0.615814 -0.361823 204 51 127
0.397025 -0.013783 0.457120 0 127 127
-0.014450 -0.039213 0.310914 153 76 0
0.432684 0.099273 0.361629 204 51 127
0.299337 0.285086 -0.274965 204 51 127
0.284278 0.625228 -0.341086 204 51 127
0.237944 -0.004868 0.484453 153 76 0
-0.162829 -0.007379 0.448586 153 76 0
-0.219204 0.468538 -0.310626 204 51 127
0.392097 0.197822 0.048233 0 0 255
-0.467106 0.140050 -0.360238 153 0 76
-0.265326 0.555981 -0.327624 204 51 127
0.397011 0.129208 0.380728 204 51 127
0.457050 -0.782158 -0.411764 153 76 0
-0.417248 0.148557 -0.047312 153 0 76
0.231324 -0.027360 0.480386 153 76 0
-0.135608 -0.047922 0.186391 153 76 0
0.086463 0.655196 -0.346911 204 51 127
0.391428 0.232132 0.275860 0 0 255
-0.249076 -0.040857 -0.030138 153 76 0
-0.014449 -0.074382 -0.192007 153 0 76
0.436876 0.149795 0.314571 0 0 255
-0.036260 -0.058098 0.040860 153 76 0
-0.201273 -0.050045 -0.161536 153 76 0
0.363711 -0.110206 0.178088 0 127 127
-0.440444 0.193676 -0.010972 153 0 76
0.101996 -0.075249 -0.204411 153 0 76
-0.394246 -0.008863 0.427391 153 76 0
-0.288484 -0.073675 -0.181893 153 0 76
-0.096056 -0.022760 0.228640 153 76 0
0.276047 -0.040634 0.290573 153 76 0
0.071986 -0.079987 -0.203276 153 0 76
-0.367407 -0.085058 0.040305 76 153 0
0.396989 0.052840 -0.350337 76 0 153
0.484972 0.194976 0.007674 0 0 255
0.396981 -0.437633 -0.333183 153 76 0
0.013502 0.651900 -0.346270 204 51 127
-0.077334 -0.121677 0.443707 76 0 153
0.448595 0.279576 -0.296462 204 51 127
-0.442783 0.206871 0.178546 153 0 76
0.440512 0.171215 -0.331973 76 0 153
-0.268725 -0.032885 0.083864 153 76 0
0.132012 0.627282 -0.341485 204 51 127
0.292451 0.264780 -0.293585 204 51 127
-0.400640 -0.057654 -0.063060 76 153 0
0.001209 -0.179289 -0.196332 153 0 76
0.092682 -0.037502 0.335375 153 76 0
0.396942 -0.045151 0.382982 0 127 127
0.482626 0.178226 -0.231864 0 0 255
-0.445707 -0.661895 -0.405462 76 0 153
0.450788 0.221339 -0.359193 76 0 153
-0.505886 0.227120 0.446981 153 0 76
-0.400638 0.066771 0.383855 76 0 153
0.204303 -0.167421 0.446905 76 0 153
0.156091 -0.040476 -0.024748 153 76 0
-0.013975 -0.149246 -0.198433 153 0 76
-0.355290 -0.026906 0.486921 153 76 0
0.324386 -0.025537 0.506464 153 76 0
-0.467107 -0.163853 -0.365072 76 153 0
-0.400640 -0.159715 -0.092938 76 153 0
-0.223531 0.668023 -0.387072 204 51 127
-0.421523 -0.433720 0.465527 153 0 76
-0.395110 0.243508 0.266930 153 0 76
-0.450482 0.196894 0.284664 153 0 76
-0.416624 -0.450736 0.466717 153 0 76
0.391429 0.220332 0.192208 0 0 255
-0.400642 -0.399650 0.455442 153 0 76
-0.358045 0.554318 -0.327300 204 51 127
-0.335350 0.490434 -0.337449 204 51 127
-0.279815 -0.077756 -0.240264 153 0 76
-0.432868 0.236265 0.121636 153 0 76
0.433699 0.232489 0.067758 0 0 255
-0.400640 0.383457 -0.332120 204 51 127
0.286681 -0.056823 -0.258539 153 76 0
-0.367407 -0.033791 0.396091 76 153 0
-0.400642 -0.403619 0.430107 153 0 76
0.180074 -0.004917 0.483760 153 76 0
0.457373 0.191173 -0.046587 0 0 255
0.396942 -0.601576 0.415619 76 0 153
0.363720 -0.201249 -0.342653 0 127 127
0.396942 -0.670624 0.465943 76 0 153
-0.357492 -0.075561 -0.208859 153 0 76
0.387358 0.425941 -0.302346 204 51 127
-0.400643 -0.563743 0.430334 153 0 76
0.016449 -0.045906 -0.102381 153 76 0
0.347418 -0.009278 0.421370 153 76 0
-0.379632 -0.047753 0.188812 76 153 0
0.396942 -0.211722 0.424440 0 127 127
0.181929 -0.020618 0.259234 153 76 0
-0.467106 0.244190 -0.319274 153 0 76
-0.367408 -0.166492 -0.243477 76 153 0
0.463419 -0.289657 -0.380978 153 76 0
0.451386 0.254785 0.413864 0 0 255
-0.477281 0.223437 0.414532 153 0 76
0.363712 -0.076232 -0.211577 153 76 0
0.370898 -0.042415 -0.052519 153 76 0
-0.361728 -0.096107 0.441919 76 153 0
-0.450482 0.133436 -0.038950 153 0 76
-0.467099 0.133784 0.386726 76 0 153
-0.320439 -0.084903 -0.202932 153 0 76
-0.119744 -0.069289 -0.119172 153 76 0
0.353883 -0.036367 0.033978 153 76 0
-0.400641 -0.666411 -0.392119 76 0 153
0.400734 0.192285 -0.030874 0 0 255
0.396963 0.065760 -0.313723 76 0 153
-0.367407 -0.205208 -0.084070 76 153 0
0.305178 -0.030426 0.436547 76 0 153
-0.467108 -0.387489 0.440775 153 0 76
-0.085816 -0.062694 0.439583 76 0 153
0.363712 -0.099087 -0.179307 153 0 76
0.129634 -0.013907 0.355208 153 76 0
-0.451394 0.187813 -0.294387 153 0 76
-0.467108 -0.267969 0.445288 153 0 76
-0.215760 -0.121261 0.443678 76 0 153
0.277487 0.244100 -0.275674 204 51 127
0.413603 0.155749 -0.314701 76 0 153
-0.457578 0.227911 -0.292287 204 51 127
-0.386241 -0.197202 0.272657 76 153 0
-0.281157 -0.030687 0.432854 153 76 0
0.099074 -0.129161 0.444230 76 0 153
0.174595 -0.143317 -0.198848 153 0 76
0.416674 -0.229900 -0.316275 0 127 127
0.205631 -0.156302 0.479442 76 0 153
0.180513 0.553459 -0.327135 204 51 127
0.143400 -0.035310 0.366719 153 76 0
0.163491 0.670722 -0.384666 204 51 127
0.114627 -0.050685 0.146854 153 76 0
0.122409 0.362096 -0.312503 204 51 127
0.034733 -0.070835 -0.141294 153 76 0
-0.421304 -0.296058 0.389274 153 0 76
0.096807 -0.020533 0.260466 153 76 0
-0.476457 0.256215 -0.291915 204 51 127
-0.400641 -0.178698 0.288769 76 153 0
-0.034174 0.297120 -0.277303 204 51 127
0.135898 -0.016343 0.320376 153 76 0
-0.395107 0.207623 -0.042840 153 0 76
-0.085929 -0.037344 0.337655 153 76 0
-0.317179 -0.064302 -0.047858 153 76 0
0.427453 0.248547 0.309132 0 0 255
-0.489376 0.209467 -0.261566 153 0 76
-0.347547 0.272091 -0.272433 204 51 127
-0.261151 0.300562 -0.300537 204 51 127
-0.171071 -0.046614 0.205096 153 76 0
0.121681 -0.031956 0.097091 153 76 0
-0.466755 0.129319 0.359481 76 0 153
0.185147 -0.183296 -0.196052 153 0 76
0.020118 -0.155105 -0.198023 153 0 76
-0.122487 -0.027173 0.165529 153 76 0
-0.424696 0.574540 -0.353799 204 51 127
0.011559 0.242898 -0.281788 204 51 127
-0.467108 -0.607441 0.427364 153 0 76
0.396949 0.397754 -0.324400 76 0 153
-0.467096 0.204854 0.401550 153 0 76
0.490956 0.182783 -0.166779 0 0 255
0.396942 -0.338681 0.419277 76 0 153
0.123100 0.298819 -0.277636 204 51 127
-0.143393 -0.191245 -0.228786 153 0 76
0.067263 0.455973 -0.308185 204 51 127
0.419016 -0.609541 0.477821 76 0 153
0.449636 0.455280 -0.330615 76 0 153
-0.396580 -0.077346 -0.234385 76 153 0
-0.400641 -0.474560 -0.382385 76 0 153
-0.301635 -0.061434 0.472809 153 76 0
-0.205366 0.409898 -0.299226 204 51 127
0.363711 -0.140632 0.110710 0 127 127
-0.173294 0.337280 -0.307676 204 51 127
0.392347 0.231709 0.056423 0 0 255
-0.258707 -0.184107 -0.195995 153 0 76
0.363715 -0.098832 -0.292130 0 127 127
-0.354515 -0.062375 -0.020291 153 76 0
0.463426 -0.446599 -0.330912 153 76 0
0.489904 0.249336 0.322673 0 0 255
-0.124336 0.541324 -0.324776 204 51 127
0.396962 -0.113892 -0.115501 0 127 127
-0.467104 -0.357918 0.416750 153 0 76
0.215021 -0.032644 0.087237 153 76 0
-0.475393 0.216997 -0.153893 153 0 76
0.463415 0.190732 -0.344769 76 0 153
-0.378777 -0.046529 0.206309 76 153 0
-0.367407 -0.138169 0.081027 76 153 0
-0.049120 -0.050075 0.155598 153 76 0
0.017691 0.359462 -0.311989 204 51 127
0.004681 -0.063992 -0.043436 153 76 0
0.438264 -0.324848 -0.387806 153 76 0
-0.505885 0.226633 0.211055 153 0 76
0.383476 -0.126462 -0.377415 0 127 127
0.363711 -0.137917 -0.052697 0 127 127
-0.151539 0.553475 -0.327138 204 51 127
-0.395461 -0.231392 -0.216288 76 153 0
-0.459376 0.212746 0.261758 153 0 76
0.414591 0.484282 -0.336253 76 0 153
0.398497 0.185142 -0.133051 0 0 255
-0.104328 -0.043744 0.246126 153 76 0
0.255890 0.382058 -0.316383 204 51 127
0.397002 -0.544525 -0.399235 153 76 0
-0.004038 0.593272 -0.334874 204 51 127
0.446089 -0.459044 0.467297 76 0 153
-0.400642 -0.042540 0.328308 76 153 0
-0.400643 -0.685580 0.453378 153 0 76
-0.248169 -0.042000 0.271079 153 76 0
0.375845 0.647194 -0.345356 204 51 127
0.435167 0.114016 -0.197118 0 0 255
0.209470 0.449521 -0.329496 204 51 127
0.363710 -0.100569 0.205309 0 127 127
0.288450 -0.027697 0.157965 153 76 0
0.451550 0.404421 -0.320729 76 0 153
0.204632 -0.090419 0.474835 76 0 153
0.113982 -0.051924 0.129141 153 76 0
0.495042 0.232964 0.074797 0 0 255
-0.395104 0.200593 -0.246699 153 0 76
0.441655 0.188550 0.422014 0 0 255
-0.125092 -0.088023 -0.236004 153 0 76
-0.451248 -0.552729 -0.399743 76 0 153
0.419575 -0.156506 0.479456 76 0 153
-0.428814 0.123398 -0.061283 153 0 76
-0.367725 -0.206352 -0.381601 76 153 0
-0.022470 -0.035719 0.360887 153 76 0
0.391420 0.226930 0.441784 0 0 255
-0.026132 -0.055577 -0.240680 153 76 0
-0.395107 0.218000 -0.023578 153 0 76
-0.370998 -0.013643 0.359040 153 76 0
-0.440811 0.342435 -0.286108 204 51 127
-0.367407 -0.134124 0.040222 76 153 0
0.157851 0.457083 -0.308401 204 51 127
-0.229301 -0.006258 0.464633 153 76 0
0.467966 0.632553 -0.368693 204 51 127
-0.467106 0.062209 -0.327664 153 0 76
-0.024242 -0.068259 -0.104444 153 76 0
0.060547 -0.159831 0.446375 76 0 153
0.463408 -0.555844 0.415657 76 0 153
-0.492704 0.200687 0.089251 153 0 76
-0.038768 0.582668 -0.332813 204 51 127
0.433189 0.639886 -0.385857 204 51 127
-0.367407 -0.136919 -0.104850 76 153 0
0.149340 0.634971 -0.379465 204 51 127
0.260409 -0.076207 -0.218122 153 0 76
-0.450482 0.161432 0.238694 153 0 76
0.417591 0.215610 -0.292936 0 0 255
0.356696 0.555313 -0.350062 204 51 127
-0.164370 0.283905 -0.274733 204 51 127
-0.054261 -0.045018 0.227910 153 76 0
-0.291520 -0.048662 0.175813 153 76 0
0.380370 -0.195044 0.305169 0 127 127
0.397016 -0.016323 0.388320 204 51 127
-0.417247 0.165639 -0.202045 153 0 76
-0.010143 0.461350 -0.331797 204 51 127
-0.071437 0.585950 -0.333450 204 51 127
-0.395977 0.185839 -0.123042 153 0 76
-0.463694 0.074196 -0.366903 153 0 76
-0.367407 -0.128849 -0.029797 76 153 0
0.279813 -0.009326 0.420699 153 76 0
-0.067592 -0.035351 0.366147 153 76 0
-0.467108 -0.524806 0.407142 153 0 76
0.477144 0.531595 -0.322883 204 51 127
-0.044836 -0.198031 -0.228312 153 0 76
0.382787 -0.233408 -0.245141 0 127 127
0.485565 0.476445 -0.319369 204 51 127
-0.170823 -0.010640 0.401958 153 76 0
0.397005 -0.644779 -0.372651 153 76 0
0.396942 -0.116281 0.432976 76 0 153
-0.186228 -0.006448 0.461905 153 76 0
-0.424070 0.178160 -0.361456 153 0 76
0.502212 0.233771 0.151653 0 0 255
0.363711 -0.160314 0.037743 0 127 127
-0.122071 -0.064075 -0.044612 153 76 0
-0.146932 -0.043048 0.256092 153 76 0
0.467177 0.647181 -0.390222 204 51 127
0.377191 -0.047560 -0.126090 153 76 0
-0.386689 -0.051065 0.141440 76 153 0
0.106006 -0.042501 0.263890 153 76 0
0.177233 -0.048945 -0.145869 153 76 0
-0.134526 -0.050058 0.438699 76 0 153
-0.079792 -0.032117 0.094826 153 76 0
0.387811 -0.031407 0.104903 0 127 127
-0.443141 -0.184831 0.381496 76 0 153
-0.400641 -0.151290 0.317800 76 153 0
0.459703 -0.685829 0.416528 76 0 153
0.085482 -0.022293 0.235297 153 76 0
0.396959 -0.166817 -0.208514 0 127 127
-0.050296 -0.062517 -0.022338 153 76 0
0.391439 0.191230 -0.228942 0 0 255
-0.214615 -0.023685 0.215418 153 76 0
-0.367407 -0.196025 -0.207247 76 153 0
0.397009 0.067080 0.375618 204 51 127
0.002495 0.633028 -0.373991 204 51 127
0.463413 0.287453 -0.341241 76 0 153
-0.400642 0.213164 -0.296638 153 0 76
-0.463888 0.359664 -0.312026 204 51 127
-0.112366 -0.015120 0.337886 153 76 0
-0.220912 -0.025679 0.504451 153 76 0
0.420471 -0.729375 0.486201 76 0 153
-0.467107 -0.319683 -0.346498 76 0 153
0.368101 -0.045396 0.438372 0 127 127
-0.417379 0.352639 -0.352316 153 0 76
0.419438 0.155064 -0.362665 76 0 153
-0.322547 -0.051364 -0.180384 153 76 0
0.431670 -0.087767 0.441335 76 0 153
-0.044079 -0.067730 -0.096883 153 76 0
0.446360 -0.032334 -0.305924 76 0 153
0.168826 -0.013108 0.366634 153 76 0
-0.042704 -0.060362 0.008477 153 76 0
-0.467106 0.168758 -0.300875 153 0 76
0.114795 0.570066 -0.330363 204 51 127
0.082349 -0.019779 0.271238 153 76 0
0.473918 0.311613 -0.302689 204 51 127
0.381339 -0.064547 -0.051400 0 127 127
-0.099084 -0.070569 -0.137484 153 76 0
-0.416156 -0.089568 -0.375481 76 153 0
0.417669 -0.073735 0.473668 76 0 153
0.238096 0.661118 -0.348191 204 51 127
0.102039 -0.032914 0.535350 153 76 0
0.043837 -0.057294 0.052362 153 76 0
0.363710 -0.130698 0.341133 0 127 127
0.392487 -0.228946 -0.181144 0 127 127
0.437242 -0.203006 -0.314865 0 127 127
0.321237 0.665910 -0.388488 204 51 127
-0.467107 -0.026715 -0.352876 153 0 76
0.363715 -0.160692 -0.271666 0 127 127
-0.489261 0.572549 -0.347008 204 51 127
-0.435257 0.210964 0.236866 153 0 76
-0.395106 0.212394 -0.101599 153 0 76
0.398463 0.199123 0.066897 0 0 255
-0.055250 -0.130684 -0.199731 153 0 76
0.446777 0.130612 -0.172519 0 0 255
0.457259 -0.800950 0.475412 76 0 153
-0.082515 -0.230833 -0.208299 153 0 76
-0.145123 -0.039575 -0.011813 153 76 0
0.160499 0.498810 -0.339077 204 51 127
-0.263179 -0.002821 0.514349 153 76 0
-0.256041 0.347721 -0.309705 204 51 127
0.005016 -0.056150 -0.248869 153 76 0
0.289662 -0.031865 0.098361 153 76 0
-0.202386 -0.183664 0.466266 76 0 153
-0.367408 -0.182394 -0.344487 76 153 0
-0.187303 -0.063295 0.439625 76 0 153
-0.467108 -0.697196 -0.356180 76 0 153
-0.097346 -0.056323 0.066245 153 76 0
0.027505 -0.068566 -0.108843 153 76 0
0.240127 -0.047857 0.187289 153 76 0
0.485565 0.392104 -0.317199 204 51 127
-0.467105 -0.054635 0.389652 76 0 153
0.240163 -0.006436 0.462031 153 76 0
-0.417249 0.144664 -0.002318 153 0 76
-0.396603 -0.043064 0.527438 153 76 0
0.376755 -0.199182 0.245793 0 127 127
-0.416064 -0.052385 -0.306970 76 153 0
0.397004 -0.615007 -0.383754 153 76 0
-0.314890 0.631997 -0.364969 204 51 127
-0.367406 -0.175623 0.362737 76 153 0
0.084250 -0.113310 -0.200946 153 0 76
-0.008675 -0.134152 0.444579 76 0 153
-0.395110 0.228926 0.243119 153 0 76
0.397877 0.248817 0.313504 0 0 255
0.401223 -0.438594 0.399240 76 0 153
-0.225166 0.351000 -0.287776 204 51 127
-0.400640 -0.140997 -0.183884 76 153 0
0.244367 -0.067020 -0.086738 153 76 0
-0.400641 -0.746500 -0.392927 76 0 153
0.396946 -0.034722 0.335296 0 127 127
-0.248666 -0.162592 -0.230790 153 0 76
-0.338732 -0.034730 0.375048 153 76 0
0.237683 -0.007954 0.440320 153 76 0
-0.374979 -0.131535 -0.377681 76 153 0
-0.465167 -0.282614 0.454961 153 0 76
0.286201 0.674990 -0.378244 204 51 127
0.431283 -0.502853 0.470361 76 0 153
-0.467098 0.171388 0.376390 153 0 76
-0.421126 -0.129677 0.377639 76 0 153
0.363710 -0.178344 0.214648 0 127 127
0.416393 -0.471611 0.468176 76 0 153
0.391440 0.212541 -0.147934 0 0 255
-0.395107 0.209087 0.004992 153 0 76
0.411406 0.017679 0.367336 204 51 127
-0.400640 -0.222900 -0.303887 76 153 0
-0.420342 -0.033369 0.470846 76 0 153
-0.357873 -0.044758 0.231635 153 76 0
0.413014 0.173334 0.356451 0 0 255
0.344935 -0.040596 -0.026497 153 76 0
0.396944 -0.142525 0.296665 0 127 127
-0.467108 -0.516537 0.449339 153 0 76
0.443435 0.237842 0.144356 0 0 255
0.032659 0.557766 -0.327972 204 51 127
0.446115 -0.176072 0.447510 0 127 127
-0.074827 -0.152641 0.445872 76 0 153
-0.259163 -0.024283 0.206867 153 76 0
-0.067597 -0.045072 0.438350 76 0 153
-0.357818 -0.055141 0.083149 153 76 0
0.413609 0.171652 -0.174299 0 0 255
0.418646 -0.677455 -0.339721 153 76 0
-0.383362 -0.083654 -0.324578 76 153 0
0.219375 0.384793 -0.316915 204 51 127
0.305488 -0.039940 0.498382 153 76 0
-0.370346 -0.214756 0.021632 76 153 0
0.463410 0.443337 -0.341846 76 0 153
-0.406811 -0.769123 0.422354 153 0 76
0.161581 -0.053395 -0.209500 153 76 0
-0.193592 -0.046521 0.509766 153 76 0
0.122412 -0.035300 0.049275 153 76 0
0.482747 0.218785 0.368634 0 0 255
0.432786 -0.040193 0.471322 0 127 127
-0.400641 -0.028967 0.414894 153 76 0
0.440016 0.235179 0.106255 0 0 255
0.407477 -0.226269 -0.382644 0 127 127
-0.278522 -0.051117 0.140703 153 76 0
0.363710 -0.161524 0.246193 0 127 127
-0.241536 -0.061168 -0.003031 153 76 0
-0.367407 -0.121049 0.204753 76 153 0
-0.426732 -0.520341 -0.331484 76 0 153
0.214510 -0.068898 -0.113595 153 76 0
0.397009 0.011894 0.385987 204 51 127
0.358776 -0.021056 0.252922 153 76 0
0.063007 -0.009224 0.422182 153 76 0
0.444209 -0.521867 0.405063 76 0 153
-0.467108 -0.765616 -0.392970 76 0 153
0.287349 0.401199 -0.320103 204 51 127
-0.441393 0.221717 -0.086399 153 0 76
0.235008 -0.171365 -0.196886 153 0 76
-0.413122 -0.213395 0.383493 153 0 76
0.397003 -0.592165 -0.397920 153 76 0
0.345711 -0.141536 0.445096 76 0 153
0.475720 0.221758 0.418460 0 0 255
-0.217662 -0.092960 0.441699 76 0 153
-0.400640 -0.520431 -0.364683 76 0 153
0.446794 0.193709 0.225766 0 0 255
-0.463972 -0.311757 -0.320557 76 0 153
-0.129228 -0.204903 -0.227831 153 0 76
-0.311175 -0.010587 0.402728 153 76 0
-0.357612 -0.032068 0.095564 153 76 0
-0.079624 -0.010804 0.531688 153 76 0
0.396959 -0.165844 -0.277435 0 127 127
0.396972 0.011028 -0.304703 76 0 153
0.164309 -0.095068 0.441846 76 0 153
-0.400642 -0.127886 0.263432 76 153 0
-0.114747 -0.188864 -0.228953 153 0 76
0.186359 -0.031130 0.108897 153 76 0
0.214371 -0.040692 0.289748 153 76 0
0.481314 0.211434 -0.233218 0 0 255
0.410526 -0.535096 0.405988 76 0 153
0.481649 0.210607 0.231389 0 0 255
0.213297 0.307944 -0.301976 204 51 127
0.458618 -0.066104 -0.307693 76 0 153
-0.400641 -0.314532 -0.385124 76 0 153
-0.249093 0.406302 -0.298526 204 51 127
0.148685 -0.038185 0.325605 153 76 0
0.205216 0.377679 -0.292965 204 51 127
0.349001 0.243983 -0.276204 204 51 127
0.441652 -0.213412 0.450121 76 0 153
0.297680 -0.014830 0.341984 153 76 0
0.054496 -0.029770 0.445940 153 76 0
-0.321473 0.303863 -0.301179 204 51 127
0.463415 0.193081 0.407100 0 0 255
0.071965 -0.059968 -0.260199 153 76 0
0.115016 -0.183732 0.448046 76 0 153
0.279524 -0.049941 0.157483 153 76 0
0.413627 0.166964 0.247897 0 0 255
-0.061679 0.505385 -0.340356 204 51 127
0.008352 -0.031975 0.414424 153 76 0
0.226466 -0.013247 0.364639 153 76 0
-0.467105 -0.421517 0.412765 153 0 76
-0.043000 -0.076233 -0.218478 153 0 76
-0.161767 0.658170 -0.347489 204 51 127
0.019247 -0.058823 0.030494 153 76 0
0.363710 -0.179979 0.405432 0 127 127
-0.249343 -0.071059 -0.144481 153 76 0
-0.024912 -0.125805 -0.233362 153 0 76
0.396990 -0.007237 -0.354452 76 0 153
-0.400642 -0.294194 0.413539 153 0 76
-0.122481 0.331281 -0.283943 204 51 127
0.371222 -0.005555 0.474610 153 76 0
0.399390 0.253308 0.388843 0 0 255
-0.440343 -0.212477 -0.381920 76 153 0
-0.488160 0.256643 0.413060 153 0 76
0.169529 -0.009083 0.424185 153 76 0
0.222967 0.463135 -0.309577 204 51 127
-0.449547 -0.426259 0.465006 153 0 76
-0.400642 0.254807 -0.308155 204 51 127
0.363621 -0.007243 0.450468 153 76 0
0.220744 -0.069662 0.440070 76 0 153
-0.400641 -0.037989 0.238274 153 76 0
0.140367 0.498354 -0.316423 204 51 127
-0.459749 -0.756571 0.488103 153 0 76
0.414132 -0.159247 0.379706 0 127 127
0.446775 0.130325 -0.224344 0 0 255
0.219486 -0.036366 0.351612 153 76 0
0.272144 -0.058926 0.029005 153 76 0
-0.433619 0.122041 -0.080629 153 0 76
0.411410 0.204130 0.138600 0 0 255
0.459278 0.212773 0.267698 0 0 255
0.463411 0.344658 -0.320811 204 51 127
0.396995 -0.556890 -0.342233 153 76 0
0.396942 -0.297900 0.425090 76 0 153
0.195123 -0.031871 0.415889 153 76 0
0.406048 0.210182 0.225103 0 0 255
0.246262 0.257935 -0.292253 204 51 127
0.463407 -0.721315 0.478645 76 0 153
0.396486 -0.226937 -0.152324 0 127 127
-0.450482 0.200448 0.238825 153 0 76
-0.249466 0.602149 -0.336599 204 51 127
-0.320824 0.320764 -0.304464 204 51 127
-0.080277 -0.112765 0.476398 76 0 153
-0.335324 0.660625 -0.348044 204 51 127
0.452226 -0.452301 0.400198 76 0 153
0.410825 -0.182986 0.475944 76 0 153
-0.310776 0.643203 -0.388322 204 51 127
0.419362 -0.198041 0.449046 76 0 153
-0.199515 -0.034874 0.372976 153 76 0
-0.359372 -0.036169 0.036912 153 76 0
-0.423721 0.636315 -0.381751 204 51 127
-0.400643 -0.624080 0.460856 153 0 76
-0.117811 -0.005201 0.479733 153 76 0
0.251796 0.507450 -0.318191 204 51 127
0.319315 -0.018558 0.288653 153 76 0
0.461541 0.135462 0.425725 204 51 127
0.102968 0.282256 -0.296980 204 51 127
0.137010 -0.150886 -0.231609 153 0 76
-0.422538 -0.233916 -0.383042 76 153 0
0.442872 -0.109917 0.442884 0 127 127
0.463412 -0.033938 0.424318 0 127 127
0.056751 -0.037743 0.331935 153 76 0
0.463411 -0.213713 0.403292 76 0 153
0.451596 -0.187889 0.381708 0 127 127
0.039992 -0.041319 -0.036790 153 76 0
-0.188351 -0.102177 0.475657 76 0 153
-0.467108 -0.732263 -0.382007 76 0 153
0.493498 0.244752 0.245815 0 0 255
-0.363508 0.257975 -0.292258 204 51 127
-0.072852 -0.047557 0.191610 153 76 0
-0.089925 -0.141639 -0.232255 153 0 76
-0.367406 -0.170046 0.413820 76 153 0
-0.472954 0.208230 0.197082 153 0 76
0.448850 0.188062 0.355419 0 0 255
0.046567 -0.047179 -0.120586 153 76 0
0.061391 -0.005348 0.477617 153 76 0
-0.367407 -0.149884 0.115814 76 153 0
-0.418279 -0.095342 0.375238 76 0 153
-0.474453 0.182994 -0.163752 153 0 76
0.144026 -0.056559 0.062855 153 76 0
-0.343616 0.635102 -0.379718 204 51 127
-0.467108 -0.763234 0.444343 153 0 76
-0.492947 0.182968 -0.164122 153 0 76
0.278970 -0.048783 -0.143558 153 76 0
0.107553 -0.051752 -0.186003 153 76 0
-0.367407 -0.100588 0.226299 76 153 0
0.463422 -0.335560 -0.366476 153 76 0
0.501954 0.224170 0.459046 0 0 255
-0.043761 -0.217543 -0.226947 153 0 76
-0.409928 -0.262873 0.453581 153 0 76
0.090217 -0.059894 0.015171 153 76 0
-0.121661 -0.050459 0.150110 153 76 0
0.424782 -0.800950 0.483057 76 0 153
0.198580 -0.074575 -0.194785 153 0 76
-0.367407 -0.110644 0.359555 76 153 0
0.324571 -0.183533 0.468121 76 0 153
0.443353 0.055948 -0.367857 76 0 153
-0.400640 -0.713697 -0.369290 76 0 153
0.414912 -0.721915 0.419051 76 0 153
0.449882 -0.351281 0.459762 76 0 153
0.402990 -0.196712 -0.381096 0 127 127
0.020128 -0.043225 -0.064041 153 76 0
-0.412041 -0.235939 0.451697 153 0 76
-0.308510 -0.013435 0.362000 153 76 0
0.396979 -0.266224 -0.337242 153 76 0
0.426365 0.212267 0.259041 0 0 255
-0.400640 -0.198864 -0.328104 76 153 0
0.434439 -0.147373 0.445503 0 127 127
0.054648 0.471995 -0.311299 204 51 127
0.019269 0.653217 -0.391485 204 51 127
-0.400641 -0.160269 -0.025003 76 153 0
-0.244784 0.527278 -0.322045 204 51 127
0.150814 0.567955 -0.329953 204 51 127
0.316492 0.591149 -0.357029 204 51 127
0.351258 0.462509 -0.332020 204 51 127
-0.124949 -0.215910 -0.193771 153 0 76
-0.391844 0.657303 -0.391375 204 51 127
0.226000 -0.096892 -0.235384 153 0 76
0.299458 -0.040788 -0.029231 153 76 0
-0.171931 -0.062768 -0.025916 153 76 0
-0.029799 -0.174229 -0.229976 153 0 76
-0.177928 -0.026829 0.488011 153 76 0
0.201934 -0.052006 0.127962 153 76 0
-0.237697 -0.046181 0.521041 153 76 0
-0.400640 -0.774521 -0.373196 76 0 153
-0.430487 -0.217611 -0.315625 76 153 0
-0.183312 0.310072 -0.302387 204 51 127
-0.400637 0.080705 0.413903 76 0 153
-0.226475 0.503095 -0.317344 204 51 127
-0.135011 -0.030018 0.442418 76 0 153
-0.346212 -0.217734 -0.226933 153 0 76
0.314603 0.467761 -0.333041 204 51 127
0.124530 -0.025006 0.514077 153 76 0
-0.400634 0.136156 0.416974 76 0 153
0.433712 0.085758 0.429202 204 51 127
-0.435280 -0.180394 -0.380239 76 153 0
0.119903 -0.145231 0.445354 76 0 153
0.497663 0.199214 0.068431 0 0 255
0.406390 0.241176 0.191873 0 0 255
-0.445222 0.375649 -0.292565 204 51 127
-0.379118 -0.083821 0.474374 76 0 153
-0.193413 0.375505 -0.315107 204 51 127
-0.050877 -0.029637 0.447851 153 76 0
-0.431297 0.256840 0.415854 153 0 76
0.454138 -0.557136 -0.333418 153 76 0
0.490649 0.191134 -0.047280 0 0 255
0.485565 0.460923 -0.328432 204 51 127
-0.455037 -0.779747 -0.411636 76 0 153
-0.039887 0.675447 -0.377110 204 51 127
0.321051 -0.058299 0.037960 153 76 0
0.443455 -0.030265 0.438831 0 127 127
-0.013392 -0.092742 -0.235674 153 0 76
-0.060628 -0.029552 0.131504 153 76 0
-0.400640 -0.215831 -0.268659 76 153 0
0.239152 0.374332 -0.292315 204 51 127
0.396982 0.344540 -0.347726 76 0 153
0.195124 -0.045087 0.523963 153 76 0
-0.395104 0.215191 -0.164865 153 0 76
-0.092392 -0.040082 0.498494 153 76 0
-0.378297 0.316643 -0.281094 204 51 127
0.382040 -0.024389 0.205267 153 76 0
-0.416674 0.412202 -0.322240 204 51 127
0.404580 -0.057603 0.472540 76 0 153
-0.250917 -0.029151 0.137264 153 76 0
0.396942 -0.636343 0.430625 76 0 153
0.265442 -0.200820 -0.194827 153 0 76
-0.313947 -0.151176 -0.198297 153 0 76
0.453424 0.169461 -0.361910 76 0 153
0.483308 0.204512 -0.293516 76 0 153
-0.415579 0.016439 0.367407 76 0 153
0.438008 0.540338 -0.347151 204 51 127
0.363711 -0.182760 0.073709 0 127 127
0.410871 -0.040842 0.438054 0 127 127
-0.456683 -0.005191 -0.371061 153 0 76
-0.484787 0.174363 -0.287165 153 0 76
-0.140199 -0.071873 -0.156136 153 0 76
0.445700 0.293945 -0.355389 76 0 153
-0.445775 -0.588119 0.409697 153 0 76
-0.120793 0.509082 -0.341075 204 51 127
-0.029491 -0.186243 -0.195846 153 0 76
-0.103290 -0.110353 -0.234443 153 0 76
-0.423989 -0.061533 0.439494 76 0 153
-0.417247 0.197781 0.274435 153 0 76
0.434829 -0.124166 0.477194 76 0 153
0.173436 -0.071117 -0.145327 153 76 0
0.391430 0.228493 0.220958 0 0 255
0.235408 -0.084742 -0.202944 153 0 76
-0.426795 0.114620 -0.186292 153 0 76
-0.440260 0.241960 0.203070 153 0 76
0.430929 0.266094 -0.271269 204 51 127
0.409553 0.181037 -0.191664 0 0 255
0.341226 0.470590 -0.311026 204 51 127
0.463414 0.068967 0.412595 204 51 127
0.310926 0.285527 -0.297619 204 51 127
0.466669 0.675481 -0.377020 204 51 127
-0.107874 -0.025278 0.510182 153 76 0
0.306584 -0.195220 -0.228509 153 0 76
0.242593 -0.054687 0.472336 153 76 0
0.097313 -0.053450 -0.210274 153 76 0
-0.450236 0.564260 -0.351801 204 51 127
-0.233390 0.318058 -0.303939 204 51 127
0.443649 -0.531793 0.472384 76 0 153
0.449687 0.251632 -0.357606 76 0 153
0.279820 0.379336 -0.293288 204 51 127
0.290339 -0.039689 0.531242 153 76 0
-0.107627 -0.020147 0.265996 153 76 0
-0.239610 -0.088030 -0.236003 153 0 76
0.463415 0.153447 -0.328030 76 0 153
0.025256 -0.145527 -0.231983 153 0 76
0.463430 -0.674588 -0.353587 153 76 0
-0.467105 -0.289473 0.428281 153 0 76
0.025177 -0.008907 0.426724 153 76 0
0.169370 0.675850 -0.362839 204 51 127
0.405887 0.208399 -0.276867 0 0 255
-0.463892 0.491251 -0.337607 204 51 127
0.104004 0.257621 -0.292191 204 51 127
-0.467107 -0.182951 -0.336615 76 153 0
-0.051575 0.392211 -0.318355 204 51 127
-0.130683 0.673224 -0.357249 204 51 127
0.396999 -0.403293 -0.357687 153 76 0
-0.204898 -0.042415 0.528330 153 76 0
-0.189041 -0.154964 -0.198033 153 0 76
-0.419788 -0.788486 -0.345530 76 0 153
-0.400643 -0.753007 0.472875 153 0 76
0.463413 0.201578 -0.315746 76 0 153
-0.467098 0.059193 0.414721 76 0 153
0.396997 -0.305493 -0.372932 153 76 0
0.086305 -0.042157 -0.048783 153 76 0
0.432359 -0.245330 0.385725 76 0 153
-0.395110 0.237205 0.300675 153 0 76
-0.401728 -0.274737 0.387783 153 0 76
-0.467108 -0.676029 -0.385577 76 0 153
0.155875 -0.025861 0.501823 153 76 0
0.396956 -0.234330 -0.284768 0 127 127
-0.453206 -0.306786 -0.386860 76 0 153
-0.400615 0.221079 0.380964 153 0 76
-0.499293 0.258540 0.440203 153 0 76
-0.110843 -0.016731 0.314847 153 76 0
-0.145807 -0.028455 0.536543 153 76 0
-0.397871 0.222960 -0.068649 153 0 76
0.463407 -0.714141 0.437153 76 0 153
0.498277 0.223971 -0.053882 0 0 255
-0.370465 -0.056273 0.066964 153 76 0
0.363712 -0.212050 -0.074558 0 127 127
0.195083 -0.049733 -0.157137 153 76 0
-0.395106 0.198619 -0.088855 153 0 76
0.206464 -0.206537 -0.227717 153 0 76
-0.400640 0.062347 -0.340948 153 0 76
-0.326423 0.545705 -0.348194 204 51 127
0.273395 -0.138379 0.444875 76 0 153
-0.409047 -0.419384 0.464525 153 0 76
0.226471 -0.024978 0.514472 153 76 0
-0.382946 -0.241173 -0.354361 76 153 0
0.396961 -0.125912 -0.147223 0 127 127
0.444970 0.199934 -0.360314 76 0 153
-0.304107 -0.005895 0.469816 153 76 0
0.457438 -0.642140 -0.404428 153 76 0
-0.505887 0.241547 0.401752 153 0 76
0.341647 -0.186569 -0.195823 153 0 76
0.468469 0.252794 0.380568 0 0 255
0.102531 -0.025110 0.194998 153 76 0
-0.209804 -0.027418 0.479591 153 76 0
0.443273 -0.736735 -0.342827 153 76 0
-0.310685 -0.065957 -0.071517 153 76 0
-0.249039 -0.008385 0.434220 153 76 0
-0.453715 0.226029 -0.024737 153 0 76
0.458254 0.209947 -0.254494 0 0 255
0.150458 -0.033046 0.399084 153 76 0
0.440877 0.311299 -0.280057 204 51 127
-0.450482 0.148822 0.023590 153 0 76
-0.212608 -0.178744 -0.229660 153 0 76
0.192389 -0.052198 -0.192393 153 76 0
-0.445676 -0.358390 0.460260 153 0 76
-0.383142 -0.079265 -0.261849 76 153 0
0.077928 -0.012072 0.381450 153 76 0
-0.445592 -0.800950 0.486568 153 0 76
-0.459701 0.002583 -0.304090 153 0 76
0.117432 -0.088836 0.474724 76 0 153
0.379931 -0.052753 -0.200352 153 76 0
0.185327 -0.054513 0.092118 153 76 0
0.233097 0.674173 -0.358849 204 51 127
-0.483171 0.255116 0.391224 153 0 76
0.223512 -0.011600 0.388190 153 76 0
0.056480 0.547672 -0.326010 204 51 127
0.381862 -0.221878 -0.079736 0 127 127
-0.400641 -0.199288 0.039728 76 153 0
-0.395730 -0.004068 0.495954 153 76 0
0.496073 0.230151 0.034544 0 0 255
-0.223218 -0.004746 0.486241 153 76 0
0.123760 -0.049086 -0.147875 153 76 0
0.267953 0.273452 -0.295271 204 51 127
0.240422 -0.052342 0.123153 153 76 0
0.363712 -0.140436 -0.086009 0 127 127
-0.455977 -0.593379 -0.335309 76 0 153
0.396972 0.194506 -0.300791 204 51 127
0.485565 0.612568 -0.348460 204 51 127
0.391155 0.569952 -0.352908 204 51 127
0.418376 -0.466474 0.401189 76 0 153
-0.470685 0.500873 -0.316909 204 51 127
-0.406588 -0.629644 -0.403772 76 0 153
-0.431984 0.145058 0.247172 153 0 76
-0.000071 -0.029055 0.138603 153 76 0
0.456208 -0.774782 -0.344820 153 76 0
0.307371 -0.054928 -0.231442 153 76 0
-0.467107 -0.196512 -0.362646 76 153 0
0.396942 -0.046646 0.406465 0 127 127
0.125480 0.650630 -0.346024 204 51 127
0.409473 0.235656 0.112948 0 0 255
-0.367407 -0.090741 0.076018 76 153 0
-0.201236 -0.051005 0.142301 153 76 0
0.433840 -0.536930 -0.398918 153 76 0
0.153878 0.652539 -0.346395 204 51 127
-0.221607 -0.054551 -0.225978 153 76 0
-0.008273 0.292041 -0.298882 204 51 127
0.396942 -0.059727 0.423113 0 127 127
0.034116 0.674348 -0.379589 204 51 127
0.502221 0.194928 -0.243108 0 0 255
-0.060391 0.341126 -0.285858 204 51 127
-0.168292 -0.022161 0.237210 153 76 0
0.145439 0.304841 -0.301371 204 51 127
0.056867 -0.002897 0.516332 153 76 0
0.326150 0.480509 -0.312954 204 51 127
-0.187764 -0.098642 -0.201971 153 0 76
0.460927 0.232123 0.062642 0 0 255
-0.400642 -0.163955 0.419723 76 0 153
-0.422675 0.065251 -0.300808 153 0 76
0.265380 -0.027382 0.480071 153 76 0
0.396958 -0.204406 -0.288788 0 127 127
0.409882 0.114983 0.360531 204 51 127
0.320337 -0.112943 -0.200972 153 0 76
-0.467107 -0.390712 0.403530 153 0 76
0.427542 0.299196 -0.300276 204 51 127
0.299080 -0.119799 0.443576 76 0 153
0.129652 -0.061059 -0.001482 153 76 0
-0.088402 0.275736 -0.295712 204 51 127
-0.333807 -0.024302 0.206610 153 76 0
-0.140124 -0.012527 0.374976 153 76 0
0.470381 0.225004 -0.039115 0 0 255
-0.073444 0.434188 -0.303950 204 51 127
0.382549 -0.007151 0.527794 153 76 0
0.317448 0.544295 -0.325354 204 51 127
-0.229680 0.288717 -0.275667 204 51 127
0.446422 0.202704 0.118278 0 0 255
-0.105843 0.526003 -0.321797 204 51 127
-0.039751 -0.007878 0.441446 153 76 0
0.041976 -0.025701 0.186561 153 76 0
-0.417249 0.165613 0.343627 153 0 76
0.397002 -0.506380 -0.383154 153 76 0
-0.111976 0.654636 -0.346802 204 51 127
-0.400642 -0.230303 0.436463 153 0 76
-0.400640 -0.321031 -0.366609 76 0 153
-0.084571 -0.010689 0.401254 153 76 0
-0.091417 -0.136005 -0.199358 153 0 76
0.352827 -0.004204 0.522303 153 76 0
0.396942 -0.097479 0.403747 0 127 127
-0.329770 0.526856 -0.344530 204 51 127
0.413615 0.166710 -0.034283 0 0 255
0.221988 -0.048836 0.173289 153 76 0
-0.086777 -0.068765 -0.111691 153 76 0
-0.020906 -0.030654 0.433312 76 0 153
0.359210 -0.029591 0.130872 153 76 0
-0.351629 -0.101923 0.475640 76 0 153
0.363710 -0.150263 0.387694 0 127 127
0.427879 -0.095473 -0.375790 0 127 127
0.156761 -0.052028 0.127656 153 76 0
0.155191 -0.183357 0.470655 76 0 153
-0.240256 -0.037417 0.336619 153 76 0
-0.355704 0.581120 -0.355079 204 51 127
0.098559 -0.070524 0.473444 76 0 153
0.485568 0.633675 -0.375537 204 51 127
-0.304521 -0.143371 0.445224 76 0 153
-0.387467 0.399397 -0.297182 204 51 127
0.363710 -0.150960 0.349313 0 127 127
0.413770 -0.420958 0.398006 76 0 153
-0.382678 -0.032000 0.096527 153 76 0
0.396943 -0.042993 0.357787 0 127 127
0.227979 -0.024313 0.206367 153 76 0
-0.400643 -0.793037 0.488455 153 0 76
0.230269 -0.052581 -0.197870 153 76 0
-0.433106 0.107882 -0.282278 153 0 76
0.446795 0.170299 0.272952 0 0 255
-0.367407 -0.174195 0.203576 76 153 0
-0.085278 -0.050110 -0.162487 153 76 0
0.463407 -0.557379 0.442952 76 0 153
-0.472875 0.448240 -0.329246 204 51 127
-0.348444 -0.073736 -0.182765 153 0 76
0.413622 0.169768 0.133443 0 0 255
0.410171 -0.208313 -0.315144 0 127 127
0.396950 0.374303 -0.323272 76 0 153
0.396959 0.135833 -0.317030 76 0 153
0.368161 -0.027150 0.165775 153 76 0
-0.427321 0.543523 -0.325201 204 51 127
-0.214210 -0.078517 -0.251152 153 0 76
0.121802 -0.010722 0.400753 153 76 0
-0.383969 -0.061864 -0.012986 76 153 0
-0.303883 -0.022453 0.233041 153 76 0
0.427105 0.201587 0.102286 0 0 255
-0.367407 -0.196400 0.031097 76 153 0
-0.252815 0.661734 -0.348376 204 51 127
0.279601 -0.072247 -0.161493 153 76 0
0.121699 -0.110164 -0.234456 153 0 76
-0.439996 0.212131 -0.223479 153 0 76
0.363712 -0.159659 -0.233988 0 127 127
0.414536 0.215269 -0.178581 0 0 255
0.041904 -0.047104 0.515166 153 76 0
-0.269377 -0.086496 0.474561 76 0 153
0.396964 -0.081921 0.113669 0 127 127
0.439265 0.390320 -0.317988 204 51 127
0.096249 -0.063724 -0.259936 153 0 76
-0.367407 -0.126430 0.369604 76 153 0
0.202882 -0.028253 0.150039 153 76 0
-0.400642 -0.188951 0.427418 76 0 153
-0.401204 -0.161703 0.379879 76 153 0
-0.489261 0.490430 -0.316365 204 51 127
0.030575 -0.054686 -0.227947 153 76 0
0.416148 0.645469 -0.345021 204 51 127
-0.143434 -0.041765 0.274433 153 76 0
-0.302211 -0.018609 0.288018 153 76 0
-0.059111 -0.034226 0.064670 153 76 0
0.269224 -0.054568 -0.226294 153 76 0
-0.302516 -0.028191 0.468540 153 76 0
-0.016032 0.345214 -0.286653 204 51 127
0.446153 -0.246504 0.452435 76 0 153
0.449794 -0.198310 0.449065 76 0 153
-0.254588 0.395782 -0.319049 204 51 127
-0.446709 -0.787642 0.423649 153 0 76
-0.400631 0.201143 0.384372 153 0 76
0.463412 -0.109994 0.392522 0 127 127
0.363711 -0.134086 0.145870 0 127 127
-0.212013 -0.040273 0.498674 153 76 0
0.502217 0.193753 -0.106306 0 0 255
-0.467100 -0.035300 0.412212 76 0 153
-0.461514 -0.404818 -0.391995 76 0 153
-0.446155 -0.277258 -0.385313 76 0 153
