ply
format ascii 1.0
element vertex 1254
property float x
property float y
property float z
property uchar red
property uchar green
property uchar blue
end_header
0.485867 -0.114565 0.610347 127 0 127
-0.619831 0.134819 -0.046433 0 127 127
0.096173 -0.042338 -0.484205 127 0 127
0.559052 -0.300643 -0.238692 76 153 0
0.452881 -0.138103 -0.225978 127 0 127
-0.659696 0.228994 0.491770 0 127 127
-0.210165 0.097041 0.362116 127 0 127
-0.307703 -0.346648 0.667936 127 127 0
0.552900 -0.078052 0.537006 127 0 127
0.334968 -0.115773 0.571638 127 127 0
0.349620 -0.376860 0.342031 127 127 0
0.152973 0.163541 -0.490630 153 0 76
-0.583036 0.011491 0.623855 127 0 127
-0.650909 0.249310 0.195690 0 127 127
0.218582 -0.145765 -0.389362 127 0 127
-0.477710 -0.226506 -0.136090 127 127 0
-0.578116 -0.367840 0.075696 0 127 127
-0.385550 -0.476839 -0.279690 255 0 0
-0.577046 -0.039101 0.538078 127 0 127
0.261134 -0.398986 -0.366940 127 127 0
0.638552 0.204130 0.476521 76 153 0
0.229229 0.329874 -0.495821 153 0 76
0.293091 -0.127961 0.181115 127 127 0
-0.547712 -0.398929 -0.365096 0 127 127
-0.072734 0.019861 0.643802 127 0 127
-0.519769 -0.390485 -0.094548 0 127 127
-0.472676 0.081926 0.212127 0 127 127
0.413000 0.083776 0.598539 127 0 127
-0.583036 0.441685 -0.484619 76 0 153
0.302134 -0.186936 0.650255 127 127 0
0.193019 0.744879 -0.448406 153 0 76
0.409199 -0.475522 -0.261249 0 0 255
0.559052 0.079296 0.406354 76 153 0
-0.528228 -0.120681 -0.481760 0 127 127
-0.477710 -0.280784 0.040476 127 127 0
-0.337249 -0.195812 -0.466719 127 127 0
0.520982 0.660483 -0.422350 153 76 0
0.112359 -0.378635 0.285158 127 127 0
0.360844 -0.146559 -0.414784 127 127 0
0.355296 -0.399547 -0.384929 127 127 0
-0.056116 -0.373600 0.446466 127 127 0
0.358439 -0.462112 0.093153 0 0 255
0.610724 0.138879 -0.187262 76 153 0
0.546362 -0.252071 0.566724 127 127 0
-0.208716 -0.393008 -0.175409 127 127 0
0.055792 0.130671 -0.489604 153 0 76
0.358686 -0.141659 -0.257798 127 127 0
-0.475807 -0.383160 0.140174 0 127 127
-0.246299 -0.116170 0.558901 127 0 127
-0.419377 -0.413894 -0.403589 255 0 0
0.198954 -0.283833 0.653279 127 127 0
-0.072187 0.199758 -0.491760 153 0 76
-0.490881 0.066209 0.502699 0 127 127
0.558572 0.455246 -0.288705 153 76 0
0.440921 -0.363301 -0.029745 127 127 0
-0.328056 0.070023 0.660755 127 0 127
-0.381459 0.648058 -0.505752 153 0 76
-0.236795 -0.382071 0.175037 127 127 0
0.482912 0.121726 -0.341034 153 76 0
0.491983 0.267376 0.306987 76 153 0
-0.205929 0.725451 -0.380584 153 0 76
-0.121224 -0.135716 -0.067355 127 0 127
0.409199 -0.470143 0.249168 0 0 255
-0.374649 -0.378229 0.298149 127 127 0
0.352643 0.506498 -0.501334 153 0 76
0.372104 0.081252 0.294822 127 0 127
0.222032 -0.381358 0.197911 127 127 0
0.157880 0.047361 -0.395740 153 0 76
-0.578116 -0.030632 0.024988 0 127 127
0.453611 -0.233870 0.430677 76 153 0
-0.041553 0.092991 -0.053729 127 0 127
0.453611 0.127263 0.431396 76 153 0
0.258289 0.133975 -0.344049 153 0 76
-0.225039 -0.253338 0.652328 127 127 0
0.358498 -0.472262 0.616456 0 0 255
-0.054309 0.777314 -0.419269 153 0 76
-0.192933 0.067218 -0.393375 153 0 76
-0.537451 0.689109 -0.244102 76 0 153
0.052623 -0.313584 -0.475740 127 127 0
-0.472843 -0.363976 -0.474167 127 127 0
-0.583036 0.310860 -0.329746 76 0 153
0.491812 -0.399695 -0.389657 76 153 0
-0.217235 -0.058574 -0.483698 127 0 127
-0.578116 -0.145621 0.021500 0 127 127
0.207913 0.097633 0.271290 127 0 127
0.217899 0.079021 -0.202897 127 0 127
-0.575773 -0.388247 -0.276633 0 127 127
0.158953 0.303888 -0.322579 153 0 76
-0.247709 -0.145898 -0.393621 127 127 0
-0.130308 0.061280 -0.487438 153 0 76
0.115472 -0.382001 -0.473604 127 127 0
-0.002854 0.646819 -0.505713 153 0 76
0.338298 -0.036420 0.645558 127 0 127
-0.130927 -0.402004 -0.463638 127 127 0
-0.465021 -0.195693 0.355998 127 127 0
-0.300132 -0.128864 0.152170 127 127 0
-0.465021 -0.012523 0.315041 127 0 127
-0.386445 -0.394400 -0.219999 127 127 0
0.396877 -0.066436 -0.483453 127 0 127
-0.581816 0.793543 -0.314610 76 0 153
0.453286 0.175171 -0.244778 76 153 0
0.397559 0.059889 -0.232782 127 0 127
-0.477710 -0.065533 0.453635 127 0 127
0.462292 -0.155142 0.509607 76 153 0
0.440921 -0.087370 -0.309298 127 0 127
-0.116000 0.130401 -0.345447 153 0 76
0.638434 0.237220 0.330044 76 153 0
-0.360971 0.139628 -0.341801 153 0 76
0.480493 0.038630 -0.426756 153 0 76
0.514988 -0.390089 -0.081852 76 153 0
-0.506751 0.403080 -0.437859 153 0 76
-0.079047 0.095629 0.418590 127 0 127
-0.279120 0.563942 -0.503126 153 0 76
-0.500837 0.079185 -0.398846 153 0 76
0.559052 -0.167717 0.608437 127 127 0
0.559052 0.176071 -0.315599 153 76 0
-0.578116 -0.298909 -0.446620 0 127 127
0.170216 0.085651 0.587460 127 0 127
-0.578116 -0.296963 0.262196 0 127 127
-0.342926 0.752574 -0.500975 153 0 76
-0.416277 0.492145 -0.361255 153 0 76
-0.476482 -0.124250 0.237353 127 0 127
-0.372232 0.460643 -0.499902 153 0 76
-0.578116 -0.289590 0.161085 0 127 127
0.002827 -0.133738 -0.003982 127 0 127
0.240414 -0.367004 0.655875 127 127 0
-0.578116 -0.114556 -0.250281 0 127 127
0.305799 0.301414 -0.334705 153 0 76
0.453611 -0.176916 -0.017548 127 127 0
-0.309725 0.082931 0.072996 127 0 127
0.065124 -0.005110 0.657277 127 0 127
-0.300638 -0.027791 -0.471963 127 0 127
0.640488 0.198128 -0.052390 76 153 0
-0.016191 0.514104 -0.327053 153 0 76
0.383797 -0.389770 0.565549 0 0 255
0.091211 -0.391293 -0.120438 127 127 0
-0.411106 0.067283 -0.391283 153 0 76
-0.465021 -0.313529 0.215928 127 127 0
-0.491819 -0.039575 -0.484291 0 127 127
0.311064 0.075708 -0.096013 127 0 127
-0.277974 -0.297342 -0.476247 127 127 0
-0.156839 0.414818 -0.498472 153 0 76
-0.107007 -0.395926 -0.268897 127 127 0
-0.506897 0.217900 -0.361486 76 0 153
0.174608 0.455592 -0.499745 153 0 76
0.440921 -0.180713 -0.409523 127 127 0
-0.373650 -0.138848 -0.167729 127 0 127
-0.578116 -0.201044 0.118141 0 127 127
0.559052 -0.125938 -0.343611 76 153 0
0.145966 0.277449 -0.494185 153 0 76
0.482912 0.611117 -0.325108 153 76 0
-0.346312 0.088227 0.332545 127 0 127
-0.583036 -0.280321 0.585083 127 127 0
0.342542 0.237177 -0.492928 153 0 76
0.559052 0.387422 -0.359991 153 76 0
-0.583036 0.538483 -0.359959 76 0 153
-0.043944 0.026423 -0.486351 127 0 127
-0.604773 0.289515 0.277260 0 127 127
-0.578116 -0.204916 -0.046083 0 127 127
0.076341 0.097459 0.345407 127 0 127
0.559052 -0.306286 0.009561 76 153 0
-0.435418 -0.412799 0.671163 255 0 0
-0.348601 -0.124236 0.300456 127 0 127
-0.025833 -0.275030 0.653005 127 127 0
-0.205143 0.253419 -0.493435 153 0 76
-0.333768 -0.127571 0.648403 127 127 0
-0.054549 0.067225 -0.332505 127 0 127
-0.491108 -0.213935 0.511442 0 127 127
0.557342 0.604047 -0.270635 153 76 0
-0.271687 -0.136050 -0.078072 127 0 127
-0.105429 0.752683 -0.508279 153 0 76
0.458771 0.465409 -0.430608 153 0 76
0.297362 0.675528 -0.506609 153 0 76
-0.494089 -0.369982 0.562404 127 127 0
-0.578116 -0.224767 -0.372065 0 127 127
-0.216040 0.085586 -0.054942 127 0 127
-0.119479 -0.212450 -0.478896 127 127 0
0.191379 -0.369477 0.578588 127 127 0
0.039049 0.432360 -0.316733 153 0 76
0.482912 0.267535 -0.421358 153 76 0
0.059208 -0.117182 -0.469173 127 0 127
-0.048011 0.546947 -0.502596 153 0 76
-0.239970 0.078535 0.654452 127 0 127
-0.486225 0.223829 -0.114638 0 127 127
-0.526341 0.541930 -0.514598 76 0 153
-0.583036 0.650445 -0.425946 76 0 153
-0.566702 0.616190 -0.516244 76 0 153
-0.394016 -0.383824 0.118869 127 127 0
0.456836 0.329289 -0.495803 153 0 76
0.267230 0.537741 -0.502309 153 0 76
0.559052 -0.068617 -0.416852 76 153 0
0.497572 0.170275 0.499451 76 153 0
-0.325970 -0.381683 0.187473 127 127 0
-0.403692 0.222386 -0.349583 153 0 76
0.503115 0.279211 0.418707 76 153 0
-0.163405 -0.387857 -0.010352 127 127 0
-0.495485 0.712629 -0.497322 153 0 76
0.559052 0.526780 -0.467556 153 76 0
-0.437327 0.395834 -0.497880 153 0 76
-0.472675 -0.308781 -0.308555 0 127 127
0.356618 -0.394174 -0.212757 127 127 0
0.224925 0.036610 -0.486669 153 0 76
-0.581680 0.287497 0.103056 0 127 127
-0.275365 0.089392 0.198886 127 0 127
0.492104 -0.384486 0.097677 76 153 0
-0.526480 0.105433 -0.295463 76 0 153
0.035678 0.096683 -0.015947 127 0 127
-0.583036 0.453168 -0.336868 76 0 153
-0.147888 -0.374122 0.429768 127 127 0
-0.140371 -0.119860 0.440673 127 127 0
-0.407957 0.067086 -0.099226 127 0 127
0.120716 -0.146234 -0.404385 127 0 127
0.459574 -0.122183 0.218881 127 0 127
0.126151 -0.381259 0.201081 127 127 0
0.498450 -0.250733 -0.274565 76 153 0
0.386949 -0.132450 0.037279 127 127 0
-0.214857 0.091584 0.534529 127 0 127
0.453611 0.014906 -0.052670 76 153 0
0.162401 0.095143 0.435493 127 0 127
0.482912 0.703320 -0.344841 153 76 0
-0.385550 -0.489334 0.200532 255 0 0
0.145315 -0.118859 0.472755 127 0 127
0.559052 0.061793 -0.304272 76 153 0
-0.301242 0.304630 -0.495033 153 0 76
0.403500 0.252925 -0.356686 153 0 76
-0.400384 -0.245449 0.652081 127 127 0
0.637901 0.231881 0.111884 76 153 0
-0.319021 0.331882 -0.334103 153 0 76
0.559052 0.278606 -0.471752 153 76 0
-0.046635 -0.382957 0.146659 127 127 0
0.072355 -0.194705 0.650498 127 127 0
-0.578116 -0.017157 0.232909 0 127 127
0.340865 -0.193713 -0.479481 127 127 0
-0.497913 -0.125008 0.648323 127 127 0
-0.301838 -0.396107 -0.274698 127 127 0
0.519763 0.276051 0.033391 76 153 0
-0.184488 -0.140705 -0.227219 127 0 127
-0.412359 -0.117809 0.506392 127 127 0
-0.578116 -0.270810 0.440174 0 127 127
0.497865 0.266926 0.151219 76 153 0
0.515366 -0.373545 0.448246 76 153 0
-0.477710 0.007852 0.026988 127 0 127
-0.506897 0.335677 -0.349677 76 0 153
0.460986 -0.216453 0.651177 127 127 0
-0.274310 -0.132325 0.041288 127 127 0
0.239089 -0.371815 0.503669 127 127 0
0.366746 0.716576 -0.429536 153 0 76
0.057623 -0.384644 0.092596 127 127 0
0.069611 -0.373745 0.441838 127 127 0
0.453611 -0.011442 0.201604 76 153 0
0.453611 0.061321 -0.294518 76 153 0
0.559052 -0.179563 0.078449 76 153 0
-0.209221 -0.370357 0.550407 127 127 0
-0.606755 0.136042 0.500924 0 127 127
0.482912 0.294622 -0.318568 153 76 0
0.019473 -0.120784 0.411085 127 0 127
0.559052 -0.187954 0.240291 76 153 0
0.226877 -0.340476 -0.474900 127 127 0
-0.004443 -0.126331 0.233344 127 127 0
0.634542 0.250446 0.410172 76 153 0
0.289133 -0.012770 -0.485127 127 0 127
0.162901 0.204395 -0.327216 153 0 76
0.559052 -0.048116 0.111543 76 153 0
0.058310 -0.124117 0.304273 127 0 127
-0.312132 -0.143175 -0.306365 127 127 0
0.564874 0.069088 0.629992 127 0 127
-0.581652 0.111936 0.384877 0 127 127
0.459188 0.691638 -0.507111 153 0 76
-0.389980 -0.376267 -0.473783 127 127 0
-0.657158 0.190224 0.097306 0 127 127
0.267550 -0.390093 -0.081992 127 127 0
-0.536444 0.284312 0.327819 0 127 127
0.248152 0.655357 -0.354032 153 0 76
-0.385550 -0.481603 0.044768 255 0 0
-0.472676 0.133830 -0.086313 0 127 127
-0.578116 0.065833 -0.183637 0 127 127
-0.314620 0.093090 0.501961 127 0 127
0.502751 0.083291 0.580661 127 0 127
0.453611 -0.328139 -0.145016 127 127 0
0.051943 0.076368 -0.233167 127 0 127
0.393861 -0.397195 -0.309568 127 127 0
-0.465021 -0.169805 -0.080753 127 127 0
-0.579801 0.731924 -0.431752 76 0 153
-0.280614 0.007738 0.644180 127 0 127
-0.658983 0.195450 0.000724 0 127 127
0.493901 -0.001240 0.504804 76 153 0
-0.472676 -0.375982 -0.030096 0 127 127
-0.282950 -0.386734 0.025629 127 127 0
-0.322547 -0.389287 -0.056173 127 127 0
-0.141245 -0.128800 0.154245 127 127 0
0.559052 -0.186428 -0.098108 76 153 0
0.503980 -0.081959 -0.482969 76 153 0
-0.506897 0.691207 -0.340029 76 0 153
-0.472874 -0.293708 0.653588 127 127 0
-0.630333 0.262769 -0.157150 0 127 127
-0.385550 -0.450946 0.541191 255 0 0
-0.502480 -0.379498 0.257490 0 127 127
-0.009316 -0.139252 -0.180676 127 0 127
-0.075652 0.368183 -0.497017 153 0 76
0.286916 -0.124751 0.283975 127 127 0
-0.433668 -0.131128 0.079627 127 0 127
0.311319 -0.137378 -0.120612 127 0 127
-0.188625 -0.054770 0.658827 127 0 127
0.485890 -0.337178 -0.475003 76 153 0
0.354494 -0.372452 0.483280 127 127 0
0.559052 -0.101786 -0.150958 76 153 0
0.381440 0.557174 -0.360480 153 0 76
-0.482755 0.567168 -0.416601 153 0 76
-0.495679 0.235125 -0.206879 0 127 127
0.248673 -0.395017 -0.239771 127 127 0
0.559052 -0.293146 -0.155243 76 153 0
0.453611 -0.010649 -0.335001 127 0 127
-0.578116 -0.169105 0.281405 0 127 127
0.453611 -0.072830 0.052470 127 0 127
-0.578116 -0.128253 -0.118080 0 127 127
0.533817 0.275589 -0.143496 76 153 0
-0.055802 -0.146116 -0.400613 127 127 0
0.440921 -0.081128 0.353509 127 0 127
-0.583036 0.585898 -0.295437 76 0 153
0.559052 -0.014448 0.333370 76 153 0
0.052175 0.025142 -0.486311 127 0 127
0.559052 0.023355 -0.395790 76 153 0
-0.472676 -0.304048 -0.150312 0 127 127
-0.578116 -0.307689 0.354947 0 127 127
0.607550 0.133576 -0.265239 76 153 0
-0.472452 0.169572 0.277848 0 127 127
-0.389487 0.085524 0.397649 127 0 127
0.160303 -0.107164 0.660462 127 0 127
0.371688 -0.382417 0.163978 127 127 0
-0.436309 -0.460638 -0.082761 255 0 0
-0.583036 -0.180118 0.571850 127 127 0
-0.095566 0.205302 -0.327067 153 0 76
-0.583036 0.162870 -0.471950 76 0 153
-0.359714 0.034881 -0.492761 127 0 127
-0.493076 0.242999 0.156660 0 127 127
-0.089884 -0.125564 0.257911 127 0 127
0.258504 -0.376276 0.360729 127 127 0
-0.154550 0.078934 -0.203887 127 0 127
0.559052 0.732979 -0.261634 153 76 0
0.452603 0.178131 0.138614 76 153 0
-0.068672 0.100181 0.257587 127 0 127
0.440921 0.027001 -0.177718 127 0 127
0.507672 -0.061020 -0.280485 76 153 0
-0.577112 0.223370 0.497794 0 127 127
-0.581234 0.105877 0.222856 0 127 127
0.559052 -0.107256 0.221989 76 153 0
0.144495 -0.386852 0.021858 127 127 0
0.413275 -0.115384 0.584120 127 0 127
0.559052 -0.319660 0.602047 127 127 0
0.061263 -0.143547 -0.318298 127 0 127
-0.583036 0.487140 -0.422320 76 0 153
0.409199 -0.494853 -0.123845 0 0 255
-0.427121 -0.143649 -0.321551 127 0 127
-0.506897 0.483960 -0.299950 76 0 153
-0.562509 -0.306623 0.514335 0 127 127
0.440921 -0.214618 0.345842 127 127 0
0.328033 -0.367864 0.630268 127 127 0
0.368827 0.066234 -0.424907 153 0 76
-0.439789 0.522431 -0.501831 153 0 76
-0.472676 0.084431 0.121561 0 127 127
0.145529 -0.136812 -0.102473 127 0 127
0.253575 0.095868 0.409030 127 0 127
-0.583036 0.236824 -0.309525 76 0 153
-0.465021 -0.063706 0.138325 127 0 127
-0.482755 0.229919 -0.462126 153 0 76
-0.432819 0.070311 0.660864 127 0 127
-0.436309 -0.455749 0.145190 255 0 0
0.365137 -0.448590 -0.002058 0 0 255
0.545103 0.235776 0.497407 76 153 0
0.559052 0.371004 -0.436024 153 76 0
-0.636698 0.162529 0.349869 0 127 127
-0.472676 0.091955 -0.160681 0 127 127
-0.277009 0.185304 -0.330349 153 0 76
0.440921 -0.206521 -0.145663 127 127 0
-0.544967 0.283752 -0.455058 76 0 153
-0.510608 0.004414 -0.282528 0 127 127
-0.410726 -0.133397 0.006948 127 127 0
0.438202 0.531181 -0.502104 153 0 76
-0.656726 0.241292 0.392313 0 127 127
-0.578116 -0.026588 0.101005 0 127 127
0.432546 0.100953 -0.488677 153 0 76
-0.230033 -0.127942 0.181731 127 127 0
0.299259 -0.120528 0.419274 127 127 0
-0.220392 -0.149445 -0.470241 127 127 0
-0.566836 0.275855 -0.233775 0 127 127
0.559052 0.214945 -0.380718 153 76 0
-0.194880 -0.124008 0.307783 127 127 0
-0.578116 -0.166774 0.418114 0 127 127
0.559052 -0.191839 0.373976 76 153 0
-0.022968 -0.345495 -0.474744 127 127 0
0.336104 -0.391095 -0.114115 127 127 0
0.516029 0.237907 -0.271627 153 76 0
0.482913 0.410238 -0.476354 153 0 76
-0.083015 -0.137969 -0.139551 127 0 127
-0.215252 0.088935 0.050617 127 0 127
-0.104289 -0.378895 0.276826 127 127 0
0.559052 -0.355060 -0.395033 76 153 0
0.523363 0.283863 0.240333 76 153 0
-0.178076 -0.144772 -0.357523 127 127 0
0.162402 -0.223763 -0.478543 127 127 0
-0.578116 -0.309512 0.021052 0 127 127
-0.094242 -0.385273 0.072437 127 127 0
0.286717 -0.379346 0.262359 127 127 0
-0.496792 -0.376301 0.359925 0 127 127
-0.092212 0.483545 -0.324342 153 0 76
0.507036 -0.370011 0.561474 127 127 0
0.325361 0.053158 -0.487185 153 0 76
0.383764 0.092534 0.519980 127 0 127
-0.240118 0.157042 -0.490427 153 0 76
0.440921 0.053881 0.441647 127 0 127
0.559052 -0.038404 -0.025627 76 153 0
0.440921 0.024166 0.108773 127 0 127
-0.436309 -0.441208 -0.332239 255 0 0
-0.004353 -0.388254 -0.023080 127 127 0
-0.384318 -0.129102 0.144555 127 0 127
0.495347 -0.299502 0.666465 127 127 0
0.136325 -0.393151 -0.179993 127 127 0
-0.385550 -0.444198 -0.135021 255 0 0
-0.177846 0.605187 -0.338374 153 0 76
-0.016692 -0.369281 0.584878 127 127 0
0.048982 0.379797 -0.497379 153 0 76
-0.182685 -0.399309 -0.377281 127 127 0
0.564861 0.115542 0.341468 76 153 0
-0.465021 -0.001872 -0.059174 127 0 127
-0.659234 0.190991 -0.178438 0 127 127
0.011220 -0.130522 0.661007 127 127 0
-0.397705 -0.372543 0.480362 127 127 0
0.115793 0.573701 -0.503431 153 0 76
0.088729 0.094562 0.454295 127 0 127
-0.321659 0.066314 -0.342237 127 0 127
-0.444104 0.052184 -0.304264 127 0 127
-0.578116 -0.163431 -0.193264 0 127 127
-0.317215 -0.376453 0.355075 127 127 0
-0.011882 -0.399523 -0.384145 127 127 0
0.042684 0.782905 -0.473207 153 0 76
-0.506897 0.596920 -0.353064 76 0 153
0.440921 0.034383 0.275345 127 0 127
-0.314618 0.077554 -0.087277 127 0 127
0.239567 0.004368 0.656982 127 0 127
-0.388792 -0.490841 0.347029 255 0 0
0.279947 -0.147305 -0.438680 127 127 0
0.034194 -0.115606 0.577001 127 127 0
0.316306 0.214786 -0.333516 153 0 76
0.583477 0.128050 0.105975 76 153 0
-0.170377 -0.114520 0.611793 127 0 127
0.372181 0.066924 -0.163863 127 0 127
-0.583077 -0.147352 0.504306 0 127 127
-0.254595 -0.173100 0.662520 127 127 0
-0.374368 0.427681 -0.346955 153 0 76
0.368117 -0.433228 0.298370 0 0 255
-0.260925 -0.391163 -0.116264 127 127 0
0.382539 -0.144366 -0.344524 127 127 0
0.010892 0.188740 -0.491416 153 0 76
0.559052 0.491679 -0.357810 153 76 0
0.036289 0.137788 -0.342532 153 0 76
-0.472703 0.178839 -0.275820 0 127 127
0.453611 -0.120226 0.129815 127 0 127
-0.005010 0.102502 0.190955 127 0 127
0.127539 -0.124849 0.280826 127 0 127
0.218700 -0.151304 -0.484438 127 0 127
0.386226 0.074012 0.134649 127 0 127
0.418955 0.030324 0.656172 127 0 127
0.559052 0.047439 -0.156062 76 153 0
-0.583036 0.719442 -0.294709 76 0 153
-0.472675 -0.156166 -0.420980 0 127 127
-0.053445 0.698842 -0.507337 153 0 76
-0.108214 0.130290 -0.489592 153 0 76
-0.578116 -0.139726 -0.327092 0 127 127
-0.477710 -0.188056 0.087977 127 127 0
-0.472676 -0.220241 0.194710 0 127 127
-0.509983 0.034639 -0.486608 0 127 127
-0.477710 -0.261228 0.319278 127 127 0
-0.142249 -0.393885 -0.203487 127 127 0
-0.087378 0.719545 -0.372087 153 0 76
-0.299321 0.468069 -0.500134 153 0 76
0.111234 0.070727 -0.295070 127 0 127
0.452596 0.173993 0.008745 76 153 0
0.453713 0.183235 -0.166617 76 153 0
-0.440647 0.705940 -0.401737 153 0 76
0.453611 -0.018977 -0.474715 76 153 0
-0.027242 0.097277 0.352662 127 0 127
0.018893 0.093225 0.497605 127 0 127
0.109966 -0.116230 0.557004 127 127 0
0.511906 -0.193969 -0.479473 76 153 0
-0.465021 -0.211620 -0.210968 127 127 0
-0.155738 0.344380 -0.322273 153 0 76
-0.436309 -0.450992 -0.220205 255 0 0
-0.578116 0.044115 0.269919 0 127 127
-0.114702 -0.207159 0.663583 127 127 0
0.520982 0.580909 -0.440357 153 76 0
0.541282 -0.111038 0.658622 127 0 127
-0.578116 0.082497 0.105697 0 127 127
0.027113 -0.128331 0.169269 127 127 0
-0.191396 0.102172 -0.488715 153 0 76
-0.578116 -0.065728 -0.412752 0 127 127
-0.472676 -0.002068 -0.203536 0 127 127
0.382494 -0.124212 0.301250 127 0 127
-0.180315 -0.132102 0.048431 127 0 127
0.255385 -0.122462 0.357326 127 0 127
0.559052 -0.303074 0.329225 76 153 0
0.195982 -0.391497 -0.126997 127 127 0
0.229269 -0.126163 0.238720 127 0 127
0.033810 -0.186199 -0.479715 127 127 0
0.384082 -0.136646 -0.481261 127 0 127
-0.435752 -0.057395 0.658909 127 0 127
-0.420699 -0.124729 0.284682 127 0 127
0.482912 0.399573 -0.341292 153 76 0
-0.465021 -0.042790 0.380046 127 0 127
-0.578116 -0.150141 0.197048 0 127 127
0.440921 -0.066528 -0.207482 127 0 127
0.640625 0.199300 -0.165283 76 153 0
-0.509269 0.086423 0.568121 127 0 127
-0.583039 0.100195 -0.096145 0 127 127
0.559052 -0.202770 -0.373004 76 153 0
0.292438 -0.385780 0.056214 127 127 0
0.148590 0.090229 -0.012350 127 0 127
-0.093509 -0.115322 0.586085 127 127 0
0.401182 -0.445043 0.146776 0 0 255
0.133107 -0.376125 0.365575 127 127 0
-0.336848 -0.281699 0.653213 127 127 0
-0.060436 -0.401711 -0.454267 127 127 0
-0.174479 0.774276 -0.509691 153 0 76
0.559052 0.028885 0.157197 76 153 0
-0.477710 -0.327360 0.093274 127 127 0
0.282874 0.080179 -0.022002 127 0 127
-0.481782 -0.113831 0.397177 127 0 127
0.482913 0.181589 -0.481254 153 0 76
0.286383 -0.133078 0.017150 127 0 127
0.213438 0.092006 0.198437 127 0 127
-0.313749 -0.115446 0.582125 127 127 0
0.359610 -0.227344 0.651516 127 127 0
-0.363174 0.742599 -0.416900 153 0 76
0.487033 0.796505 -0.317362 153 76 0
-0.578475 0.078068 0.645674 127 0 127
0.577588 0.119846 -0.024195 76 153 0
-0.509104 0.793621 -0.317296 76 0 153
0.380779 -0.136586 -0.095253 127 127 0
-0.333543 0.619668 -0.347261 153 0 76
0.247516 -0.115141 0.591864 127 127 0
-0.301801 -0.119871 0.440335 127 0 127
0.453611 0.128111 0.205037 76 153 0
0.559052 -0.328111 -0.463402 76 153 0
-0.030383 0.053517 -0.423154 127 0 127
0.559052 0.004237 0.044251 76 153 0
0.360930 0.085871 0.385992 127 0 127
0.128780 -0.242604 0.664689 127 127 0
0.404133 0.067409 0.060528 127 0 127
0.264232 -0.135765 -0.068946 127 0 127
0.228982 0.062766 -0.371869 127 0 127
-0.185174 0.121919 -0.348136 153 0 76
-0.392310 -0.437184 0.257083 255 0 0
0.559052 0.730334 -0.407958 153 76 0
0.453611 0.091149 -0.040919 76 153 0
0.559052 -0.339886 0.070481 76 153 0
0.554026 0.802395 -0.296365 153 76 0
0.453611 -0.092058 0.437910 76 153 0
0.635570 0.186454 0.221031 76 153 0
0.401779 -0.509951 0.118806 0 0 255
0.080121 0.099538 0.276112 127 0 127
0.262628 0.565060 -0.336712 153 0 76
0.404813 -0.433135 -0.497248 0 0 255
0.030717 0.363335 -0.317589 153 0 76
-0.026631 0.251956 -0.493389 153 0 76
0.238111 0.314184 -0.327468 153 0 76
0.520982 0.165580 -0.411553 153 76 0
0.453611 -0.261125 0.202666 76 153 0
0.453611 -0.282492 0.350969 127 127 0
0.079072 -0.370707 0.539178 127 127 0
-0.356771 -0.368574 0.607530 127 127 0
0.334410 0.423441 -0.498741 153 0 76
0.559052 -0.078902 0.466774 76 153 0
-0.091099 0.612296 -0.338109 153 0 76
0.453611 -0.343491 -0.402204 76 153 0
-0.634104 0.157351 0.270553 0 127 127
0.458771 0.645626 -0.448422 153 0 76
-0.657036 0.183215 -0.109558 0 127 127
0.079545 0.084602 -0.139871 127 0 127
-0.020533 0.104941 0.117826 127 0 127
-0.287105 0.076294 -0.194707 127 0 127
-0.127746 -0.383370 0.133416 127 127 0
0.525985 0.005409 -0.282559 76 153 0
-0.295557 -0.372038 0.496541 127 127 0
0.232589 -0.182313 0.662807 127 127 0
-0.351670 -0.057698 0.646222 127 0 127
-0.465021 -0.064243 -0.118193 127 0 127
-0.364868 0.083157 0.602192 127 0 127
-0.484148 0.108269 -0.488905 153 0 76
-0.398002 -0.154128 0.661928 127 127 0
0.392358 0.292084 -0.494642 153 0 76
-0.332901 -0.133437 0.005642 127 0 127
-0.477710 -0.038081 -0.413566 127 0 127
0.325483 -0.118425 0.648117 127 127 0
-0.472239 0.184971 0.116779 0 127 127
-0.271131 0.576270 -0.336577 153 0 76
-0.529008 -0.292856 -0.273250 0 127 127
-0.476668 0.206788 0.035792 0 127 127
0.484371 -0.005866 0.644605 127 0 127
-0.402980 -0.214370 -0.466140 127 127 0
0.438578 -0.358497 0.668306 127 127 0
0.265914 0.614954 -0.504718 153 0 76
-0.204986 0.099178 0.286480 127 0 127
-0.248145 0.094691 0.450128 127 0 127
0.453611 -0.254864 0.091214 76 153 0
0.559052 -0.263590 0.500703 76 153 0
0.559052 0.416125 -0.495573 153 76 0
-0.545887 0.011335 0.504411 0 127 127
0.590574 0.232236 -0.289637 76 153 0
-0.055170 -0.117501 0.654124 127 127 0
-0.576558 0.106690 -0.423737 76 0 153
-0.485827 -0.400081 -0.402021 0 127 127
0.179033 -0.401905 -0.460493 127 127 0
-0.465021 -0.113718 -0.214919 127 0 127
0.626747 0.257195 0.173830 76 153 0
-0.479583 -0.361448 0.668286 127 127 0
-0.014569 -0.375271 0.392936 127 127 0
0.173889 0.767200 -0.509470 153 0 76
0.557821 0.320918 -0.288521 153 76 0
0.440921 -0.262844 -0.317902 127 127 0
0.316516 0.404835 -0.339478 153 0 76
-0.334899 0.082995 0.136874 127 0 127
-0.431812 -0.483915 0.398696 255 0 0
-0.146086 -0.142695 -0.290981 127 0 127
0.490351 -0.376122 0.365663 76 153 0
-0.578116 -0.083115 0.180177 0 127 127
-0.050572 -0.142244 -0.276547 127 0 127
-0.123885 0.092455 0.522539 127 0 127
0.453611 0.001347 0.358763 76 153 0
-0.477710 -0.232794 -0.297723 127 127 0
0.299023 0.179982 -0.491143 153 0 76
-0.367462 0.075410 -0.026185 127 0 127
-0.142583 0.098118 0.162141 127 0 127
-0.436309 -0.382566 0.610942 255 0 0
0.358439 -0.460437 0.441228 0 0 255
0.453611 0.120439 -0.101724 76 153 0
-0.471749 0.061051 0.361771 127 0 127
-0.523146 -0.372142 0.493181 0 127 127
-0.396812 -0.448114 -0.021605 255 0 0
0.511289 -0.212431 0.511395 76 153 0
0.082704 -0.132396 0.039008 127 0 127
0.035298 -0.135782 -0.069469 127 127 0
0.407641 -0.441780 -0.168107 0 0 255
-0.167614 -0.376799 0.343988 127 127 0
-0.023469 -0.380825 0.214977 127 127 0
0.440921 -0.117135 -0.163437 127 0 127
-0.454354 0.061178 0.060133 127 0 127
-0.472676 0.130900 -0.006193 0 127 127
0.383661 -0.308101 -0.475911 127 127 0
0.492776 -0.305342 0.552383 127 127 0
-0.583036 0.389473 -0.316607 76 0 153
0.559052 -0.074587 0.363763 76 153 0
0.157639 0.069756 0.652415 127 0 127
-0.091375 0.098193 0.030627 127 0 127
0.559052 -0.197237 0.441382 76 153 0
0.480597 -0.392263 -0.151523 76 153 0
0.556996 -0.386501 -0.236685 76 153 0
-0.472676 0.124012 0.462008 0 127 127
-0.141849 0.349879 -0.496445 153 0 76
-0.091080 -0.117571 0.514013 127 127 0
0.559052 -0.310165 0.261800 76 153 0
0.559052 -0.326329 -0.323868 76 153 0
-0.371609 0.242983 -0.493109 153 0 76
0.190049 -0.397532 -0.320346 127 127 0
0.520982 0.520990 -0.411446 153 76 0
0.495109 -0.334394 -0.271953 76 153 0
0.108284 -0.142053 -0.270412 127 0 127
-0.106627 -0.100017 -0.469709 127 0 127
0.559052 -0.035972 0.270445 76 153 0
-0.477710 0.023108 0.177867 127 0 127
0.431857 0.436661 -0.373125 153 0 76
-0.009314 -0.144187 -0.338792 127 0 127
0.260572 0.077851 -0.150321 127 0 127
0.418350 0.116964 -0.356515 153 0 76
0.453611 -0.210067 -0.247376 76 153 0
0.482912 0.615139 -0.392463 153 76 0
-0.281829 0.039453 -0.492316 127 0 127
-0.631732 0.266242 -0.011355 0 127 127
0.523817 0.298262 0.491824 76 153 0
0.158608 -0.122488 0.356463 127 127 0
0.366005 -0.441909 0.202733 0 0 255
-0.578116 -0.242343 0.299814 0 127 127
0.340282 -0.364029 -0.461469 127 127 0
-0.578116 -0.049682 -0.117980 0 127 127
-0.569841 -0.377788 0.244163 0 127 127
0.272624 0.072438 -0.276779 127 0 127
-0.029489 -0.131444 0.069501 127 127 0
-0.578116 -0.264199 0.098695 0 127 127
0.589732 0.281663 0.062584 76 153 0
0.458771 0.205319 -0.415210 153 0 76
-0.081869 0.347714 -0.319398 153 0 76
0.440921 -0.320733 -0.232092 127 127 0
-0.272136 -0.205950 -0.466402 127 127 0
0.453611 0.150670 0.078720 76 153 0
-0.482755 0.339199 -0.448274 153 0 76
-0.193650 -0.390416 -0.092358 127 127 0
0.453611 0.100518 -0.233325 76 153 0
0.483503 0.445663 -0.288803 153 76 0
-0.478554 -0.109743 0.507438 0 127 127
0.409199 -0.451067 -0.074817 0 0 255
0.390542 -0.387293 0.007722 127 127 0
-0.472676 0.032063 0.255630 0 127 127
-0.067298 -0.122315 0.362024 127 0 127
0.227699 -0.275687 -0.464226 127 127 0
-0.139453 -0.347900 0.667975 127 127 0
-0.511265 -0.307642 -0.475925 0 127 127
0.506515 -0.123375 0.546704 127 127 0
0.271427 0.086361 0.147935 127 0 127
0.048651 0.692557 -0.507140 153 0 76
-0.309438 -0.146582 -0.415522 127 0 127
0.121803 0.567334 -0.333766 153 0 76
-0.390040 0.114851 -0.489110 153 0 76
0.533287 -0.381358 0.197898 76 153 0
0.440292 -0.105910 0.660423 127 0 127
0.133756 0.095154 0.106784 127 0 127
-0.457724 0.038623 -0.426858 153 0 76
0.559052 -0.354709 -0.114253 76 153 0
-0.248479 0.449916 -0.330918 153 0 76
0.549454 0.076588 0.502375 76 153 0
0.224923 -0.143157 -0.305772 127 0 127
-0.268646 -0.374249 0.425678 127 127 0
0.326587 0.134266 -0.343933 153 0 76
0.584574 0.139182 0.440453 76 153 0
0.103615 0.038400 -0.430217 153 0 76
-0.578116 -0.296270 -0.042451 0 127 127
-0.475474 0.054908 -0.088602 127 0 127
-0.403125 -0.508598 -0.110785 255 0 0
0.219559 -0.388486 -0.030507 127 127 0
0.453611 -0.397404 -0.337506 76 153 0
-0.514770 -0.193181 -0.479497 0 127 127
-0.350788 -0.083609 -0.482917 127 0 127
-0.578116 -0.013045 -0.242701 0 127 127
0.453611 -0.318508 0.080131 127 127 0
0.431808 -0.373531 0.448699 127 127 0
0.409199 -0.442942 -0.415364 0 0 255
-0.506897 0.467858 -0.437415 76 0 153
-0.544967 0.313662 -0.398025 76 0 153
0.037409 0.101378 0.054118 127 0 127
0.559052 -0.049891 -0.218236 76 153 0
-0.583036 0.727336 -0.358525 76 0 153
-0.477710 -0.310893 0.367875 127 127 0
-0.555953 0.335414 -0.277026 76 0 153
0.204142 -0.139450 -0.186999 127 0 127
-0.200903 -0.121114 0.400498 127 0 127
-0.215328 0.069720 -0.305831 127 0 127
-0.429195 -0.317152 -0.475628 127 127 0
-0.181568 -0.368343 0.614927 127 127 0
0.591963 0.288599 0.305276 76 153 0
0.370034 -0.120863 0.408531 127 0 127
0.453611 -0.321440 0.251452 127 127 0
-0.631102 0.280677 0.435620 0 127 127
-0.598979 0.115576 -0.217789 0 127 127
0.572561 0.289489 0.190410 76 153 0
0.440921 -0.206963 -0.072389 127 127 0
-0.642673 0.198050 -0.288571 0 127 127
-0.267269 0.060481 -0.386101 127 0 127
-0.059416 -0.134529 -0.029337 127 0 127
-0.526703 0.156354 -0.502621 76 0 153
-0.477710 -0.093967 -0.444132 127 0 127
-0.436309 -0.436309 0.576782 255 0 0
0.168954 0.085003 -0.126716 127 0 127
0.520982 0.653142 -0.488935 153 76 0
0.233653 0.744821 -0.399233 153 0 76
-0.267442 -0.141470 -0.251718 127 0 127
0.500084 0.173469 -0.287803 76 153 0
-0.529849 -0.072211 0.507019 0 127 127
-0.126328 0.564969 -0.503158 153 0 76
-0.142370 -0.271476 -0.464357 127 127 0
0.565373 0.113655 0.249696 76 153 0
-0.474362 -0.137007 -0.019550 127 0 127
0.089760 -0.128885 0.151512 127 127 0
-0.063320 -0.038667 -0.471623 127 0 127
0.088746 -0.119908 0.439141 127 0 127
0.240582 -0.383381 0.133064 127 127 0
-0.398277 0.065450 -0.200863 127 0 127
0.454504 0.041889 -0.117646 127 0 127
-0.131055 0.065694 -0.348871 127 0 127
-0.477710 -0.083305 -0.311326 127 0 127
-0.348218 -0.391460 -0.125799 127 127 0
-0.520095 -0.384582 0.094613 0 127 127
-0.465021 -0.244554 -0.019802 127 127 0
0.502925 0.536448 -0.514509 153 76 0
-0.506897 0.438095 -0.371407 76 0 153
0.174872 0.111938 -0.351301 153 0 76
0.559052 -0.141112 -0.003815 76 153 0
0.053191 -0.399880 -0.395602 127 127 0
-0.190716 -0.136108 -0.079914 127 127 0
0.358439 -0.447018 -0.285784 0 0 255
-0.053391 -0.370883 0.533525 127 127 0
-0.231374 -0.384560 0.095297 127 127 0
-0.208462 0.745468 -0.461374 153 0 76
0.031805 -0.335262 0.654884 127 127 0
-0.544967 0.207468 -0.442466 76 0 153
0.559052 -0.106441 0.593002 127 0 127
-0.506897 0.128744 -0.358374 76 0 153
0.351570 -0.384992 0.081465 127 127 0
-0.121179 -0.018043 0.657681 127 0 127
-0.175261 -0.293770 0.653589 127 127 0
0.466395 -0.277260 -0.476873 76 153 0
0.062571 0.300550 -0.321625 153 0 76
-0.534569 -0.259032 0.550938 127 127 0
-0.385550 -0.464581 -0.439428 255 0 0
0.196912 -0.051824 0.646039 127 0 127
-0.216390 -0.112774 0.654723 127 0 127
-0.265729 0.707122 -0.373915 153 0 76
0.559052 -0.238053 -0.058977 76 153 0
0.332730 0.082245 0.166645 127 0 127
-0.200510 0.259047 -0.323585 153 0 76
-0.244402 0.405069 -0.498168 153 0 76
0.032280 0.670602 -0.350886 153 0 76
-0.137057 0.073561 0.661020 127 0 127
0.001626 0.029235 0.643509 127 0 127
0.379458 -0.083811 0.647037 127 0 127
0.559052 -0.180595 -0.234654 76 153 0
-0.578116 -0.154854 -0.464061 0 127 127
-0.374591 -0.119430 0.454460 127 0 127
0.471713 0.230977 -0.130354 76 153 0
0.442141 0.298991 -0.374095 153 0 76
-0.578116 -0.229189 -0.218037 0 127 127
-0.544967 0.692625 -0.396064 76 0 153
-0.472676 -0.311720 0.470299 0 127 127
-0.518417 -0.394859 -0.234696 0 127 127
-0.367333 0.091497 0.535422 127 0 127
0.352206 -0.323767 0.667222 127 127 0
-0.578116 0.064602 -0.328742 0 127 127
-0.244103 -0.400283 -0.408504 127 127 0
0.358818 -0.455414 0.556422 0 0 255
-0.522683 -0.230599 0.651618 127 127 0
-0.431992 -0.432417 0.304888 255 0 0
0.067971 -0.140327 -0.215107 127 127 0
-0.465021 -0.365996 -0.111324 127 127 0
0.003462 0.757388 -0.432134 153 0 76
-0.013564 0.080315 -0.188128 127 0 127
0.453378 -0.369030 0.592917 127 127 0
0.152578 -0.016156 -0.485022 127 0 127
0.273273 0.094140 0.467971 127 0 127
0.559052 -0.364830 -0.034241 76 153 0
-0.578116 -0.016448 0.419331 0 127 127
-0.578116 -0.021970 -0.054792 0 127 127
0.320952 0.663704 -0.363352 153 0 76
0.482912 0.731070 -0.289273 153 76 0
0.453611 -0.130058 -0.358416 76 153 0
-0.385550 -0.466805 -0.359130 255 0 0
0.091136 -0.361062 0.668338 127 127 0
0.133530 0.777672 -0.439487 153 0 76
-0.118357 0.409944 -0.322162 153 0 76
0.156064 0.642738 -0.346593 153 0 76
0.452918 0.050759 0.167451 127 0 127
-0.130117 0.096503 0.383620 127 0 127
-0.430717 -0.414691 0.432520 255 0 0
0.209023 0.111763 -0.489014 153 0 76
0.581231 0.295688 0.433973 76 153 0
0.440921 -0.005986 -0.410342 127 0 127
0.640497 0.200733 0.020431 76 153 0
-0.477710 -0.203343 0.416037 127 127 0
-0.458139 -0.115784 0.571299 127 127 0
-0.549965 -0.155434 0.661968 127 127 0
0.559052 0.052371 0.350717 76 153 0
-0.578116 -0.262449 -0.295146 0 127 127
0.005661 -0.394723 -0.230358 127 127 0
0.459100 -0.127284 0.018771 127 0 127
0.313947 0.752311 -0.429807 153 0 76
-0.582797 0.116603 0.446427 0 127 127
0.559052 -0.109830 0.110171 76 153 0
0.312952 -0.139302 -0.182258 127 0 127
-0.315627 -0.346538 -0.474711 127 127 0
-0.583036 0.597468 -0.377944 76 0 153
-0.506897 0.539711 -0.326233 76 0 153
0.205492 0.066075 -0.429981 153 0 76
-0.578116 0.028759 -0.467576 0 127 127
-0.525014 -0.127492 -0.278411 0 127 127
-0.061212 0.664675 -0.349552 153 0 76
-0.490989 0.716330 -0.435283 153 0 76
0.517574 -0.185086 0.650198 127 127 0
0.455279 0.205377 0.302033 76 153 0
-0.084828 -0.130395 0.103131 127 127 0
-0.544967 0.173616 -0.326189 76 0 153
0.076879 0.325252 -0.495677 153 0 76
-0.637288 0.265326 0.115992 0 127 127
0.492652 0.039065 -0.486746 76 153 0
0.440921 -0.088159 -0.086732 127 0 127
-0.566341 -0.368304 0.616158 127 127 0
0.520982 0.324986 -0.452296 153 76 0
0.166337 -0.126335 0.233210 127 127 0
0.372487 -0.497972 0.289312 0 0 255
-0.373709 -0.147860 -0.456492 127 0 127
0.114391 -0.047255 0.658593 127 0 127
0.097387 -0.164832 -0.467686 127 127 0
0.033915 -0.382889 0.148835 127 127 0
0.132299 0.507677 -0.501370 153 0 76
0.489507 -0.379621 0.253553 76 153 0
-0.465021 -0.274723 -0.364197 127 127 0
-0.428998 -0.379094 0.270447 127 127 0
-0.339236 0.191314 -0.491497 153 0 76
-0.164780 0.038091 -0.438963 153 0 76
-0.432714 0.069558 0.165152 127 0 127
-0.058543 0.078360 0.653382 127 0 127
0.229980 0.087563 0.575953 127 0 127
0.181453 -0.141285 -0.245800 127 127 0
0.559052 0.058937 -0.468252 76 153 0
-0.299620 -0.137745 -0.132393 127 0 127
-0.472676 -0.372276 0.202188 0 127 127
-0.144990 0.735218 -0.383359 153 0 76
-0.007236 -0.118691 0.478144 127 127 0
-0.551368 0.294016 0.458007 0 127 127
-0.085895 0.100872 0.102122 127 0 127
-0.578257 0.523365 -0.489164 76 0 153
-0.570346 -0.106971 0.573801 127 0 127
-0.581784 0.105289 0.161740 0 127 127
-0.339109 0.692413 -0.507136 153 0 76
0.148025 0.093238 0.497171 127 0 127
0.393310 0.058887 -0.298735 127 0 127
0.473818 0.091479 -0.392623 153 0 76
0.394908 -0.134320 -0.022645 127 0 127
0.035798 -0.378895 0.276809 127 127 0
-0.543156 0.284720 0.259034 0 127 127
0.611587 0.261317 -0.195821 76 153 0
0.440921 -0.356371 0.144979 127 127 0
-0.472676 0.165241 0.349082 0 127 127
0.006433 0.085937 -0.363507 153 0 76
0.393062 -0.378260 0.297165 127 127 0
0.358439 -0.430753 0.367760 0 0 255
0.559052 0.126452 -0.456458 153 76 0
0.248852 0.086168 0.090119 127 0 127
0.063868 0.064875 -0.357621 127 0 127
0.197005 -0.117892 0.503735 127 0 127
0.453611 -0.338644 -0.085688 76 153 0
0.209503 0.386765 -0.497597 153 0 76
-0.366917 -0.116329 0.553821 127 127 0
0.037694 0.602577 -0.336889 153 0 76
-0.412770 -0.137421 -0.121983 127 127 0
0.559052 0.072191 0.023499 76 153 0
-0.578116 0.006190 -0.168488 0 127 127
-0.192410 -0.401285 -0.440612 127 127 0
0.048959 -0.389457 -0.061616 127 127 0
0.264392 0.281059 -0.494298 153 0 76
-0.472676 0.126371 -0.243059 0 127 127
0.559052 -0.156677 0.323888 76 153 0
-0.427516 -0.121982 0.372678 127 127 0
0.559052 -0.011422 0.497658 76 153 0
0.411093 -0.127967 0.180916 127 127 0
0.469329 0.231656 0.009397 76 153 0
0.559052 0.011332 0.614733 127 0 127
-0.010070 0.090076 0.550067 127 0 127
-0.472676 0.009399 0.496258 0 127 127
0.453611 0.138179 0.354383 76 153 0
-0.472294 0.176816 0.433572 0 127 127
-0.172954 -0.114669 -0.481947 127 0 127
0.632115 0.174037 0.080256 76 153 0
0.567906 0.103460 -0.209625 76 153 0
0.267030 0.091084 0.288503 127 0 127
-0.260646 -0.367640 0.637460 127 127 0
0.176891 0.610451 -0.504578 153 0 76
-0.583036 0.340626 -0.437291 76 0 153
0.216133 0.444800 -0.330276 153 0 76
0.374707 -0.389670 -0.068426 127 127 0
-0.562928 0.626732 -0.256606 76 0 153
-0.344687 0.070893 -0.226829 127 0 127
-0.161681 0.088931 -0.082428 127 0 127
-0.154337 0.098140 0.318176 127 0 127
-0.578116 -0.070737 0.298710 0 127 127
0.453611 -0.362900 0.028639 76 153 0
-0.149819 -0.397225 -0.310518 127 127 0
0.497941 -0.395906 -0.268243 76 153 0
0.441980 0.018258 0.526914 127 0 127
0.520982 0.647636 -0.293961 153 76 0
0.358439 -0.511324 0.056159 0 0 255
-0.058159 -0.390480 -0.094408 127 127 0
-0.578844 0.766708 -0.248924 76 0 153
0.045230 0.274772 -0.494101 153 0 76
0.559052 0.030485 0.231150 76 153 0
-0.050342 -0.398104 -0.338687 127 127 0
-0.564786 -0.375178 0.386059 0 127 127
0.486497 -0.145728 -0.277842 76 153 0
0.453611 -0.098050 0.277183 127 0 127
0.482912 0.416873 -0.406095 153 76 0
-0.191073 0.669474 -0.354896 153 0 76
0.589925 0.277684 -0.063129 76 153 0
0.242927 0.705595 -0.507548 153 0 76
0.490157 0.750320 -0.396795 153 76 0
0.409199 -0.434603 0.594955 0 0 255
0.453611 -0.225361 0.016701 127 127 0
-0.452657 0.073382 0.438557 127 0 127
0.453611 -0.206924 0.255614 127 127 0
-0.083127 -0.329311 0.667395 127 127 0
0.159214 0.376199 -0.324850 153 0 76
0.554589 0.388178 -0.284809 153 76 0
0.142669 0.098903 0.294418 127 0 127
-0.385550 -0.447438 0.116149 255 0 0
0.529059 0.233485 -0.505509 153 76 0
-0.472676 -0.079312 0.199235 0 127 127
-0.436309 -0.458388 0.223918 255 0 0
0.301228 -0.141130 -0.240847 127 0 127
-0.149243 -0.133732 -0.003792 127 0 127
-0.485824 0.240349 0.438091 0 127 127
0.221024 0.097356 0.349504 127 0 127
0.143518 -0.129632 0.127587 127 127 0
-0.006409 0.074478 -0.254736 127 0 127
-0.168147 -0.381514 0.192886 127 127 0
0.354334 0.083090 0.602590 127 0 127
-0.574661 0.281682 -0.066265 0 127 127
0.559052 -0.256241 -0.292697 76 153 0
0.559052 -0.091409 -0.296062 76 153 0
0.447092 0.140290 0.497416 76 153 0
0.373533 0.403944 -0.353601 153 0 76
0.210067 0.169837 -0.332886 153 0 76
-0.477710 -0.037608 -0.014346 127 0 127
-0.507717 0.655635 -0.506004 76 0 153
0.002655 0.234083 -0.324764 153 0 76
-0.436309 -0.496361 -0.257414 255 0 0
0.459667 0.673349 -0.396047 153 0 76
0.431617 0.190783 -0.365334 153 0 76
0.520982 0.345551 -0.376035 153 76 0
-0.434415 -0.507252 0.173056 255 0 0
0.358947 -0.444986 -0.115907 0 0 255
0.407123 -0.142708 -0.291410 127 127 0
0.187898 0.236618 -0.492911 153 0 76
-0.317692 -0.122396 0.359440 127 127 0
-0.510632 0.397071 -0.502361 76 0 153
-0.587553 0.285315 0.044870 0 127 127
0.303018 -0.400367 -0.411205 127 127 0
-0.465021 -0.264356 0.253204 127 127 0
0.316774 0.544221 -0.343865 153 0 76
-0.282566 0.093298 0.340059 127 0 127
-0.216911 0.083362 0.600984 127 0 127
-0.429698 0.005911 -0.485710 127 0 127
0.482912 0.543785 -0.357983 153 76 0
0.441530 0.368884 -0.375917 153 0 76
-0.218192 0.646612 -0.505706 153 0 76
0.320389 -0.131135 0.079408 127 127 0
0.027049 0.091080 -0.073354 127 0 127
0.322128 0.061089 -0.382315 127 0 127
-0.465021 -0.308549 0.155269 127 127 0
-0.274793 -0.124065 0.305946 127 0 127
-0.467361 -0.376210 0.511000 0 127 127
-0.517346 -0.386397 0.036444 0 127 127
-0.578116 -0.327627 0.205180 0 127 127
0.166373 -0.379793 0.248053 127 127 0
0.144868 -0.373869 0.437852 127 127 0
-0.070485 -0.267308 -0.464488 127 127 0
0.520982 0.563146 -0.317356 153 76 0
0.440921 -0.378401 -0.278062 127 127 0
0.409199 -0.501211 -0.038588 0 0 255
-0.385550 -0.460185 0.456057 255 0 0
0.091813 -0.382719 0.154279 127 127 0
0.251471 -0.368842 0.598941 127 127 0
0.092429 0.183172 -0.330698 153 0 76
-0.000791 0.064773 -0.471719 153 0 76
-0.336218 0.086849 0.263619 127 0 127
0.398775 0.694256 -0.384744 153 0 76
0.500032 0.708539 -0.449772 153 76 0
0.399296 -0.377010 0.619884 0 0 255
0.626873 0.159564 -0.119856 76 153 0
-0.578116 0.043347 0.211926 0 127 127
0.559052 0.623950 -0.447349 153 76 0
0.453611 -0.218742 -0.454044 127 127 0
-0.401766 -0.392373 -0.155058 127 127 0
0.376877 0.643227 -0.505601 153 0 76
-0.223036 -0.125910 0.246843 127 127 0
0.047620 -0.064307 0.659125 127 0 127
-0.070897 0.558453 -0.332122 153 0 76
-0.314208 -0.253741 -0.464911 127 127 0
-0.443426 -0.394754 -0.231330 127 127 0
0.144812 0.075268 -0.245727 127 0 127
-0.544967 0.154509 -0.398725 76 0 153
-0.399631 0.370997 -0.353171 153 0 76
-0.506897 0.602322 -0.463162 153 0 76
0.440921 -0.182765 0.463691 127 127 0
-0.578116 -0.143290 -0.036141 0 127 127
-0.578116 0.030890 0.375481 0 127 127
-0.570346 -0.057711 0.606272 127 0 127
-0.555246 0.293055 0.399373 0 127 127
-0.136630 -0.138982 -0.172024 127 0 127
0.453611 -0.287754 0.488641 127 127 0
-0.578116 -0.089430 -0.469095 0 127 127
-0.221196 -0.008792 0.644696 127 0 127
-0.433209 -0.511437 0.057240 255 0 0
0.389552 -0.117129 0.528191 127 0 127
0.497179 -0.402144 -0.468119 76 153 0
-0.544967 0.269553 -0.342319 76 0 153
-0.538591 -0.192847 0.536175 127 127 0
-0.562761 0.453961 -0.275644 76 0 153
0.552264 -0.303991 0.659517 127 127 0
0.547129 0.678084 -0.249334 153 76 0
0.546362 -0.035257 0.574836 127 0 127
-0.170887 -0.186808 -0.479696 127 127 0
0.092328 0.691019 -0.361630 153 0 76
-0.183422 0.484023 -0.328228 153 0 76
0.453611 -0.262035 -0.138354 76 153 0
0.223452 -0.129696 0.125515 127 0 127
-0.386418 0.540680 -0.354326 153 0 76
0.343810 -0.024362 -0.472070 127 0 127
-0.027863 0.366951 -0.316961 153 0 76
0.004661 -0.373177 0.460033 127 127 0
0.409199 -0.463039 0.065150 0 0 255
-0.232724 -0.380136 0.237053 127 127 0
-0.476219 0.219947 0.497263 0 127 127
0.205516 -0.135766 -0.068952 127 0 127
-0.185409 -0.383492 0.129508 127 127 0
-0.311803 0.399624 -0.497998 153 0 76
0.453611 -0.117497 -0.436659 127 0 127
0.520982 0.234649 -0.448685 153 76 0
0.440921 -0.045857 0.479102 127 0 127
-0.506897 0.736349 -0.304915 76 0 153
0.088318 -0.396202 -0.277740 127 127 0
-0.471948 0.173224 -0.137036 0 127 127
0.440921 -0.064026 0.183286 127 0 127
0.430978 0.059154 0.000608 127 0 127
0.322736 -0.118297 0.490759 127 0 127
-0.578116 0.014051 0.060382 0 127 127
0.447548 0.203151 0.499352 76 153 0
0.449112 0.472409 -0.500270 153 0 76
-0.101023 0.013123 -0.473240 127 0 127
0.453611 -0.220222 -0.362581 127 127 0
-0.247950 -0.303501 0.666589 127 127 0
0.358439 -0.446966 -0.353531 0 0 255
-0.583036 0.383406 -0.474852 76 0 153
-0.262976 -0.374083 -0.473852 127 127 0
0.249120 -0.099295 -0.482427 127 0 127
0.559052 -0.239417 -0.416395 76 153 0
0.404371 0.351031 -0.496481 153 0 76
-0.584892 0.108612 -0.285779 0 127 127
-0.003362 0.511932 -0.501503 153 0 76
0.119721 0.117581 -0.489196 153 0 76
-0.578116 -0.007917 -0.424294 0 127 127
-0.457962 -0.200485 -0.466573 127 127 0
0.558321 0.117140 -0.316539 153 76 0
-0.113414 -0.137646 0.648717 127 127 0
-0.050792 0.259143 -0.323580 153 0 76
-0.477710 -0.235519 -0.080004 127 127 0
-0.253303 0.367701 -0.328631 153 0 76
0.095265 0.434707 -0.322986 153 0 76
-0.226370 -0.386319 0.038944 127 127 0
-0.506897 0.516780 -0.467809 153 0 76
0.049344 0.101499 0.219598 127 0 127
-0.314206 -0.399235 -0.374920 127 127 0
-0.452925 0.265382 -0.366347 153 0 76
-0.506897 0.653875 -0.297630 76 0 153
-0.064538 0.088252 0.568856 127 0 127
-0.483945 -0.130421 0.048275 127 0 127
-0.155099 -0.325321 -0.475373 127 127 0
-0.578116 0.011581 -0.309654 0 127 127
0.504215 0.114399 0.501195 76 153 0
-0.452516 0.533108 -0.374502 153 0 76
-0.465021 -0.393245 -0.350199 127 127 0
-0.385550 -0.406944 0.636898 255 0 0
0.550984 -0.114662 -0.481948 76 153 0
0.280656 -0.032211 0.645427 127 0 127
-0.578116 -0.181162 0.065027 0 127 127
-0.013850 -0.129536 0.130658 127 0 127
0.559052 -0.252851 0.370238 76 153 0
0.140043 -0.120815 0.410083 127 0 127
-0.394286 0.061907 -0.334686 127 0 127
-0.509663 0.263085 0.206327 0 127 127
-0.472100 0.027296 0.643570 127 0 127
-0.363751 -0.400981 -0.430863 127 127 0
-0.583036 0.198931 -0.368524 76 0 153
0.559052 0.017853 -0.077869 76 153 0
-0.259904 0.081175 -0.098766 127 0 127
0.559052 0.521175 -0.293265 153 76 0
-0.397279 -0.385569 0.062979 127 127 0
0.229743 0.763376 -0.509351 153 0 76
-0.477710 -0.335312 0.007941 127 127 0
0.308882 -0.241343 -0.477994 127 127 0
0.447645 -0.126657 0.074620 127 0 127
0.491905 0.286385 -0.503009 153 76 0
0.358439 -0.477837 -0.238020 0 0 255
-0.093901 0.782739 -0.458276 153 0 76
0.122645 -0.369090 0.590992 127 127 0
0.559052 -0.239877 -0.132367 76 153 0
0.300246 0.487300 -0.500734 153 0 76
0.488191 -0.248981 0.550624 127 127 0
0.559052 0.728707 -0.328810 153 76 0
-0.578116 -0.261477 -0.134803 0 127 127
-0.436309 -0.447419 -0.157878 255 0 0
-0.544967 0.556456 -0.396504 76 0 153
-0.583036 0.007497 0.568049 127 0 127
-0.482755 0.293041 -0.479454 153 0 76
0.186597 -0.147318 -0.439106 127 127 0
-0.477710 -0.077898 0.278944 127 0 127
0.559052 -0.214773 0.181693 76 153 0
-0.301399 0.071641 -0.285298 127 0 127
-0.521981 0.263558 -0.078056 0 127 127
-0.472675 -0.244663 -0.410406 0 127 127
-0.422213 -0.135095 -0.047458 127 127 0
-0.465021 -0.024095 -0.299867 127 0 127
-0.502024 -0.368252 0.617848 127 127 0
-0.567990 -0.267675 0.646572 127 127 0
-0.417690 -0.432493 -0.270084 255 0 0
-0.335075 -0.385581 0.062578 127 127 0
0.200401 -0.132291 0.042386 127 0 127
0.303885 -0.394715 -0.230089 127 127 0
0.003689 -0.147579 -0.447461 127 0 127
-0.103319 -0.123825 0.313634 127 127 0
-0.475091 -0.154352 -0.352328 127 127 0
-0.327151 -0.140927 -0.234336 127 127 0
-0.409329 0.113347 -0.350854 153 0 76
-0.161211 0.092172 0.020173 127 0 127
0.245108 -0.401040 -0.432774 127 127 0
-0.332421 -0.126553 0.226239 127 127 0
0.440921 -0.183939 -0.196264 127 127 0
-0.477710 -0.148259 0.296104 127 127 0
0.280736 -0.381062 0.207375 127 127 0
0.103839 -0.291203 -0.476438 127 127 0
0.363923 0.080382 0.225335 127 0 127
-0.251825 0.085716 -0.488201 153 0 76
0.403244 -0.186510 -0.467009 127 127 0
-0.116739 0.094270 0.463742 127 0 127
0.559052 -0.358632 0.320194 76 153 0
-0.412945 -0.387768 -0.007510 127 127 0
0.466027 0.216545 -0.281809 76 153 0
0.398683 -0.407484 0.476973 0 0 255
-0.502449 0.015404 0.542372 127 0 127
-0.060083 -0.036340 0.645556 127 0 127
0.409199 -0.433467 0.346265 0 0 255
0.113680 -0.160023 0.662112 127 127 0
0.399247 0.195275 -0.491620 153 0 76
-0.018600 0.094709 0.449531 127 0 127
-0.385550 -0.474282 -0.215535 255 0 0
0.409199 -0.486866 0.192459 0 0 255
0.559052 -0.213320 0.123818 76 153 0
-0.563984 -0.344308 -0.474781 0 127 127
-0.611914 0.270112 -0.273220 0 127 127
0.092426 -0.385974 0.049977 127 127 0
-0.271846 -0.144356 -0.344200 127 127 0
0.398872 -0.140349 -0.215819 127 0 127
0.520982 0.637343 -0.354903 153 76 0
0.123585 0.097667 0.160772 127 0 127
-0.496870 -0.341682 -0.271726 0 127 127
-0.578116 0.074385 0.051383 0 127 127
-0.397970 -0.097220 0.660152 127 0 127
-0.544967 0.391097 -0.356494 76 0 153
-0.217046 0.717676 -0.507925 153 0 76
-0.545049 0.470652 -0.512910 76 0 153
-0.644421 0.176293 0.491307 0 127 127
-0.162810 -0.112485 0.666510 127 0 127
0.409199 -0.471216 0.401523 0 0 255
0.298814 -0.372496 0.481867 127 127 0
-0.578116 -0.331362 -0.184825 0 127 127
0.520982 0.464163 -0.461220 153 76 0
0.306873 0.095872 0.396274 127 0 127
0.134391 -0.133426 0.005997 127 0 127
0.559052 0.085589 0.135964 76 153 0
0.559052 -0.310382 0.451477 76 153 0
0.409199 -0.451568 -0.326502 0 0 255
-0.280414 -0.130457 0.101142 127 0 127
-0.572751 -0.396183 -0.413670 0 127 127
-0.101584 -0.127448 0.197539 127 127 0
0.440921 -0.397060 -0.409506 127 127 0
0.453611 -0.090164 -0.256197 127 0 127
0.234841 0.159916 -0.490517 153 0 76
0.216598 -0.115566 0.656938 127 0 127
0.559052 -0.343428 -0.186275 76 153 0
-0.435009 -0.375694 0.379369 127 127 0
-0.425238 -0.145909 -0.393970 127 127 0
0.510418 0.281484 0.359472 76 153 0
