ply
format ascii 1.0
element vertex 1254
property float x
property float y
property float z
property uchar red
property uchar green
property uchar blue
end_header
0.319631 0.194493 -0.491596 153 0 76
0.559052 -0.257874 -0.286160 76 153 0
0.201374 -0.140630 -0.224810 127 127 0
0.482912 0.574451 -0.401916 153 76 0
0.526827 0.416878 -0.302331 153 76 0
-0.434862 0.069389 0.176844 127 0 127
-0.578116 0.016138 0.235840 0 127 127
0.559052 -0.067283 -0.208478 76 153 0
0.246119 0.069822 -0.304750 127 0 127
0.224845 -0.370780 0.536830 127 127 0
-0.212978 -0.131178 0.078026 127 0 127
-0.578116 -0.081711 0.451777 0 127 127
-0.452489 0.003912 0.644300 127 0 127
0.640780 0.221949 0.295887 76 153 0
0.357125 -0.127511 0.195516 127 0 127
0.115548 -0.147269 -0.437544 127 127 0
0.069373 0.101851 0.153104 127 0 127
-0.465021 -0.308632 0.399036 127 127 0
-0.544967 0.468757 -0.370859 76 0 153
-0.391312 -0.510685 -0.054466 255 0 0
0.523884 0.281124 0.146303 76 153 0
-0.506897 0.178351 -0.461941 153 0 76
-0.578116 -0.117579 -0.453295 0 127 127
0.051138 0.048329 0.655609 127 0 127
-0.532298 -0.181502 0.650086 127 127 0
-0.037819 0.138226 -0.342358 153 0 76
-0.109048 -0.371226 0.522556 127 127 0
-0.535213 0.033016 0.643391 127 0 127
0.341590 0.516419 -0.501643 153 0 76
-0.175533 -0.374850 0.406424 127 127 0
0.460434 0.204766 -0.270243 76 153 0
-0.309949 -0.145384 -0.377142 127 127 0
-0.578116 0.019127 0.386545 0 127 127
0.558976 0.072318 0.494553 76 153 0
0.114795 -0.376099 0.366398 127 127 0
-0.230892 0.749170 -0.508907 153 0 76
-0.472675 -0.162157 -0.005240 0 127 127
0.440921 -0.257130 0.279826 127 127 0
-0.447332 0.057082 -0.123331 127 0 127
-0.583036 -0.229528 0.582747 127 127 0
-0.578116 -0.339054 0.361047 0 127 127
0.093699 -0.396403 -0.284168 127 127 0
0.292631 0.081211 0.035013 127 0 127
0.458771 0.258853 -0.384088 153 0 76
-0.385550 -0.485835 -0.234501 255 0 0
0.247807 -0.378629 0.285325 127 127 0
-0.343389 0.561194 -0.344774 153 0 76
-0.603612 0.281067 -0.004082 0 127 127
0.453611 -0.236619 0.448843 127 127 0
0.117757 -0.126815 0.217831 127 0 127
-0.239919 -0.207965 0.663608 127 127 0
0.482912 0.300480 -0.292988 153 76 0
-0.483795 0.231966 0.288124 0 127 127
0.140665 -0.144650 -0.353643 127 127 0
-0.318885 -0.356075 0.668231 127 127 0
-0.582947 0.479960 -0.288679 76 0 153
-0.398809 -0.451438 0.575835 255 0 0
-0.202670 0.083816 -0.141353 127 0 127
0.164732 -0.384434 -0.473528 127 127 0
0.368811 0.742873 -0.439340 153 0 76
-0.158383 -0.385362 0.069587 127 127 0
-0.066861 -0.118196 0.494006 127 0 127
0.568041 0.103895 -0.202454 76 153 0
-0.158552 -0.131095 0.080678 127 127 0
0.409199 -0.463562 -0.194627 0 0 255
0.559052 -0.348332 0.227575 76 153 0
0.440921 -0.284706 -0.114372 127 127 0
-0.311582 0.471240 -0.500233 153 0 76
0.451417 -0.147774 -0.114225 76 153 0
0.240420 0.740103 -0.415450 153 0 76
-0.398892 -0.397128 -0.307400 127 127 0
-0.139941 -0.395580 -0.257816 127 127 0
-0.544967 0.248910 -0.401972 76 0 153
0.481685 0.052841 -0.416153 153 0 76
-0.436309 -0.474656 -0.037247 255 0 0
0.269680 0.534964 -0.502222 153 0 76
-0.386389 -0.140696 -0.226950 127 0 127
0.388562 0.597007 -0.363563 153 0 76
-0.170778 0.225831 -0.325153 153 0 76
0.166319 0.746778 -0.487177 153 0 76
0.440921 0.018567 -0.135266 127 0 127
-0.260556 0.616592 -0.504770 153 0 76
-0.315554 0.316832 -0.333133 153 0 76
0.358439 -0.424444 -0.403040 0 0 255
-0.318064 -0.009084 0.657401 127 0 127
-0.539422 -0.295971 -0.273153 0 127 127
0.144599 -0.130035 0.114656 127 127 0
0.000345 -0.371980 0.498395 127 127 0
0.179535 0.067227 -0.393087 127 0 127
0.638874 0.195051 0.139121 76 153 0
-0.620287 0.150972 0.459896 0 127 127
-0.358883 -0.115929 0.566632 127 127 0
0.352439 -0.113294 0.666204 127 0 127
0.559052 -0.143211 -0.071775 76 153 0
-0.071476 -0.142516 -0.285267 127 127 0
0.545347 -0.398578 -0.361348 76 153 0
0.524477 0.755731 -0.263435 153 76 0
-0.578116 -0.223137 0.038741 0 127 127
0.142728 -0.137927 -0.138207 127 127 0
0.482912 0.170971 -0.458116 153 0 76
-0.016762 -0.135955 -0.075017 127 127 0
0.440921 -0.157765 -0.273171 127 127 0
-0.421522 -0.511039 0.088601 255 0 0
-0.472675 -0.208759 -0.349173 0 127 127
0.178123 -0.400339 -0.410286 127 127 0
0.138068 -0.124436 0.294064 127 0 127
0.559052 -0.056653 0.405206 76 153 0
0.459309 -0.144307 -0.339666 127 127 0
-0.390267 0.155215 -0.490370 153 0 76
-0.067700 0.080272 -0.188613 127 0 127
-0.437751 0.042164 -0.408242 153 0 76
0.203543 0.089683 0.554111 127 0 127
0.131673 -0.076263 0.646802 127 0 127
-0.376295 -0.284717 -0.463944 127 127 0
0.256174 0.079122 -0.119376 127 0 127
-0.036130 -0.395783 -0.264296 127 127 0
0.453611 -0.307361 0.194926 76 153 0
-0.018718 -0.147380 -0.441115 127 0 127
0.327661 -0.129996 0.115917 127 0 127
-0.330291 0.067132 -0.396116 153 0 76
0.489426 0.099768 -0.460657 153 0 76
0.384593 -0.457952 0.543758 0 0 255
0.453418 0.153529 -0.221023 76 153 0
0.187785 -0.371931 0.499958 127 127 0
0.545379 0.633865 -0.515990 153 76 0
0.333957 -0.140985 -0.236201 127 127 0
0.559052 0.186235 -0.465625 153 76 0
-0.528412 0.226135 -0.505009 76 0 153
0.218977 -0.126981 0.212508 127 0 127
0.482912 0.236195 -0.364843 153 76 0
-0.243660 -0.371838 0.502947 127 127 0
0.440921 -0.203119 0.176205 127 127 0
0.640019 0.212426 0.502824 76 153 0
0.080503 0.699693 -0.364897 153 0 76
-0.140370 0.070281 0.660852 127 0 127
0.559052 -0.133693 -0.328537 76 153 0
0.286356 0.064963 -0.465611 153 0 76
0.390340 -0.123507 0.323835 127 0 127
0.422651 -0.143392 -0.313339 127 0 127
0.057992 -0.125221 0.268918 127 127 0
0.420951 -0.268102 -0.464463 127 127 0
0.336277 0.078177 0.045019 127 0 127
0.559052 -0.301164 0.331115 76 153 0
0.603303 0.136805 -0.047055 76 153 0
0.440921 -0.264434 -0.303157 127 127 0
-0.394920 0.740305 -0.428424 153 0 76
-0.116631 -0.296651 -0.476268 127 127 0
0.559052 -0.071509 0.070790 76 153 0
0.254864 -0.130440 0.101688 127 127 0
0.467208 -0.285050 0.539053 127 127 0
0.388185 -0.116303 0.554657 127 127 0
0.105876 -0.143307 -0.310602 127 0 127
-0.465021 -0.109679 -0.291241 127 0 127
-0.472811 0.203067 0.454796 0 127 127
0.559052 -0.376807 -0.247636 76 153 0
-0.503536 0.176191 -0.409874 153 0 76
0.171142 -0.146005 0.661674 127 127 0
-0.013042 -0.139858 -0.200085 127 0 127
0.453611 0.044346 0.148740 127 0 127
-0.285059 0.075890 -0.212187 127 0 127
-0.000874 -0.386647 0.028413 127 127 0
-0.175881 0.095766 0.413099 127 0 127
-0.102116 0.064307 -0.486632 153 0 76
0.266250 0.499322 -0.501110 153 0 76
-0.477710 -0.014543 -0.311961 127 0 127
-0.055364 0.086955 -0.115704 127 0 127
0.406662 0.164759 -0.490668 153 0 76
-0.477710 -0.018798 -0.216891 0 127 127
0.453611 -0.194236 0.385723 76 153 0
-0.075627 0.060255 0.642541 127 0 127
0.242948 -0.143586 -0.319539 127 0 127
-0.216361 0.093629 0.203493 127 0 127
0.559052 -0.298416 -0.283215 76 153 0
-0.481323 -0.374725 0.410446 127 127 0
0.053360 0.489618 -0.500807 153 0 76
0.401313 0.059751 -0.207330 127 0 127
0.361101 -0.115513 0.579965 127 0 127
-0.256582 -0.288458 -0.463828 127 127 0
-0.394781 0.431879 -0.499005 153 0 76
0.559052 -0.232376 0.494588 76 153 0
-0.633972 0.142192 -0.210771 0 127 127
0.485146 0.256077 0.156446 76 153 0
-0.330446 -0.137776 -0.133388 127 127 0
0.358439 -0.481885 0.129938 0 0 255
-0.578116 -0.146658 0.476541 0 127 127
0.416676 0.092375 0.525123 127 0 127
0.524725 0.324464 -0.276804 153 76 0
0.453611 -0.317855 -0.205898 127 127 0
-0.162984 -0.368757 0.601647 127 127 0
0.152098 0.067166 -0.333136 127 0 127
0.448113 -0.068882 0.539214 127 0 127
0.378688 -0.497035 -0.256712 0 0 255
-0.385550 -0.480291 0.050811 255 0 0
0.454310 0.201992 0.334058 76 153 0
0.007165 0.104560 0.132265 127 0 127
-0.215923 -0.369934 0.563947 127 127 0
-0.434389 -0.135443 -0.058610 127 127 0
-0.161649 0.487310 -0.500735 153 0 76
-0.525187 0.181549 0.499099 0 127 127
0.047003 -0.134048 -0.013939 127 0 127
-0.394367 -0.143946 -0.331082 127 0 127
-0.249342 0.473692 -0.500310 153 0 76
0.440921 -0.262064 0.510808 127 127 0
-0.171122 -0.387537 -0.000082 127 127 0
0.146993 0.706197 -0.369282 153 0 76
0.178917 -0.369670 0.572399 127 127 0
-0.472675 -0.260681 0.262531 127 127 0
-0.587192 0.102719 -0.244471 0 127 127
-0.011533 0.099922 0.017182 127 0 127
-0.432226 -0.392444 -0.157313 127 127 0
-0.465021 0.014155 0.174990 127 0 127
0.559052 -0.262740 -0.012608 76 153 0
-0.472675 0.103453 0.251194 0 127 127
-0.532766 0.276870 0.153998 0 127 127
0.445536 0.632081 -0.386490 153 0 76
0.559052 0.373893 -0.307833 153 76 0
0.214768 0.097770 0.290184 127 0 127
-0.583036 0.483909 -0.430866 76 0 153
0.559052 0.550574 -0.360624 153 76 0
0.440921 -0.056383 0.182453 127 0 127
-0.472675 0.035682 -0.439106 127 0 127
0.253874 0.093819 0.478358 127 0 127
-0.475666 -0.094794 0.541803 127 0 127
0.559052 -0.122911 -0.366898 76 153 0
0.520982 0.267291 -0.302122 153 76 0
-0.553147 -0.060711 -0.280495 0 127 127
-0.165857 -0.123094 0.337045 127 0 127
-0.333983 -0.122417 0.658092 127 127 0
0.113118 -0.400855 -0.426823 127 127 0
-0.128898 -0.399243 -0.375165 127 127 0
-0.464968 0.215978 -0.370822 153 0 76
-0.512404 0.269746 0.350357 0 127 127
-0.195473 0.064634 -0.377979 153 0 76
-0.212856 -0.146173 -0.402442 127 0 127
0.266498 -0.381282 0.200338 127 127 0
-0.337927 0.065049 -0.355766 127 0 127
0.210167 -0.079316 -0.470355 127 0 127
-0.570346 0.051895 0.589118 127 0 127
0.482809 0.162653 0.499689 76 153 0
0.083055 -0.387743 -0.006683 127 127 0
-0.259590 -0.132359 0.040200 127 127 0
0.424387 -0.222003 0.651350 127 127 0
-0.494708 -0.200600 0.549114 127 127 0
-0.507830 0.084488 0.594329 127 0 127
0.453611 -0.365147 -0.055577 76 153 0
0.421940 -0.114476 0.613199 127 127 0
-0.468703 -0.061423 0.659035 127 0 127
-0.499535 -0.015045 0.657587 127 0 127
-0.179115 -0.147708 -0.451622 127 0 127
0.061599 -0.152053 -0.482879 127 127 0
-0.607615 0.129694 0.060529 0 127 127
-0.612929 0.286966 0.283221 0 127 127
-0.388889 0.015325 -0.473308 127 0 127
0.458771 0.244276 -0.433614 153 0 76
-0.465021 -0.093753 -0.123270 127 0 127
-0.405904 -0.486307 -0.342470 255 0 0
0.387786 0.460395 -0.499895 153 0 76
0.559052 -0.052717 -0.319752 76 153 0
-0.578116 0.003954 0.179941 0 127 127
0.248782 -0.385612 0.061579 127 127 0
-0.499595 0.103968 -0.326082 0 127 127
-0.477710 -0.100323 -0.037955 127 0 127
-0.501885 -0.366591 -0.270949 0 127 127
0.138969 -0.067089 -0.470736 127 0 127
0.349954 -0.369163 0.588637 127 127 0
0.264222 -0.300374 0.653796 127 127 0
-0.389375 -0.289119 0.666141 127 127 0
-0.544967 0.556592 -0.339862 76 0 153
0.344061 -0.375108 0.398162 127 127 0
-0.112068 0.095541 0.422106 127 0 127
0.453611 0.004404 -0.456206 127 0 127
-0.216306 -0.021457 -0.484857 127 0 127
-0.326944 -0.390230 -0.086391 127 127 0
0.345779 -0.125676 0.254320 127 127 0
0.559052 -0.315505 0.013886 76 153 0
0.559052 0.064829 0.256805 76 153 0
0.105740 0.004597 0.644278 127 0 127
0.409199 -0.476898 -0.024151 0 0 255
-0.022145 -0.016317 -0.485017 127 0 127
0.520982 0.465450 -0.343147 153 76 0
0.175277 0.095570 0.227782 127 0 127
-0.465021 -0.165346 0.344283 0 127 127
0.285383 -0.057837 -0.471025 127 0 127
-0.408745 0.079936 0.316488 127 0 127
0.087548 0.562694 -0.503088 153 0 76
-0.575804 0.407243 -0.302464 76 0 153
-0.583036 0.121085 -0.274794 0 127 127
-0.373108 -0.132829 0.025133 127 0 127
0.180879 -0.380928 0.211677 127 127 0
0.229589 -0.382672 0.155805 127 127 0
-0.578116 0.021823 0.303654 0 127 127
0.288340 0.459719 -0.337127 153 0 76
0.351813 -0.135152 -0.049295 127 127 0
0.389381 -0.058852 -0.470993 127 0 127
0.267180 0.063208 -0.369120 153 0 76
-0.385550 -0.479195 0.173756 255 0 0
-0.061874 0.078844 -0.487987 153 0 76
-0.578116 -0.059444 -0.114164 0 127 127
-0.279678 0.067124 -0.487621 153 0 76
-0.497537 -0.392410 -0.156225 0 127 127
-0.532503 0.081414 0.557783 127 0 127
0.089987 -0.137510 -0.124867 127 0 127
-0.436309 -0.473200 0.021297 255 0 0
-0.011751 0.062802 0.642462 127 0 127
-0.477710 -0.238079 -0.404982 0 127 127
-0.465021 -0.251864 -0.307341 0 127 127
-0.494432 0.243336 0.109482 0 127 127
0.559052 0.533309 -0.396243 153 76 0
-0.472536 0.157428 -0.070186 0 127 127
0.194250 0.037685 -0.451953 153 0 76
0.559052 0.014575 0.413396 76 153 0
-0.465021 0.025121 0.363949 127 0 127
0.172307 -0.368001 0.625892 127 127 0
-0.056867 0.746173 -0.388306 153 0 76
0.514372 0.583501 -0.516433 153 76 0
-0.436309 -0.478031 0.285401 255 0 0
-0.362720 -0.373947 0.435367 127 127 0
-0.645518 0.267241 0.479953 0 127 127
-0.212843 -0.142603 -0.288058 127 127 0
-0.385550 -0.470355 0.000468 255 0 0
0.459852 -0.380876 0.213348 127 127 0
0.453611 0.074737 -0.467114 153 0 76
0.313792 -0.216660 0.663880 127 127 0
0.440921 -0.079767 -0.386882 127 0 127
0.139941 0.091838 0.016646 127 0 127
-0.578116 -0.001765 0.332038 0 127 127
-0.354383 -0.069182 0.659277 127 0 127
-0.472675 -0.205150 -0.009054 0 127 127
-0.476921 -0.372126 0.493698 127 127 0
-0.385780 -0.388821 0.570288 255 0 0
-0.109617 -0.144858 -0.360307 127 0 127
-0.578116 0.030101 -0.081360 0 127 127
0.056364 0.702071 -0.507437 153 0 76
-0.014472 0.497840 -0.501063 153 0 76
0.475730 0.620240 -0.504884 153 0 76
-0.614813 0.217440 -0.289176 0 127 127
0.559052 0.012273 -0.451729 76 153 0
0.453611 -0.368313 -0.237313 76 153 0
0.091392 0.065634 -0.444119 153 0 76
0.369126 -0.119841 0.441301 127 0 127
-0.403345 -0.511448 0.056403 255 0 0
-0.542566 -0.188975 -0.479629 0 127 127
0.525554 0.287707 0.337115 76 153 0
-0.198759 -0.138030 -0.141503 127 0 127
-0.482755 0.416484 -0.462944 153 0 76
0.022832 0.760801 -0.399606 153 0 76
0.453611 -0.161997 0.120508 76 153 0
0.063849 -0.113308 0.650604 127 0 127
0.335929 -0.267829 -0.464471 127 127 0
-0.537382 -0.402035 -0.464633 0 127 127
-0.477710 -0.383465 -0.410019 127 127 0
0.245813 -0.369063 0.591862 127 127 0
-0.578116 -0.133288 -0.187230 0 127 127
-0.216108 0.626325 -0.344108 153 0 76
0.627852 0.254899 0.159757 76 153 0
0.076701 0.082672 -0.161220 127 0 127
-0.428651 -0.422920 0.381257 255 0 0
0.559052 -0.267063 -0.359558 76 153 0
0.101280 -0.394484 -0.222675 127 127 0
0.035367 -0.371372 0.517870 127 127 0
0.242151 0.498116 -0.333441 153 0 76
0.567669 0.111656 0.064782 76 153 0
0.183922 0.089411 -0.488317 153 0 76
-0.476771 0.650280 -0.391331 153 0 76
-0.293857 -0.117385 0.519986 127 0 127
-0.224286 -0.396027 -0.272128 127 127 0
-0.576423 -0.389259 -0.348620 0 127 127
0.485727 0.249665 -0.496739 153 76 0
0.358439 -0.435171 -0.275303 0 0 255
0.340020 0.093726 0.481381 127 0 127
0.294070 0.083265 0.104351 127 0 127
0.517459 -0.150132 -0.277704 76 153 0
0.214272 0.289629 -0.325326 153 0 76
-0.271968 0.040198 0.655863 127 0 127
0.559052 -0.309671 -0.100955 76 153 0
-0.480172 -0.024545 0.526747 127 0 127
-0.333948 0.084116 0.170479 127 0 127
0.520982 0.246515 -0.413630 153 76 0
-0.472675 -0.375570 0.001086 127 127 0
-0.003074 -0.142158 -0.273772 127 0 127
0.250835 0.213893 -0.325717 153 0 76
0.186550 -0.141873 -0.481098 127 0 127
-0.419086 -0.377454 0.322986 127 127 0
-0.291921 -0.095853 -0.469839 127 0 127
0.149570 0.303280 -0.494991 153 0 76
0.536754 -0.208446 0.511271 76 153 0
-0.216943 0.080898 -0.181468 127 0 127
-0.286890 0.088624 0.565026 127 0 127
0.396200 -0.334152 0.654850 127 127 0
-0.426123 -0.494848 -0.278878 255 0 0
0.559052 0.582774 -0.417149 153 76 0
0.470617 0.029499 -0.486447 76 153 0
-0.282019 -0.353256 -0.474501 127 127 0
0.476453 0.244202 0.090866 76 153 0
-0.474996 -0.125518 -0.005209 127 0 127
0.520982 0.449567 -0.310487 153 76 0
0.311384 0.701761 -0.507428 153 0 76
-0.048814 0.100015 0.018132 127 0 127
-0.578116 0.017774 -0.267397 0 127 127
0.549348 0.071724 -0.487765 76 153 0
-0.578116 -0.109296 0.007733 0 127 127
0.024317 -0.397002 -0.303379 127 127 0
-0.472675 -0.257169 0.036768 127 127 0
-0.477710 -0.242618 0.438302 127 127 0
0.537669 0.291022 -0.275628 153 76 0
-0.132105 0.265786 -0.323266 153 0 76
-0.407168 -0.429507 0.328292 255 0 0
-0.153069 -0.030392 0.658066 127 0 127
-0.026665 0.042508 -0.407067 153 0 76
0.372289 0.691171 -0.378848 153 0 76
0.625204 0.254543 0.022674 76 153 0
-0.150059 0.052718 -0.487172 127 0 127
0.559052 -0.022467 -0.341904 76 153 0
0.640526 0.195343 -0.182917 76 153 0
0.509519 0.770223 -0.370054 153 76 0
-0.465021 -0.051164 -0.410611 127 0 127
-0.578116 -0.003948 -0.396749 0 127 127
0.532808 0.554042 -0.490121 153 76 0
0.520982 0.708543 -0.269432 153 76 0
0.275047 -0.140243 -0.212420 127 127 0
-0.583036 0.156758 -0.423877 76 0 153
0.251781 0.143048 -0.489991 153 0 76
0.056470 -0.115472 0.581272 127 127 0
-0.465021 -0.071973 0.095870 127 0 127
0.081648 0.086189 0.584284 127 0 127
0.307862 0.047736 -0.487016 153 0 76
0.469289 -0.240964 -0.478006 76 153 0
-0.168773 -0.362871 -0.461505 127 127 0
0.559052 -0.203023 0.197608 76 153 0
-0.194081 -0.115331 0.585814 127 127 0
-0.506897 0.491376 -0.445448 76 0 153
0.133268 -0.132222 0.044579 127 127 0
-0.550830 -0.029471 0.645341 127 0 127
0.463121 -0.378722 0.282375 76 153 0
-0.191043 -0.383511 0.128925 127 127 0
-0.081757 -0.128278 0.170969 127 0 127
-0.244803 -0.374068 0.431495 127 127 0
0.129400 0.080067 -0.190947 127 0 127
0.044699 0.323835 -0.320525 153 0 76
-0.311717 -0.377663 0.316282 127 127 0
-0.482646 0.217667 -0.102895 0 127 127
0.144215 0.038141 -0.437366 153 0 76
0.092235 0.752843 -0.396002 153 0 76
-0.385550 -0.440108 -0.495232 255 0 0
0.440921 -0.228237 -0.039433 127 127 0
-0.149809 0.640318 -0.505510 153 0 76
0.358439 -0.461325 -0.402448 0 0 255
-0.471756 -0.123142 0.513238 0 127 127
-0.472675 -0.147498 0.390387 127 127 0
0.256196 -0.115484 0.580894 127 127 0
-0.472675 -0.383897 -0.471869 127 127 0
0.301238 -0.148206 -0.467565 127 127 0
-0.434756 -0.122775 0.347294 127 127 0
-0.357206 -0.371535 0.512658 127 127 0
-0.279517 -0.165589 0.649590 127 127 0
0.461951 -0.399922 -0.396918 127 127 0
0.453611 -0.020913 -0.396960 76 153 0
-0.023881 -0.397585 -0.322035 127 127 0
-0.322811 -0.258430 0.652487 127 127 0
0.520982 0.647619 -0.364286 153 76 0
-0.066224 -0.180182 -0.479903 127 127 0
0.482912 0.726763 -0.275399 153 76 0
-0.578116 -0.181243 -0.158148 0 127 127
-0.544967 0.712501 -0.330283 76 0 153
-0.124191 -0.376426 0.355927 127 127 0
-0.291031 -0.386090 0.046289 127 127 0
-0.578116 -0.292447 0.137818 0 127 127
0.015492 -0.376871 0.341660 127 127 0
0.240101 0.468956 -0.500162 153 0 76
-0.535156 -0.397051 -0.304948 0 127 127
0.634201 0.190172 0.442046 76 153 0
-0.546788 -0.399505 -0.383574 0 127 127
0.352722 -0.166973 -0.467619 127 127 0
0.312304 -0.369456 0.579271 127 127 0
-0.400046 -0.373501 0.449636 127 127 0
0.237697 -0.111690 -0.482040 127 0 127
0.640668 0.205766 -0.004317 76 153 0
-0.579562 -0.107931 0.571909 127 0 127
-0.040385 -0.390566 -0.097159 127 127 0
0.615596 0.176595 -0.287901 76 153 0
-0.195888 0.714176 -0.507815 153 0 76
-0.514659 -0.292675 0.551987 127 127 0
0.256821 -0.121873 0.376171 127 0 127
-0.511325 -0.144793 0.547372 127 127 0
-0.298589 0.496520 -0.336294 153 0 76
-0.364592 -0.147452 -0.443431 127 127 0
0.559052 0.543483 -0.459759 153 76 0
0.418079 -0.385904 0.052234 127 127 0
0.209777 -0.000275 0.644430 127 0 127
-0.051445 -0.130659 0.094665 127 0 127
0.314052 -0.133701 -0.002801 127 127 0
0.194478 0.183477 -0.330648 153 0 76
0.384469 -0.511159 0.079153 0 0 255
0.364377 0.080494 0.231242 127 0 127
0.114746 0.778290 -0.502748 153 0 76
-0.465021 -0.224170 -0.243797 127 127 0
0.112156 0.097204 0.355584 127 0 127
0.558428 -0.027404 0.639519 127 0 127
0.559052 0.702906 -0.322525 153 76 0
-0.244635 0.537533 -0.502302 153 0 76
-0.410391 -0.410721 -0.487968 255 0 0
-0.032936 0.083353 -0.365120 153 0 76
0.136965 -0.275839 -0.464222 127 127 0
0.559052 -0.243809 0.164001 76 153 0
-0.207177 0.742119 -0.393360 153 0 76
-0.161724 0.629409 -0.343220 153 0 76
-0.447860 0.076288 0.496004 127 0 127
0.181081 -0.135850 -0.071656 127 127 0
-0.465021 -0.354722 0.222933 127 127 0
0.231802 -0.224464 -0.465825 127 127 0
0.017836 0.094665 0.450976 127 0 127
-0.433929 -0.140962 -0.235460 127 0 127
-0.526287 0.022392 0.542154 127 0 127
0.333311 0.724056 -0.416139 153 0 76
0.285890 -0.375573 0.383255 127 127 0
-0.578116 -0.322165 0.029364 0 127 127
0.008670 -0.121537 0.386949 127 127 0
-0.555639 -0.003785 -0.282271 0 127 127
0.087337 -0.141788 -0.261945 127 0 127
-0.508039 0.017839 -0.486083 0 127 127
-0.436309 -0.419176 0.557148 255 0 0
0.262084 -0.334989 0.667572 127 127 0
0.559004 -0.156828 0.639078 127 127 0
0.405481 0.734949 -0.439142 153 0 76
0.453611 0.031117 0.271959 127 0 127
0.216587 -0.376927 0.339888 127 127 0
0.393647 0.126606 -0.350197 153 0 76
-0.583036 0.301077 -0.361103 76 0 153
0.182966 0.098267 0.313098 127 0 127
0.523507 -0.379835 0.246691 76 153 0
0.465839 0.717783 -0.475283 153 0 76
0.457066 -0.115297 0.335391 76 153 0
0.559052 0.232537 -0.327647 153 76 0
-0.537403 0.148951 0.500117 0 127 127
0.457693 -0.130930 -0.150083 76 153 0
-0.444317 0.483906 -0.500629 153 0 76
-0.408244 0.282956 -0.494357 153 0 76
0.440921 -0.212787 -0.123277 76 153 0
-0.540116 -0.079517 -0.483045 0 127 127
0.211169 -0.336442 0.654922 127 127 0
0.394531 -0.384138 0.108816 127 127 0
0.379624 -0.272470 0.665621 127 127 0
0.409199 -0.407856 0.559709 0 0 255
0.541563 -0.207446 -0.479052 76 153 0
0.218600 -0.388531 -0.031941 127 127 0
-0.038191 -0.374472 0.418526 127 127 0
-0.659739 0.215169 0.289291 0 127 127
0.598949 0.287369 0.378402 76 153 0
-0.500734 0.246797 -0.029465 0 127 127
0.302144 0.161824 -0.334201 153 0 76
0.458771 0.380720 -0.438002 153 0 76
-0.578116 -0.196746 -0.423047 0 127 127
-0.392437 -0.142815 -0.294851 127 127 0
0.559052 -0.208952 -0.183544 76 153 0
-0.442641 -0.046143 -0.484086 127 0 127
0.379603 -0.488141 0.368737 0 0 255
0.489742 0.691252 -0.249291 153 76 0
-0.526472 0.270770 0.069093 0 127 127
0.346393 -0.392522 -0.159804 127 127 0
0.030861 -0.394606 -0.226601 127 127 0
0.559052 0.050820 -0.013634 76 153 0
-0.273997 0.000902 -0.485554 127 0 127
-0.051128 0.096080 0.400535 127 0 127
-0.578116 -0.234667 0.171605 0 127 127
-0.520439 -0.224573 0.511774 0 127 127
-0.110549 -0.386542 0.031781 127 127 0
-0.390007 0.079447 0.205578 127 0 127
-0.401425 -0.117410 0.519177 127 127 0
-0.536730 0.284364 0.325012 0 127 127
0.482912 0.436558 -0.301011 153 76 0
-0.578116 -0.225908 0.395748 0 127 127
-0.413337 -0.422289 -0.348851 255 0 0
-0.322874 0.088621 0.565047 127 0 127
0.453611 -0.072479 -0.015875 127 0 127
-0.323017 0.210467 -0.330890 153 0 76
0.559052 0.418575 -0.401102 153 76 0
-0.477710 -0.105775 0.044177 127 0 127
-0.499204 0.253257 0.226574 0 127 127
0.559052 -0.217970 -0.343495 76 153 0
-0.550313 -0.288821 0.513779 0 127 127
-0.499994 -0.294960 -0.273184 0 127 127
-0.551138 -0.363221 0.667750 127 127 0
0.520982 0.418900 -0.393051 153 76 0
0.116767 0.349597 -0.321570 153 0 76
-0.465021 -0.184953 0.444669 127 127 0
-0.578116 -0.330331 -0.009336 0 127 127
0.145381 0.083293 0.601388 127 0 127
0.175147 0.320793 -0.324040 153 0 76
0.520982 0.170927 -0.439409 153 76 0
0.115451 -0.132504 -0.468695 127 0 127
0.148313 0.088821 -0.058176 127 0 127
0.433880 -0.161667 0.662163 127 127 0
0.440921 -0.316136 0.054975 127 127 0
0.403004 -0.381966 0.178418 127 127 0
0.409199 -0.462052 0.326103 0 0 255
-0.189372 0.170191 -0.490838 153 0 76
-0.436309 -0.461614 0.515756 255 0 0
0.562774 0.100168 -0.006563 76 153 0
-0.578116 -0.020979 0.054541 0 127 127
0.000641 -0.262941 -0.477320 127 127 0
0.417727 0.562157 -0.503071 153 0 76
-0.544967 0.265086 -0.468461 76 0 153
0.365801 0.668768 -0.506398 153 0 76
-0.252982 0.090901 0.197497 127 0 127
-0.544967 0.268302 -0.344543 76 0 153
-0.338637 0.300540 -0.494906 153 0 76
0.590571 0.267698 0.496410 76 153 0
0.371191 0.038664 -0.426235 153 0 76
-0.578116 -0.039941 0.196855 0 127 127
0.358439 -0.477406 -0.335635 0 0 255
0.458013 -0.272459 -0.477023 76 153 0
-0.307057 0.122674 -0.489355 153 0 76
-0.083214 0.101022 0.233343 127 0 127
-0.181041 -0.129196 0.141528 127 0 127
0.383624 0.065907 -0.138284 127 0 127
-0.171138 -0.376606 0.350156 127 127 0
-0.354179 -0.087026 -0.470114 127 0 127
-0.497626 0.056273 -0.391235 153 0 76
0.004902 0.038773 -0.424741 153 0 76
0.493671 0.238886 -0.297194 76 153 0
0.528139 0.707499 -0.453193 153 76 0
-0.367883 -0.243457 0.652020 127 127 0
0.110249 -0.115577 0.577931 127 127 0
-0.014493 -0.348348 -0.461959 127 127 0
-0.544967 0.501120 -0.342518 76 0 153
-0.522751 0.271338 -0.299685 76 0 153
-0.649518 0.175164 0.501099 0 127 127
0.453611 0.055696 0.396143 76 153 0
-0.578116 0.058708 0.343323 0 127 127
-0.394503 0.520395 -0.356273 153 0 76
-0.512918 0.256349 -0.091297 0 127 127
0.483051 -0.385227 0.073940 76 153 0
0.521871 -0.347219 0.515602 76 153 0
-0.393238 -0.127951 0.181432 127 0 127
-0.138086 0.079266 -0.200094 127 0 127
-0.363015 -0.126606 0.224520 127 0 127
0.520982 0.221199 -0.360076 153 76 0
-0.506897 0.107632 -0.467666 153 0 76
-0.475442 -0.154236 -0.326638 127 127 0
-0.111580 0.098648 0.098190 127 0 127
0.618538 0.271231 0.316591 76 153 0
0.422551 -0.389790 -0.072274 127 127 0
0.559052 -0.286528 0.593303 127 127 0
-0.483886 0.040724 -0.311752 0 127 127
0.640845 0.217219 0.168935 76 153 0
0.453611 -0.327664 -0.282472 127 127 0
0.623595 0.166946 0.271758 76 153 0
0.498993 -0.063884 0.544847 127 0 127
0.559052 -0.173563 -0.237830 76 153 0
-0.213864 0.044828 -0.400934 153 0 76
-0.031885 0.723292 -0.508100 153 0 76
0.528170 0.079256 0.621409 127 0 127
-0.578116 -0.036247 -0.290555 0 127 127
-0.348432 0.038124 0.655928 127 0 127
-0.465021 -0.228754 0.104006 127 127 0
0.272278 -0.374598 0.414509 127 127 0
-0.544967 0.370320 -0.349607 76 0 153
0.080569 -0.367709 0.635248 127 127 0
0.103920 0.253528 -0.323845 153 0 76
-0.501344 -0.158529 -0.277442 0 127 127
0.114968 -0.001982 -0.472768 127 0 127
0.359516 -0.144286 -0.341981 127 127 0
0.520120 0.129678 -0.286437 153 76 0
-0.544967 0.615457 -0.301151 76 0 153
0.035410 0.195609 -0.491631 153 0 76
-0.277233 -0.364230 0.667172 127 127 0
0.482912 0.384434 -0.366860 153 76 0
-0.139849 0.227263 -0.492619 153 0 76
0.458433 0.099679 -0.488637 153 0 76
-0.333234 -0.395236 -0.246776 127 127 0
-0.578116 -0.220405 -0.108298 0 127 127
0.027692 0.120877 -0.348466 153 0 76
-0.168469 -0.121112 0.400557 127 0 127
-0.222018 -0.336054 0.654910 127 127 0
0.306828 0.749686 -0.418861 153 0 76
-0.381135 -0.368010 0.625581 127 127 0
0.419107 0.079583 0.624599 127 0 127
-0.103639 0.038702 -0.425667 127 0 127
0.039081 0.097218 0.355024 127 0 127
0.559052 0.415116 -0.436764 153 76 0
0.557825 -0.373766 0.117053 76 153 0
0.400499 -0.367718 0.634932 127 127 0
0.559052 0.746152 -0.280072 153 76 0
-0.138374 0.671500 -0.353210 153 0 76
-0.339358 -0.392773 -0.167848 127 127 0
0.453611 0.032861 0.338369 127 0 127
-0.311083 0.011521 -0.473190 127 0 127
0.453162 0.165121 0.026146 76 153 0
0.375696 -0.511784 0.029923 0 0 255
0.520468 -0.057934 0.658926 127 0 127
0.453611 0.082491 -0.150003 76 153 0
0.197915 0.095136 0.435708 127 0 127
0.302414 -0.398992 -0.367112 127 127 0
0.143233 0.087866 -0.102018 127 0 127
0.630665 0.256414 0.359797 76 153 0
-0.247561 0.095178 0.434371 127 0 127
0.246726 -0.137512 -0.124926 127 127 0
0.310621 0.074042 -0.150493 127 0 127
0.440921 -0.329913 -0.443367 127 127 0
-0.385550 -0.441722 -0.407757 255 0 0
-0.024465 -0.054486 0.658818 127 0 127
0.482912 0.682804 -0.371902 153 76 0
-0.064447 -0.248821 -0.465065 127 127 0
0.142282 -0.371128 0.525688 127 127 0
0.281970 0.084816 0.592392 127 0 127
-0.255209 -0.196770 -0.479385 127 127 0
0.424871 -0.133900 -0.009186 127 127 0
-0.003974 -0.400175 -0.405034 127 127 0
-0.138105 0.739460 -0.508604 153 0 76
-0.578116 -0.203425 0.283750 0 127 127
-0.506897 0.153405 -0.350117 76 0 153
-0.408161 0.662398 -0.506199 153 0 76
0.256190 0.732242 -0.508379 153 0 76
0.453611 -0.147168 0.470892 76 153 0
0.253763 -0.185903 0.662920 127 127 0
-0.477710 -0.190400 0.259649 127 127 0
0.590033 0.128856 0.003593 76 153 0
-0.203935 0.247122 -0.324147 153 0 76
0.396543 -0.373649 0.444908 127 127 0
-0.089336 -0.373903 0.436764 127 127 0
-0.084893 0.683578 -0.506860 153 0 76
-0.342940 0.086073 0.255249 127 0 127
-0.578116 -0.106940 0.290494 0 127 127
0.260172 0.387244 -0.331021 153 0 76
0.097256 -0.235999 0.651787 127 127 0
0.520982 0.135536 -0.342462 153 76 0
0.452078 -0.371216 0.451389 76 153 0
-0.635804 0.256353 -0.225127 0 127 127
-0.465021 -0.365015 -0.159132 127 127 0
0.100603 -0.384209 0.106559 127 127 0
0.419326 -0.126869 0.216112 127 127 0
0.458771 0.331908 -0.482826 153 0 76
0.155201 -0.387462 0.002311 127 127 0
-0.472675 0.098996 -0.369530 0 127 127
-0.432088 -0.401226 -0.438717 255 0 0
0.419530 0.024984 0.643642 127 0 127
-0.332960 -0.117324 0.521938 127 0 127
0.639952 0.224744 0.220277 76 153 0
-0.487746 0.086635 0.477827 0 127 127
0.139742 -0.383727 0.121993 127 127 0
0.635693 0.191572 0.375893 76 153 0
-0.415336 -0.415141 0.429751 255 0 0
-0.339014 0.141789 -0.340941 153 0 76
0.557634 0.731776 -0.388937 153 76 0
0.440921 -0.312761 0.421626 76 153 0
-0.482223 0.537908 -0.502314 153 0 76
-0.477710 -0.212125 0.045317 127 127 0
0.278002 -0.118441 0.486150 127 0 127
-0.172331 -0.391040 -0.112334 127 127 0
-0.583036 0.329001 -0.335740 76 0 153
0.453611 -0.149939 0.074115 127 127 0
-0.472675 -0.111834 0.175741 127 0 127
-0.095128 -0.088174 0.647174 127 0 127
0.406273 -0.378893 0.276874 127 127 0
-0.375554 -0.121409 0.391057 127 0 127
0.453611 -0.243977 0.130042 76 153 0
0.049775 0.100468 0.249306 127 0 127
0.045224 0.102398 0.193894 127 0 127
-0.465021 -0.018881 -0.139681 127 0 127
-0.556390 0.345402 -0.483610 76 0 153
-0.401864 -0.134085 -0.015112 127 127 0
0.453611 0.067628 -0.340317 76 153 0
0.138345 -0.141462 -0.251496 127 127 0
-0.069919 -0.383166 0.139975 127 127 0
-0.324895 0.072517 -0.223402 127 0 127
-0.578116 0.051893 0.456197 0 127 127
0.292983 -0.385137 0.076808 127 127 0
-0.472675 0.008068 -0.382386 0 127 127
0.582088 0.283407 0.048339 76 153 0
0.590102 0.282943 0.106973 76 153 0
0.079647 0.447474 -0.322483 153 0 76
-0.433837 -0.505939 -0.154074 255 0 0
-0.095446 -0.120098 0.433058 127 0 127
-0.386061 -0.370853 0.534482 127 127 0
0.004859 -0.270232 0.652855 127 127 0
0.047275 -0.111220 -0.469359 127 0 127
0.317312 -0.115975 0.565162 127 127 0
-0.280510 0.764240 -0.450992 153 0 76
0.465351 -0.115960 0.565641 127 0 127
-0.583036 0.502509 -0.488076 76 0 153
0.154727 -0.117547 0.514794 127 0 127
0.453611 -0.185093 -0.021492 127 127 0
0.019182 0.086809 0.580622 127 0 127
0.297480 0.757382 -0.459417 153 0 76
-0.578435 0.074190 -0.404570 0 127 127
-0.047319 0.619446 -0.339134 153 0 76
0.006150 0.360329 -0.496772 153 0 76
0.547317 -0.202980 0.660223 127 127 0
-0.408907 -0.197950 0.650599 127 127 0
0.558032 0.050695 0.638629 127 0 127
-0.482755 0.571425 -0.417851 153 0 76
0.096706 -0.307580 -0.463231 127 127 0
-0.316720 0.099047 -0.355388 153 0 76
0.521802 -0.254507 -0.477583 76 153 0
0.514664 0.661072 -0.493462 153 76 0
-0.095260 0.089406 0.556960 127 0 127
0.458771 0.297615 -0.459272 153 0 76
0.414446 -0.036381 0.658253 127 0 127
0.559052 0.010283 0.478566 76 153 0
0.458771 0.490662 -0.441333 153 0 76
-0.473964 -0.214085 0.663799 127 127 0
0.458771 0.448171 -0.441404 153 0 76
-0.607840 0.125531 -0.077434 0 127 127
-0.140838 -0.383357 0.133853 127 127 0
-0.583036 0.179362 -0.313143 76 0 153
-0.578116 0.000955 -0.197652 0 127 127
0.358439 -0.462230 0.296207 0 0 255
-0.638554 0.166731 0.419015 0 127 127
0.597299 0.125749 -0.253904 76 153 0
0.082467 0.755025 -0.430968 153 0 76
-0.598915 0.284426 0.060455 0 127 127
-0.312215 -0.191226 0.650390 127 127 0
0.598643 0.266810 -0.285267 76 153 0
0.135772 0.096466 0.385132 127 0 127
0.053634 0.067161 -0.487622 153 0 76
0.179470 -0.251971 -0.464966 127 127 0
-0.524965 -0.345256 0.540932 127 127 0
-0.082754 -0.400960 -0.430186 127 127 0
-0.544967 0.657537 -0.428860 76 0 153
0.060173 0.077529 0.637764 127 0 127
0.250536 -0.129391 0.135292 127 0 127
-0.166634 -0.119953 0.437701 127 127 0
0.559052 0.059409 0.045678 76 153 0
0.104763 0.142751 -0.340558 153 0 76
0.392210 -0.387627 -0.002972 127 127 0
0.293125 -0.390636 -0.099402 127 127 0
0.549600 0.777663 -0.281776 153 76 0
0.488407 0.764759 -0.268208 153 76 0
0.351571 -0.131903 -0.468714 127 0 127
0.489901 0.401008 -0.485345 153 0 76
0.528749 0.292992 0.467995 76 153 0
-0.237705 -0.387044 0.015710 127 127 0
-0.497071 -0.225359 -0.275356 0 127 127
-0.608903 0.128362 -0.008306 0 127 127
0.145302 -0.398754 -0.359495 127 127 0
-0.659741 0.217961 0.377117 0 127 127
0.294987 0.095799 0.411786 127 0 127
-0.096448 -0.395258 -0.247490 127 127 0
-0.578116 -0.022792 -0.171151 0 127 127
0.434631 0.705630 -0.398543 153 0 76
0.067282 -0.123064 0.338022 127 0 127
-0.228261 0.742978 -0.467304 153 0 76
-0.506897 0.517731 -0.384138 76 0 153
-0.482755 0.222935 0.059556 0 127 127
-0.482755 0.123420 -0.393090 153 0 76
0.458771 0.149483 -0.449089 153 0 76
0.520982 0.490495 -0.373595 153 76 0
-0.578116 -0.141043 -0.034691 0 127 127
0.390614 -0.470721 -0.439473 0 0 255
-0.461095 -0.318044 -0.475600 127 127 0
0.152596 -0.379001 0.273434 127 127 0
0.504446 -0.382548 0.159758 76 153 0
-0.465021 -0.181071 -0.403808 127 127 0
0.453611 -0.194714 -0.223291 127 127 0
0.380392 -0.436485 0.638352 0 0 255
-0.110129 0.066593 -0.339262 127 0 127
0.623402 0.161355 0.101727 76 153 0
0.559052 -0.026625 0.057812 76 153 0
-0.578116 -0.111543 -0.159515 0 127 127
-0.570346 -0.138944 0.566898 127 127 0
-0.578116 -0.287956 0.436192 0 127 127
-0.429088 -0.120942 0.406006 127 0 127
0.394527 0.191986 -0.352465 153 0 76
-0.454177 -0.139723 -0.195767 127 0 127
0.133187 -0.107955 0.654772 127 0 127
-0.553302 0.099025 -0.484462 0 127 127
0.212038 0.062158 -0.375660 127 0 127
-0.494684 0.626930 -0.505092 76 0 153
-0.056849 -0.132569 0.033450 127 0 127
0.559052 -0.155016 0.334639 76 153 0
-0.503880 -0.385863 0.053533 0 127 127
0.453611 -0.000501 0.233541 127 0 127
-0.452412 -0.271068 0.665578 127 127 0
-0.436309 -0.471989 -0.089449 255 0 0
-0.650109 0.249830 0.169244 0 127 127
0.320723 0.065750 -0.440410 153 0 76
-0.582108 0.111500 0.335816 0 127 127
-0.583036 0.546928 -0.377643 76 0 153
0.490265 -0.369132 0.589651 127 127 0
-0.288094 -0.141029 -0.237623 127 127 0
0.440921 -0.347369 0.226072 76 153 0
-0.424284 -0.443577 0.176241 255 0 0
-0.019259 -0.129005 0.147652 127 0 127
-0.645206 0.162051 -0.005548 0 127 127
0.203650 -0.143872 -0.328704 127 127 0
-0.578116 -0.280341 0.073712 0 127 127
-0.578116 -0.342005 -0.076395 0 127 127
0.086557 -0.071960 0.646667 127 0 127
-0.191532 -0.133072 0.017346 127 0 127
0.528087 0.173266 -0.287797 153 76 0
0.482912 0.281242 -0.380178 153 76 0
0.280400 -0.121169 0.398735 127 0 127
-0.578116 -0.166945 -0.383864 0 127 127
0.304361 -0.237199 -0.478123 127 127 0
-0.552942 -0.383884 0.116962 0 127 127
0.020501 0.755581 -0.477363 153 0 76
-0.303566 0.689459 -0.507044 153 0 76
-0.495501 0.235285 -0.492869 153 0 76
-0.300312 0.630872 -0.505215 153 0 76
0.549300 -0.391349 -0.166993 76 153 0
-0.052607 -0.389350 -0.058196 127 127 0
-0.538502 0.438335 -0.511902 76 0 153
0.363534 -0.146144 -0.401490 127 127 0
0.012290 0.416043 -0.498511 153 0 76
-0.480842 0.267114 -0.493863 153 0 76
0.596034 0.273857 -0.101701 76 153 0
0.387887 -0.395164 -0.244457 127 127 0
-0.430883 -0.442381 -0.158338 255 0 0
-0.583036 0.584149 -0.324453 76 0 153
-0.506897 0.386661 -0.392959 153 0 76
-0.305047 -0.133299 0.010059 127 0 127
0.240788 0.766008 -0.480140 153 0 76
0.277922 -0.393089 -0.177970 127 127 0
-0.578116 -0.219596 -0.302567 0 127 127
-0.415822 -0.436340 0.266784 255 0 0
-0.465021 -0.151342 0.107556 127 127 0
-0.139962 0.092133 -0.036469 127 0 127
-0.295575 -0.129105 0.144457 127 127 0
0.456242 0.018341 -0.282962 76 153 0
0.425871 0.710790 -0.507710 153 0 76
0.321079 0.094774 -0.357991 153 0 76
-0.148932 -0.134771 -0.037085 127 127 0
-0.578116 -0.211667 0.250453 0 127 127
0.553969 -0.320177 0.545606 127 127 0
-0.556295 -0.115052 0.594741 127 127 0
-0.074469 0.688090 -0.359054 153 0 76
-0.303217 0.731048 -0.502177 153 0 76
-0.544967 0.722521 -0.396098 76 0 153
-0.058882 -0.114835 0.601686 127 127 0
-0.196564 0.065372 -0.452520 153 0 76
0.482912 0.679846 -0.407422 153 76 0
-0.542478 0.231665 -0.296552 76 0 153
0.179903 -0.385524 0.064411 127 127 0
0.453611 -0.037174 0.205460 76 153 0
0.409199 -0.476094 0.058832 0 0 255
-0.578116 -0.151742 0.279131 0 127 127
-0.361824 0.090071 0.424168 127 0 127
0.126032 -0.374411 0.420481 127 127 0
0.214475 -0.141905 -0.265689 127 0 127
0.454407 0.198573 0.210477 76 153 0
0.440921 -0.154800 0.272468 127 127 0
0.559052 -0.142339 0.219747 76 153 0
0.265556 0.084127 0.061932 127 0 127
0.319275 -0.117113 0.528703 127 127 0
0.453611 0.086547 0.378216 76 153 0
0.210061 -0.193732 -0.466784 127 127 0
0.440921 -0.209955 0.470888 76 153 0
-0.544487 0.557690 -0.291599 76 0 153
-0.583036 0.444274 -0.371763 76 0 153
-0.465021 -0.353781 0.094391 0 127 127
-0.103003 0.103017 0.176259 127 0 127
0.110176 -0.231142 -0.478312 127 127 0
-0.472675 0.143987 -0.013737 0 127 127
-0.028666 0.097782 0.332503 127 0 127
-0.385550 -0.477351 -0.161589 255 0 0
0.321268 0.082702 0.153121 127 0 127
-0.472675 0.068800 -0.016123 0 127 127
-0.180391 -0.275563 -0.464230 127 127 0
0.482912 0.680633 -0.459904 153 0 76
-0.506897 0.219149 -0.351220 76 0 153
0.420694 -0.369478 0.578547 127 127 0
0.453611 0.008587 0.109000 127 0 127
-0.202771 0.655313 -0.349979 153 0 76
0.559052 0.054399 -0.336737 76 153 0
-0.530060 0.319614 -0.302090 76 0 153
0.440921 -0.073155 -0.218912 127 0 127
0.353584 0.390083 -0.346803 153 0 76
-0.482755 0.402305 -0.413629 153 0 76
0.543399 0.048195 -0.283894 76 153 0
-0.559043 0.294428 0.416503 0 127 127
-0.578116 -0.212889 -0.451150 0 127 127
-0.231542 -0.139886 -0.200989 127 127 0
-0.577405 -0.376063 -0.005257 0 127 127
0.196861 0.674991 -0.506592 153 0 76
0.453611 -0.215731 0.038649 76 153 0
-0.395605 0.742039 -0.483267 153 0 76
0.009721 0.316913 -0.320852 153 0 76
-0.345312 -0.142648 -0.289495 127 127 0
-0.583792 0.102549 -0.066710 0 127 127
-0.366974 -0.118242 0.492530 127 0 127
0.440921 -0.209017 0.070970 127 127 0
0.453611 0.114425 0.073117 76 153 0
-0.036451 -0.138488 -0.156192 127 127 0
-0.578116 -0.167355 -0.346973 0 127 127
-0.209838 0.430818 -0.498972 153 0 76
-0.154313 -0.129960 0.117070 127 127 0
0.521766 0.078999 0.562085 127 0 127
-0.144366 -0.380027 0.240544 127 127 0
-0.661545 0.243703 0.499875 0 127 127
0.520982 0.470946 -0.435666 153 76 0
0.559052 0.024099 -0.119037 76 153 0
-0.506897 0.547269 -0.298036 76 0 153
0.376517 0.062842 -0.272624 127 0 127
-0.482755 0.155855 -0.473999 153 0 76
-0.144229 0.089208 -0.092570 127 0 127
0.082855 0.074959 -0.371247 153 0 76
0.484532 0.104165 -0.319782 76 153 0
0.199472 -0.123264 0.331627 127 127 0
-0.394441 -0.137190 -0.114611 127 0 127
-0.439998 0.434690 -0.499093 153 0 76
-0.472675 0.145094 0.421863 0 127 127
0.520982 0.321799 -0.429130 153 76 0
0.008045 0.782322 -0.509942 153 0 76
0.453611 0.096317 -0.391892 153 0 76
0.453611 -0.179845 0.335489 127 127 0
-0.165218 0.083151 -0.155759 127 0 127
-0.093127 -0.135922 -0.073976 127 127 0
-0.080841 0.646748 -0.505711 153 0 76
-0.482755 0.260591 -0.406472 153 0 76
0.559052 -0.181509 0.000585 76 153 0
0.519887 0.005705 0.504587 76 153 0
0.306386 -0.382729 0.153977 127 127 0
0.205974 0.097105 0.359546 127 0 127
0.440921 -0.112561 -0.321090 127 0 127
0.054174 0.088202 -0.102908 127 0 127
0.467899 -0.398467 -0.350304 76 153 0
0.434474 -0.382543 0.159926 127 127 0
-0.443807 -0.146914 -0.426177 127 0 127
-0.240292 0.096763 0.373232 127 0 127
-0.616712 0.145428 0.368600 0 127 127
0.298010 0.037984 -0.442396 127 0 127
-0.475361 0.211691 0.357070 0 127 127
0.086416 0.100521 0.247763 127 0 127
0.559052 0.675034 -0.467467 153 76 0
0.459531 0.222195 0.365137 76 153 0
-0.174565 -0.127744 0.188059 127 127 0
-0.462747 0.509994 -0.378805 153 0 76
-0.244404 -0.172174 0.662491 127 127 0
-0.086646 0.037225 -0.466692 127 0 127
-0.028054 0.099792 0.268776 127 0 127
0.443821 -0.367804 0.543243 127 127 0
-0.127008 0.086009 -0.125428 127 0 127
-0.405891 0.092422 0.523580 127 0 127
-0.377102 -0.192752 0.650437 127 127 0
-0.228884 -0.346483 -0.462017 127 127 0
-0.343720 0.724827 -0.483306 153 0 76
-0.465021 0.022023 0.464306 0 127 127
0.559989 0.092253 0.040228 76 153 0
0.380116 0.703088 -0.507469 153 0 76
-0.436309 -0.460248 0.329787 255 0 0
-0.458128 -0.173587 -0.480109 0 127 127
-0.098450 -0.125303 0.266272 127 0 127
0.210151 0.091067 0.161031 127 0 127
-0.506897 0.323030 -0.467790 76 0 153
0.320906 -0.132205 0.045122 127 127 0
-0.069765 -0.393962 -0.205948 127 127 0
0.377323 -0.424450 -0.332983 0 0 255
-0.398838 -0.393057 -0.176955 127 127 0
-0.307358 -0.286150 0.666048 127 127 0
0.522330 0.518368 -0.514400 153 76 0
0.559052 -0.332272 -0.211205 76 153 0
-0.489702 0.244082 0.335476 0 127 127
0.126252 -0.390844 -0.106058 127 127 0
0.351428 -0.374696 -0.461136 127 127 0
0.559052 -0.147122 -0.114472 76 153 0
-0.416019 -0.125567 0.257834 127 0 127
-0.528799 -0.015478 -0.485043 0 127 127
-0.163092 0.157336 -0.334938 153 0 76
-0.578116 0.031821 -0.484877 0 127 127
0.099684 0.541994 -0.330836 153 0 76
0.035001 -0.399120 -0.371240 127 127 0
0.559052 0.524108 -0.301977 153 76 0
0.559052 -0.110471 0.416040 76 153 0
0.134040 -0.367782 -0.474048 127 127 0
-0.465021 -0.050424 0.153481 127 0 127
0.519957 0.455305 -0.512432 153 76 0
-0.659803 0.211227 0.093325 0 127 127
-0.436309 -0.428168 -0.376958 255 0 0
-0.653551 0.182508 0.175247 0 127 127
-0.553133 0.278446 -0.053761 0 127 127
0.138022 -0.396604 -0.290625 127 127 0
-0.072034 -0.136938 -0.106529 127 127 0
0.071667 0.753809 -0.494068 153 0 76
-0.102101 -0.122242 0.364347 127 127 0
-0.435334 -0.381566 0.191222 127 127 0
0.453611 -0.234030 0.234069 127 127 0
-0.315555 0.082134 0.061794 127 0 127
-0.329677 0.078069 0.657204 127 0 127
-0.556379 -0.327552 -0.272167 0 127 127
-0.099064 0.107414 -0.352735 153 0 76
-0.465021 -0.095533 0.232392 127 0 127
0.350641 -0.386270 0.040511 127 127 0
0.456370 0.010564 0.644092 127 0 127
-0.384225 0.637363 -0.357206 153 0 76
-0.437326 0.234435 -0.358652 153 0 76
-0.057557 0.476200 -0.323125 153 0 76
-0.477710 -0.090255 -0.158924 127 0 127
-0.120107 -0.139780 -0.197607 127 0 127
0.559052 -0.355530 -0.430936 76 153 0
-0.465021 -0.356710 0.042288 127 127 0
0.231519 0.565436 -0.335236 153 0 76
0.461935 0.231872 0.470308 76 153 0
-0.477710 -0.032412 -0.463980 127 0 127
-0.062556 -0.119764 0.443744 127 0 127
0.440921 -0.049316 0.043015 127 0 127
-0.289839 0.072569 -0.275376 127 0 127
-0.482755 0.146961 -0.433869 153 0 76
-0.549554 0.731287 -0.260724 76 0 153
-0.294811 -0.112391 0.666546 127 0 127
0.064327 -0.372891 0.469191 127 127 0
0.339927 -0.401055 -0.433238 127 127 0
-0.265281 0.038402 -0.430184 127 0 127
-0.316760 -0.119351 0.456982 127 127 0
0.254947 0.626748 -0.346437 153 0 76
-0.472675 -0.120118 -0.214994 127 0 127
-0.133269 0.753403 -0.423021 153 0 76
-0.472675 0.069170 -0.091524 127 0 127
0.436909 0.066590 -0.413483 153 0 76
0.228182 -0.057527 0.658913 127 0 127
0.457928 0.200402 -0.196498 76 153 0
0.453611 -0.328579 -0.018513 76 153 0
0.260778 -0.139260 -0.180932 127 0 127
0.546685 0.016377 -0.282901 76 153 0
-0.482646 0.418242 -0.498579 153 0 76
0.440921 -0.051330 0.102068 76 153 0
-0.489878 -0.397951 -0.333781 0 127 127
-0.510501 0.049266 0.655580 127 0 127
-0.386482 0.076530 0.094200 127 0 127
-0.554840 0.488788 -0.272926 76 0 153
-0.402488 -0.123190 0.333976 127 127 0
-0.488409 0.200723 -0.288654 0 127 127
0.453611 -0.310556 0.114923 127 127 0
-0.184446 -0.131747 0.059802 127 0 127
0.175953 0.220461 -0.325406 153 0 76
-0.420543 -0.032832 0.658142 127 0 127
0.324325 0.612147 -0.504631 153 0 76
0.440921 -0.298239 -0.041838 127 127 0
0.198424 0.093563 0.486649 127 0 127
0.559052 -0.352059 0.055305 76 153 0
0.031577 -0.136646 -0.097181 127 127 0
0.536056 -0.325638 -0.272227 76 153 0
-0.578116 -0.080868 0.161352 0 127 127
-0.288840 0.678484 -0.364754 153 0 76
-0.057711 -0.392595 -0.162160 127 127 0
0.616221 0.263330 -0.016927 76 153 0
0.269601 -0.138228 -0.147863 127 127 0
-0.422048 -0.365205 0.666286 127 127 0
-0.482755 0.605607 -0.405260 153 0 76
0.559052 0.625182 -0.369378 153 76 0
-0.323528 -0.138829 -0.167109 127 127 0
-0.074350 -0.111922 -0.482033 127 0 127
-0.578116 -0.158054 -0.448593 0 127 127
-0.537315 0.062682 0.502809 0 127 127
0.490933 0.265219 0.498259 76 153 0
0.011755 -0.401042 -0.432828 127 127 0
0.358439 -0.472348 0.245060 0 0 255
0.484691 0.025533 0.643625 127 0 127
0.613619 0.157970 0.335415 76 153 0
0.417338 0.057822 -0.143466 127 0 127
-0.544967 0.131060 -0.295743 0 127 127
-0.578116 -0.343998 0.081472 0 127 127
0.175513 -0.398431 -0.349164 127 127 0
0.031471 -0.120218 0.429223 127 0 127
0.453611 0.145488 0.301073 76 153 0
0.451366 0.143019 -0.374663 153 0 76
-0.583036 0.672956 -0.345652 76 0 153
-0.583036 0.407024 -0.487615 76 0 153
-0.265217 -0.368364 0.614245 127 127 0
-0.132810 -0.372719 0.474693 127 127 0
-0.363784 0.076125 -0.012297 127 0 127
0.440921 -0.035329 -0.196202 127 0 127
-0.578116 -0.049030 0.351661 0 127 127
0.502638 0.311107 -0.507442 153 76 0
-0.420933 -0.127456 0.197289 127 0 127
-0.338067 0.036424 -0.493008 127 0 127
-0.533492 0.176227 -0.264992 76 0 153
-0.207724 -0.162372 -0.467763 127 127 0
-0.353816 -0.135671 -0.481292 127 0 127
-0.185880 -0.384837 0.086431 127 127 0
0.110990 -0.277770 0.653091 127 127 0
0.557659 0.225150 -0.493806 153 76 0
-0.132361 -0.135979 -0.075813 127 0 127
-0.637094 0.255910 -0.192710 0 127 127
-0.465021 -0.334969 -0.191092 127 127 0
0.409199 -0.475836 -0.300693 0 0 255
0.237397 -0.128679 0.648438 127 127 0
-0.571920 0.286805 0.104502 0 127 127
-0.415342 -0.396467 0.532129 255 0 0
0.520982 0.597374 -0.461202 153 76 0
0.458771 0.468879 -0.488830 153 0 76
0.263858 0.040087 0.655867 127 0 127
-0.453410 0.552686 -0.502775 153 0 76
0.559052 -0.225352 -0.027216 76 153 0
0.616759 0.271450 0.259302 76 153 0
0.298821 -0.335284 0.654886 127 127 0
0.453611 -0.122949 -0.448599 127 0 127
-0.524653 0.523048 -0.270989 76 0 153
-0.516270 0.554572 -0.511579 76 0 153
0.559045 -0.226446 0.555111 127 127 0
-0.566198 0.258747 -0.298958 0 127 127
0.090003 0.649847 -0.346812 153 0 76
0.227976 0.038354 -0.430900 153 0 76
-0.498085 -0.394279 -0.216126 0 127 127
0.371576 -0.502262 0.239974 0 0 255
-0.395882 -0.387550 -0.000496 127 127 0
-0.342434 -0.394142 -0.211718 127 127 0
0.247753 0.312022 -0.327957 153 0 76
-0.469869 0.144642 0.504402 0 127 127
0.381999 -0.448472 -0.006905 0 0 255
-0.472675 -0.085886 -0.460672 127 0 127
-0.322992 0.589739 -0.503932 153 0 76
-0.381407 0.085969 0.370849 127 0 127
-0.063675 0.579041 -0.503598 153 0 76
0.558991 -0.086871 -0.482815 76 153 0
0.440921 -0.344969 -0.358455 76 153 0
-0.145986 -0.126767 0.648378 127 127 0
0.482912 0.503343 -0.348502 153 76 0
-0.581433 0.619142 -0.268507 76 0 153
0.506440 0.264848 -0.103670 76 153 0
0.393744 -0.147263 -0.437367 127 127 0
-0.465021 -0.321272 -0.129786 0 127 127
0.148795 0.739593 -0.388083 153 0 76
-0.254282 -0.269288 0.652826 127 127 0
0.032840 -0.368839 0.599021 127 127 0
0.316176 -0.326469 -0.475337 127 127 0
-0.406148 0.078463 0.256095 127 0 127
0.411907 0.287959 -0.494513 153 0 76
0.031235 -0.140744 -0.228465 127 127 0
0.097503 0.098984 0.134985 127 0 127
0.095890 0.484887 -0.324924 153 0 76
0.409199 -0.469182 -0.146038 0 0 255
-0.041078 -0.117247 0.524412 127 0 127
-0.506897 0.724245 -0.432167 153 0 76
0.559052 -0.127501 -0.454194 76 153 0
0.482912 0.180876 -0.356263 153 76 0
0.453611 -0.261081 -0.090845 127 127 0
0.421081 0.471964 -0.368935 153 0 76
-0.544967 0.424102 -0.351928 76 0 153
-0.508472 0.119478 0.501036 0 127 127
0.529827 0.268793 -0.481219 153 76 0
0.459916 -0.125917 0.156290 127 0 127
-0.465021 -0.321694 0.220027 127 127 0
-0.420285 -0.511809 0.027994 255 0 0
-0.131567 0.098528 0.146556 127 0 127
-0.298940 -0.395961 -0.269997 127 127 0
-0.004222 0.362495 -0.317735 153 0 76
0.352500 -0.378710 0.282736 127 127 0
0.409199 -0.509823 -0.051763 0 0 255
0.015555 0.096687 0.376285 127 0 127
-0.438676 0.042482 -0.472093 153 0 76
0.259766 0.762630 -0.437268 153 0 76
0.038865 0.091259 -0.071509 127 0 127
-0.116295 0.624422 -0.505014 153 0 76
0.067497 0.782269 -0.440788 153 0 76
-0.184997 -0.240526 0.664624 127 127 0
0.518305 -0.394019 -0.207788 76 153 0
0.559052 0.037578 0.299121 76 153 0
-0.578116 -0.126802 0.450587 0 127 127
-0.284248 0.530644 -0.335502 153 0 76
0.455692 -0.234567 0.516248 76 153 0
0.513680 0.725677 -0.483213 153 76 0
0.559052 -0.361347 -0.319903 76 153 0
-0.148480 -0.141250 -0.244679 127 127 0
-0.385550 -0.448587 -0.206725 255 0 0
